# .PCD v0.7 - Point Cloud Data file format
VERSION 0.7
FIELDS x y z
SIZE 4 4 4
TYPE F F F
COUNT 1 1 1
WIDTH 879
HEIGHT 1
VIEWPOINT 0 0 0 1 0 0 0
POINTS 879
DATA ascii
-0.29366234 -0.021699488 -0.1225047
-0.19261712 -0.023872834 -0.12138312
-0.17573676 -0.024380963 -0.12151868
-0.12722829 -0.023791566 -0.12195712
-0.070787258 -0.020499185 -0.12158027
-0.010064961 -0.024482561 -0.12053254
0.0055912398 -0.024293017 -0.12165126
0.031740751 -0.020564314 -0.12239096
0.056492884 -0.021409193 -0.12156583
0.067698292 -0.022803858 -0.12163722
0.12406744 -0.022604737 -0.12239555
0.1746527 -0.02133975 -0.12249477
0.28643641 -0.023448415 -0.12212048
0.29395491 -0.021992303 -0.12155658
-0.34506825 -0.014961509 -0.12102762
-0.06869895 -0.018811805 -0.12092569
0.01490863 -0.01881313 -0.12124868
0.20350745 -0.019764487 -0.12213789
0.3736636 -0.0089010717 -0.12062347
-0.20043476 -0.024440762 -0.11034563
-0.14888348 -0.024442201 -0.1106957
-0.038347583 -0.024477122 -0.11920717
0.061775949 -0.024445256 -0.11144067
0.14928925 -0.024449009 -0.11235534
0.27487007 -0.024479855 -0.11987301
-0.35673177 -0.010349479 -0.11515804
-0.21958849 -0.018786523 -0.11476191
-0.20115784 -0.018788053 -0.11513475
-0.10747543 -0.018771939 -0.11120559
-0.06697692 -0.018768139 -0.11027941
-0.052525159 -0.018779252 -0.11298913
0.084044538 -0.018776674 -0.11235986
0.12460764 -0.018779112 -0.11295477
0.17055069 -0.018786145 -0.11466949
0.28188944 -0.018767534 -0.11013155
0.30009177 -0.018789126 -0.1153959
0.37147689 -0.012267557 -0.11271751
-0.39683336 -7.9184654e-05 -0.1157831
-0.3817817 -0.0095823901 -0.11738217
-0.37730095 -0.0048380885 -0.11175209
-0.36799508 -0.0073967464 -0.11875814
-0.35943949 -0.0095719686 -0.11034798
0.39057499 -0.0019276789 -0.11716597
-0.32023531 -0.024408264 -0.10242409
-0.25929227 -0.024416624 -0.10446189
-0.21081486 -0.024430519 -0.10784822
-0.16832997 -0.024424603 -0.10640675
-0.11712861 -0.024406338 -0.10195481
-0.044115465 -0.024432436 -0.10831551
-0.025416085 -0.024405349 -0.10171379
0.043684475 -0.024410529 -0.10297623
0.12712005 -0.024423607 -0.10616414
0.19325262 -0.024433281 -0.10852161
0.25879684 -0.024429267 -0.10754342
0.26194885 -0.024413338 -0.1036609
-0.22257347 -0.018747807 -0.10532187
-0.12533134 -0.018750198 -0.10590456
-0.053966109 -0.018765775 -0.10970277
-0.022348031 -0.018732831 -0.10167041
0.086124972 -0.018748254 -0.10543043
0.15235204 -0.018765051 -0.10952623
0.34570801 -0.01604614 -0.1009074
-0.39287779 -0.00064012932 -0.10715247
-0.36019295 -0.0092814052 -0.10278492
0.4145444 0.0030644941 -0.10905187
-0.23225564 -0.02437738 -0.094897233
-0.22506502 -0.024390459 -0.098084688
-0.17814475 -0.024363529 -0.09152139
-0.16474706 -0.024379903 -0.095511869
-0.15986037 -0.024387531 -0.097371504
-0.074310228 -0.02437607 -0.09457773
-0.035500135 -0.024385381 -0.09684743
-0.010129505 -0.024370721 -0.093274012
0.00089543214 -0.024365539 -0.0920109
0.056615666 -0.024362542 -0.091281228
0.11561829 -0.02437276 -0.093770608
0.1672899 -0.024371102 -0.093367197
0.17972279 -0.024387985 -0.097481385
0.18658909 -0.024385642 -0.096911259
0.19246919 -0.02438274 -0.096203357
0.28850853 -0.024362558 -0.091284402
0.31009141 -0.024381217 -0.095832303
-0.35139102 -0.01158009 -0.099233925
-0.345476 -0.013104807 -0.095168799
-0.32912642 -0.017435832 -0.09370786
-0.26143497 -0.018696554 -0.092825264
-0.25167981 -0.018707279 -0.095440045
-0.17034972 -0.018687058 -0.090510234
-0.15230252 -0.018703021 -0.09440212
-0.045320164 -0.018724315 -0.099593997
0.018952422 -0.018686991 -0.090494052
0.02175325 -0.018710457 -0.096215107
0.046196572 -0.018694803 -0.092398442
0.051667005 -0.018724132 -0.099549606
0.086188294 -0.018699851 -0.093629166
0.18740402 -0.018701458 -0.094021171
0.23828319 -0.018689375 -0.091075078
0.30562311 -0.018697642 -0.093090475
0.31990963 -0.018694734 -0.092381649
0.32485947 -0.018632667 -0.098917827
0.3499046 -0.017755821 -0.091766864
0.36292797 -0.014288414 -0.091486059
0.36993039 -0.0065766699 -0.093165413
0.38458928 -0.0027286327 -0.097436801
-0.42267999 0.0015551628 -0.095638424
-0.41738561 0.0001595004 -0.094577037
0.40425086 0.0025717763 -0.091510773
-0.19929801 -0.024326403 -0.082472518
-0.18049884 -0.024332127 -0.083867416
-0.15501849 -0.024326095 -0.082397684
-0.03067103 -0.024342606 -0.086421661
-0.027943144 -0.024336644 -0.084968217
0.082718089 -0.0243476 -0.087638855
0.16395313 -0.024319768 -0.080855489
0.20284954 -0.024346648 -0.087407008
0.2650083 -0.024352707 -0.088883221
-0.35954875 -0.015105834 -0.084651604
-0.27110589 -0.01867504 -0.087580502
-0.20623474 -0.018644039 -0.080021106
-0.16108188 -0.018656228 -0.082993008
-0.11567353 -0.018649049 -0.081242874
-0.10169855 -0.018652216 -0.082014538
-0.082852907 -0.018675264 -0.08763437
-0.061301555 -0.018663868 -0.084856167
-0.055433512 -0.018658239 -0.08348383
0.041390281 -0.018681381 -0.089125969
0.21880887 -0.018676333 -0.087894991
0.27711427 -0.018646274 -0.080566153
0.28106314 -0.018683417 -0.08962208
0.35557005 -0.010316148 -0.086465567
0.36499193 -0.013702387 -0.088379078
-0.39003462 -0.001155162 -0.086917147
-0.38776889 -0.0076512005 -0.088960603
0.36431071 -0.0079330336 -0.081567571
-0.44441098 0.0074174358 -0.088712409
-0.43371889 0.0046572532 -0.08171165
0.42987552 0.0095157214 -0.080818012
0.44450605 0.0074619269 -0.087100148
0.43755892 0.011474207 -0.087947801
-0.24792315 -0.024293361 -0.07441929
-0.20439222 -0.024296002 -0.075063162
-0.19329876 -0.024289837 -0.07356067
-0.18727738 -0.024306374 -0.077590831
-0.11690444 -0.024277557 -0.070567407
-0.008820286 -0.024290733 -0.073778793
0.056107238 -0.024278561 -0.070811763
0.0659995 -0.024301641 -0.076437093
0.14223343 -0.024310026 -0.078481019
0.17759013 -0.024275891 -0.070161432
0.28691658 -0.024306705 -0.07767199
0.30300221 -0.024278726 -0.070852369
0.33431017 -0.021692112 -0.074009553
-0.36134392 -0.014558354 -0.078780547
-0.34459502 -0.013096933 -0.074854739
-0.31753066 -0.018610872 -0.071934268
-0.29562935 -0.018620692 -0.074328952
-0.28814572 -0.018603314 -0.070091739
-0.26367986 -0.018625757 -0.075563662
-0.24638128 -0.018623728 -0.075069107
-0.23300835 -0.018618487 -0.073791243
-0.13354595 -0.018636858 -0.07827045
-0.10539101 -0.018628685 -0.076277614
-0.05412269 -0.018621972 -0.07464081
-0.025607847 -0.018604446 -0.070367545
0.051705461 -0.018633267 -0.077394873
0.090855092 -0.018606897 -0.070965528
0.26015308 -0.018617412 -0.073528767
0.29932573 -0.018639594 -0.07893756
0.36352202 -0.0080677513 -0.075271443
0.37887645 -0.0040365532 -0.079686396
0.38113534 -0.0092742173 -0.077116951
0.39305562 -0.0060776118 -0.074931569
-0.42313629 0.0018979909 -0.077053979
0.43812108 0.0058644973 -0.078654073
0.45745349 0.0118101 -0.075298317
-0.30968872 -0.024269903 -0.068701752
-0.27976716 -0.024248183 -0.063408412
-0.26832697 -0.024246052 -0.062888615
-0.24018876 -0.024257738 -0.065737449
-0.2098387 -0.02425346 -0.064694151
-0.15728489 -0.024266636 -0.067905642
-0.098893724 -0.024258036 -0.065809816
-0.081721738 -0.024258984 -0.066040933
0.016358273 -0.024238611 -0.061075009
0.076490156 -0.02425934 -0.06612768
0.12353565 -0.024257939 -0.065785825
0.14800064 -0.02426672 -0.067926496
0.15815367 -0.024271162 -0.069008961
0.17367452 -0.024264917 -0.067486599
0.19697621 -0.024249531 -0.063736811
0.33922035 -0.020219622 -0.060045406
-0.3230637 -0.018590607 -0.066993549
-0.13506946 -0.018569371 -0.061815642
-0.10920687 -0.018568749 -0.061664127
-0.087137878 -0.018584698 -0.065552749
-0.063665442 -0.018574893 -0.063162088
-0.055214692 -0.018593293 -0.067648135
0.045716938 -0.018596176 -0.068351224
0.051013045 -0.018574189 -0.062990651
0.078632973 -0.01856431 -0.060581889
0.082455084 -0.018595887 -0.068280876
0.13258781 -0.018576236 -0.063489616
0.22860119 -0.018598685 -0.068963073
0.26305404 -0.018572995 -0.062699482
0.30559543 -0.018586174 -0.065912612
0.31330657 -0.01858278 -0.065085396
0.3521522 -0.016785279 -0.060498066
-0.41111881 -0.0012008087 -0.068840466
-0.38667256 -0.0076263542 -0.062411584
-0.36301702 -0.0080546942 -0.062892698
0.35759467 -0.009506559 -0.063723594
0.37075591 -0.0060208337 -0.064957909
0.4086754 -0.001803887 -0.064922273
-0.42756581 0.0031986255 -0.066781864
0.4276275 0.0032872104 -0.060726736
0.43565932 0.005389031 -0.063614301
-0.45612329 0.016665088 -0.066695735
0.4652971 0.013307657 -0.060665309
-0.30239126 -0.024226561 -0.058137991
-0.1800099 -0.024230961 -0.059210744
-0.14693958 -0.024231981 -0.059459113
-0.12269145 -0.024220522 -0.05666659
-0.11859182 -0.024199855 -0.051629454
-0.085354194 -0.024222614 -0.057176147
-0.063720532 -0.024211662 -0.054506503
-0.046160851 -0.024218518 -0.056177989
-0.0263437 -0.024228653 -0.058648184
0.0038056509 -0.02421402 -0.055081785
0.015528013 -0.02423393 -0.059934229
0.039557904 -0.02421524 -0.05537894
0.10595159 -0.024220563 -0.056676283
0.15410705 -0.024210721 -0.054277953
0.19130139 -0.024226932 -0.058228832
0.2173918 -0.024194017 -0.050206743
0.23849253 -0.024228528 -0.058618262
-0.30518839 -0.018521715 -0.050196484
-0.29664013 -0.018521802 -0.050217643
-0.28388727 -0.018542148 -0.055178668
-0.16897874 -0.018543908 -0.055607378
-0.15604135 -0.018561449 -0.059884366
-0.087766156 -0.018527212 -0.051536545
-0.070324965 -0.018528771 -0.051916838
0.033362202 -0.018526856 -0.051450152
0.040692553 -0.018529842 -0.052177679
0.058559563 -0.018528016 -0.05173276
0.095102228 -0.018555116 -0.058340285
0.14451323 -0.018527515 -0.051610351
0.25111985 -0.018554993 -0.058310289
0.32910925 -0.016948014 -0.052409239
0.35296434 -0.016514113 -0.0558713
-0.39401358 -0.0055470574 -0.051774651
0.41142863 -0.00099822367 -0.058768716
0.40459847 0.0031053596 -0.054504953
0.43516994 0.0053389138 -0.056896836
0.44467512 0.0078802425 -0.055774979
0.45007563 0.0093446523 -0.053414039
-0.46288615 0.018626291 -0.053068124
0.4464179 0.014201892 -0.056793872
0.46787477 0.014061205 -0.054978725
0.4716166 0.016641384 -0.052577302
-0.47015142 0.020593042 -0.050190255
-0.31496105 -0.02415623 -0.040996689
-0.25916606 -0.024156122 -0.040970106
-0.16953927 -0.024156693 -0.041109599
-0.057192199 -0.024162428 -0.042507671
-0.044750847 -0.024175989 -0.045811825
-0.010684667 -0.02418597 -0.048244707
0.087116078 -0.02418703 -0.048503503
0.12770571 -0.024163509 -0.042770527
0.23809779 -0.024173785 -0.045275271
0.31971794 -0.024173072 -0.045101304
0.32334021 -0.021125231 -0.046904583
-0.30257466 -0.018484589 -0.04114414
-0.20684671 -0.018513102 -0.048096448
-0.16738223 -0.018487334 -0.041813102
-0.13419534 -0.018506285 -0.046433851
-0.073208578 -0.018512232 -0.047884054
-0.012855694 -0.018514629 -0.048468679
0.085676409 -0.018520445 -0.049886558
0.12406862 -0.018491305 -0.042781949
0.17742476 -0.018508462 -0.046964787
0.28502911 -0.018480208 -0.040076092
-0.41423091 -5.9892714e-05 -0.042565078
0.36497432 -0.0072900169 -0.042433713
0.3750369 -0.0046042758 -0.041641176
0.3900454 -0.0065294756 -0.04567245
-0.41810793 0.0067816935 -0.047566935
-0.39605266 0.00090945122 -0.047995288
0.427728 0.0093983095 -0.042744514
0.44482917 0.0080584045 -0.044264264
-0.45419446 0.01639168 -0.046594806
-0.30647781 -0.024135718 -0.035997368
-0.2985844 -0.024119465 -0.03203582
-0.26723585 -0.024121756 -0.032594442
-0.16301019 -0.024142722 -0.037704125
-0.11705459 -0.024120815 -0.032365035
-0.051493004 -0.024130996 -0.034846406
0.022753922 -0.024140831 -0.037243471
0.035675194 -0.024150185 -0.039523371
0.078047052 -0.02413632 -0.036143582
0.12860353 -0.024140019 -0.03704505
0.14651704 -0.02414329 -0.03784262
0.15872487 -0.024137989 -0.036550906
0.17756246 -0.024122413 -0.03275447
0.20685592 -0.024113312 -0.030536387
0.23161145 -0.024112657 -0.03037658
0.29835016 -0.024144633 -0.038170207
0.32232249 -0.024151845 -0.039927799
-0.29240698 -0.018472878 -0.038289003
-0.23632026 -0.018474279 -0.038630784
-0.1895968 -0.018451396 -0.033051465
-0.15380396 -0.018472597 -0.038220227
-0.13197018 -0.01846204 -0.035646714
-0.061727554 -0.018474773 -0.038751036
-0.028217727 -0.018458512 -0.034786571
-0.0035690702 -0.018449135 -0.032499995
0.11937562 -0.018451542 -0.033087291
0.13922423 -0.01844153 -0.03064578
0.15192595 -0.018469941 -0.037572592
0.17667723 -0.018450461 -0.032822933
0.23198302 -0.018471358 -0.037918404
0.28319898 -0.018445699 -0.031661995
0.34424493 -0.018557994 -0.0327668
-0.37168497 -0.0054649976 -0.039039928
-0.36200678 -0.0080235982 -0.037747294
0.37693661 -0.0040571764 -0.038130134
0.38170254 -0.0086303158 -0.035756938
-0.43820056 0.0063755056 -0.037544802
0.40701982 0.0039493656 -0.037734438
0.42865539 0.0097926231 -0.030361203
-0.45787549 0.011677544 -0.031750962
0.44146705 0.01308709 -0.039857797
0.46612591 0.013848468 -0.033778582
-0.27749974 -0.024097282 -0.026629191
-0.12719777 -0.024102706 -0.027951406
-0.11422988 -0.024106111 -0.02878109
-0.10294253 -0.024071418 -0.020325165
-0.095705956 -0.024096157 -0.026355319
-0.080026172 -0.024078436 -0.022036172
-0.065382108 -0.024088189 -0.024413221
-0.05504787 -0.024105571 -0.028649364
-0.008829182 -0.024089228 -0.024666358
0.0039352188 -0.024103623 -0.028174654
0.1022563 -0.024076184 -0.021486979
0.29898471 -0.024096806 -0.026513409
0.32268882 -0.024104562 -0.028403547
0.3368198 -0.020404514 -0.021989007
-0.31880766 -0.018404353 -0.02158099
-0.27843991 -0.018433252 -0.028627457
-0.24036847 -0.018424895 -0.026589852
-0.23815693 -0.018398058 -0.02004602
-0.18539508 -0.018427048 -0.027114559
-0.12316559 -0.018420428 -0.025500141
-0.085608914 -0.018409237 -0.022772126
-0.030810814 -0.018416408 -0.024520595
-0.0065290034 -0.018399805 -0.020472094
0.0011270548 -0.018410474 -0.023074124
0.14325514 -0.01840985 -0.022921521
0.2618205 -0.018431192 -0.028125172
0.31362146 -0.018423883 -0.026342921
0.37143916 -0.011234551 -0.025210042
0.41093591 -0.0006967794 -0.022470996
0.42451829 0.0087325247 -0.026969487
0.44338113 0.0079387743 -0.021988442
0.43490168 0.01148118 -0.028097235
-0.32321709 -0.023998931 -0.019979205
-0.30360398 -0.024059732 -0.017477486
-0.29180124 -0.024047729 -0.014551751
-0.27649045 -0.024049211 -0.014912914
-0.1718307 -0.024046153 -0.01416726
-0.15671821 -0.024049815 -0.015060108
-0.076799415 -0.024058662 -0.017216217
0.021638993 -0.024061546 -0.017919283
0.032486957 -0.024032356 -0.010804929
-0.3479729 -0.017358113 -0.015283575
-0.29009536 -0.018358244 -0.010338895
-0.26064315 -0.018373474 -0.014052551
-0.21809676 -0.01839095 -0.018313248
-0.14577119 -0.018361334 -0.011092514
-0.071669981 -0.01839341 -0.018913241
0.1205985 -0.018368341 -0.012800386
0.13826339 -0.018385809 -0.017059678
0.14797716 -0.018361064 -0.011026364
0.15410018 -0.018369997 -0.0132045
0.20959714 -0.018393179 -0.018856972
0.22533885 -0.018381264 -0.015951939
0.24614364 -0.018377895 -0.015130261
0.34114259 -0.019157082 -0.013798721
-0.40865383 -0.0012635124 -0.019080129
-0.39511377 -0.0048393109 -0.016945444
-0.35987809 -0.0083297305 -0.015938165
0.3836228 -0.0078974431 -0.017123407
0.39128715 -0.0057876352 -0.01114687
-0.42485029 0.0090218261 -0.01010704
-0.39459899 0.00092128199 -0.01456438
0.42650414 0.0035233079 -0.015835984
0.43467444 0.0056903106 -0.016351979
0.44976944 0.0096689779 -0.019369386
-0.45361426 0.013663373 -0.016297733
-0.46665594 0.020097153 -0.013791994
0.46978569 0.020945087 -0.012503756
-0.31236836 -0.024009919 -0.0053360709
-0.26738203 -0.024020571 -0.0079325363
-0.25118911 -0.02400988 -0.0053264443
-0.21766043 -0.024015907 -0.0067958236
-0.1766272 -0.023991045 -0.00073648896
-0.13604419 -0.024028722 -0.0099197403
-0.031436052 -0.023996402 -0.0020414293
0.0084888842 -0.024003152 -0.0036868565
0.055366598 -0.024013903 -0.0063073821
0.078937992 -0.023997882 -0.0024028458
0.089186706 -0.023994219 -0.0015097708
0.19798617 -0.024013473 -0.006203074
0.23752847 -0.024011377 -0.0056919307
0.25171748 -0.02401335 -0.0061725825
-0.36955142 -0.011460005 -0.0019952571
-0.34191149 -0.015925758 -0.006083807
-0.31039664 -0.01834999 -0.0083265901
-0.29441637 -0.018333156 -0.0042220987
-0.27480793 -0.018347695 -0.0077673886
-0.24500522 -0.018318025 -0.00053277239
-0.19215041 -0.018346464 -0.0074664857
-0.1813533 -0.018350735 -0.0085080415
-0.14969836 -0.018329758 -0.0033935988
0.14050341 -0.01832111 -0.0012850836
0.177784 -0.018330999 -0.0036960766
0.22985663 -0.018327683 -0.0028882828
0.2392222 -0.01832263 -0.0016557351
0.25457281 -0.018337928 -0.0053857304
0.28510201 -0.018324958 -0.0022231266
0.32583821 -0.017257078 -0.0053312872
0.33228713 -0.01554743 -0.0058125369
-0.40253162 -0.0027450027 -0.0067614373
-0.3968063 -0.0042339424 -0.003924191
0.36957526 -0.0056258212 -0.0054822452
0.39570713 0.0012920555 -0.0082130451
0.42139605 0.0081791217 -0.0037178248
0.4331817 0.0053778514 -0.0092534404
-0.46367508 0.019396232 -0.0060808705
-0.45311761 0.013686729 -0.0032560653
-0.44160831 0.013506488 -0.0078179538
-0.48211786 0.023481596 -0.00081774197
-0.47472951 0.022355385 -0.0045219767
0.47561333 0.022583943 -0.0050688377
-0.33067369 -0.021731488 0.003850542
-0.27698421 -0.02398701 0.00024686381
-0.25454134 -0.023951713 0.0088497177
-0.24893588 -0.023974756 0.00323366
-0.20927501 -0.023955915 0.0078258142
-0.17396927 -0.023986787 0.00030169066
-0.15320095 -0.023963489 0.0059801703
-0.14624152 -0.023952825 0.0085790008
-0.13270146 -0.023978226 0.0023882985
0.055677291 -0.023974765 0.0032318234
0.14518927 -0.023981676 0.0015470833
0.15570435 -0.023962166 0.0063022277
0.23028409 -0.023947718 0.0098238401
0.3059985 -0.023980469 0.0018418618
-0.22180521 -0.018276241 0.0096550584
-0.21143904 -0.018307166 0.0021146964
-0.17147481 -0.018275475 0.0098416219
-0.15682438 -0.018285643 0.0073622726
-0.13017775 -0.018308569 0.0017726049
-0.12825052 -0.018278122 0.0091963746
0.036014222 -0.01829375 0.0053862277
0.11621706 -0.018300287 0.0037918435
0.26486665 -0.018310716 0.0012495015
-0.42247266 0.0027550571 0.0096862195
-0.40406924 0.0036804006 0.005561363
-0.48124367 0.018373724 0.0085695786
-0.47840792 0.02345787 0.0058823903
-0.32612726 -0.022835098 0.012718439
-0.18652774 -0.023921236 0.016278211
-0.11448943 -0.023944626 0.010577522
-0.10029984 -0.023925027 0.015354443
-0.065276474 -0.023918863 0.016856108
-0.011155069 -0.023940293 0.011633195
0.011418646 -0.023927037 0.014864463
0.035967756 -0.023916822 0.017354086
0.060040891 -0.023944091 0.010707632
0.14053825 -0.023910215 0.018964168
0.1823779 -0.023934443 0.013058834
0.29098469 -0.023918096 0.01704368
0.31522506 -0.023943756 0.01078907
-0.33087796 -0.01564491 0.017469896
-0.29579443 -0.018252462 0.015453015
-0.20416221 -0.018259177 0.01381585
-0.19990996 -0.018254874 0.014864489
-0.17232749 -0.018263979 0.012644526
-0.14170063 -0.018242583 0.017861236
-0.12057529 -0.018263724 0.012706839
-0.087902129 -0.01826109 0.013348686
-0.044741899 -0.018261414 0.013270356
-0.023518207 -0.018249175 0.016254188
0.03765909 -0.018270195 0.011128888
0.046795063 -0.018242788 0.017811611
0.060994051 -0.018244591 0.017371699
0.10643084 -0.018260917 0.013391367
0.27541462 -0.018247148 0.016748082
0.32231438 -0.017924797 0.017292105
0.36654294 -0.012023718 0.017844819
-0.37046206 -0.0051040011 0.018519666
0.42427668 0.0032508019 0.011017535
-0.46640468 0.01450742 0.015321875
-0.45200956 0.016597189 0.019387735
-0.44559801 0.014888922 0.019134382
-0.43370295 0.011635049 0.011579804
0.44682369 0.015208599 0.018578209
0.45586693 0.011717662 0.016439231
-0.47664496 0.023101082 0.015285134
0.47340518 0.022251533 0.01631467
-0.26388758 -0.023885429 0.025005497
0.020311678 -0.023893729 0.022982385
0.24345699 -0.023874385 0.027697057
0.3276577 -0.022235904 0.028816029
-0.33193311 -0.01524883 0.02715471
-0.32381263 -0.017425196 0.02578163
-0.253187 -0.018206472 0.026666168
-0.23424864 -0.018214304 0.024755998
-0.15818532 -0.018194748 0.029524188
-0.044264115 -0.018200852 0.028036047
-0.021091215 -0.018198676 0.028566504
-0.0014159369 -0.018203184 0.027467649
0.026087957 -0.018229857 0.020964142
0.053867415 -0.018226773 0.021716306
0.085900895 -0.018193645 0.029793069
0.1888548 -0.018206542 0.026648818
0.2206946 -0.018208191 0.026246868
0.30307731 -0.018202143 0.02772145
0.33882919 -0.019284956 0.027095601
0.34564286 -0.017471146 0.027219873
0.3925969 0.00085752964 0.024740446
0.45503703 0.011573883 0.022897243
-0.32104754 -0.02383263 0.037874188
-0.29504704 -0.02383692 0.036827844
-0.26645955 -0.023857601 0.031787973
-0.18821719 -0.023827497 0.039125431
-0.1748786 -0.023857769 0.031747203
-0.16910142 -0.023860112 0.03117558
-0.10717261 -0.023842216 0.035537414
-0.071673989 -0.023853168 0.032868013
-0.05556694 -0.023825068 0.039716765
-0.038598724 -0.023839498 0.036200199
-0.02119646 -0.02384093 0.03585127
0.043198857 -0.023858096 0.031666428
0.063756332 -0.02383039 0.038419779
0.11632517 -0.023853421 0.032806654
0.12188596 -0.023852296 0.033080533
0.28898677 -0.023844682 0.034936581
0.29201609 -0.023858195 0.031642821
-0.2725746 -0.018175883 0.034124084
-0.15511508 -0.018168971 0.035809394
-0.12797555 -0.01816659 0.03638985
-0.087822318 -0.018159555 0.038104743
-0.051907364 -0.018179014 0.033360593
-0.0073248106 -0.018159119 0.038211327
0.07766214 -0.018183382 0.032295596
0.13881412 -0.018157005 0.038726497
0.1463967 -0.018170599 0.035412505
0.1699454 -0.01818876 0.030984472
0.30648386 -0.018179299 0.033291057
0.3558684 -0.008832315 0.031348366
0.40879935 0.0053016241 0.03599494
-0.47710437 0.017617539 0.037484471
0.46438381 0.014150744 0.030499931
0.46790209 0.021019353 0.035757072
-0.30124801 -0.02378873 0.048573676
-0.25486594 -0.023784708 0.049553562
-0.12102301 -0.023783736 0.049790747
-0.019903118 -0.023787679 0.048829481
0.017630987 -0.023807924 0.043895282
0.0349725 -0.023804706 0.044680011
0.069067307 -0.02379911 0.04604337
0.075072281 -0.023809168 0.043591879
0.097720757 -0.023793235 0.047475323
0.2030063 -0.023794493 0.047168773
0.22636729 -0.023821669 0.040545508
0.31082869 -0.023820613 0.040803231
-0.37007606 -0.010722591 0.048167132
-0.35857099 -0.01385416 0.042178243
-0.33280838 -0.014809284 0.044500858
-0.32066283 -0.018026076 0.045663815
-0.31874093 -0.018135117 0.044063404
-0.29275468 -0.018129364 0.045466281
-0.18938541 -0.018130243 0.045252357
-0.13117112 -0.018130703 0.045139935
-0.051729787 -0.018134659 0.04417529
-0.045203641 -0.018133346 0.044495374
-0.022455383 -0.018130071 0.045293525
-0.0014322964 -0.018146662 0.041248709
0.063541807 -0.018121853 0.047297627
0.14959741 -0.018127693 0.045874014
0.16519377 -0.018140147 0.042837255
0.17556836 -0.018146098 0.041386366
0.23180394 -0.018137699 0.043434177
0.28952599 -0.018146534 0.041280508
0.33997387 -0.012901518 0.044642881
0.34482944 -0.011576667 0.047436535
0.35558403 -0.014581788 0.047785539
-0.38504228 -0.0067842361 0.044619974
-0.36271363 -0.0068485187 0.045044377
-0.4463028 0.0095631676 0.049127158
0.40785521 0.0051593063 0.045125455
0.43247402 0.0057820715 0.040468566
-0.47598484 0.018028691 0.041431297
-0.45238814 0.017014567 0.045952197
-0.42798302 0.010495097 0.043586984
-0.47436446 0.022403212 0.043123066
0.46853051 0.021322791 0.047186784
-0.32144815 -0.021971414 0.052825738
-0.29112989 -0.02376195 0.05510097
-0.28180286 -0.023751877 0.057555825
-0.050347503 -0.023749605 0.058109533
-0.033354476 -0.023781644 0.050300181
-0.022931827 -0.023766687 0.053945899
-0.011868494 -0.023761576 0.055191699
0.050570268 -0.023754284 0.05696905
0.067542613 -0.023772888 0.05243472
0.10582221 -0.023764748 0.054418273
0.15752205 -0.02375441 0.056938127
0.22298793 -0.023760812 0.055377636
0.27506045 -0.023759905 0.055598989
0.33156776 -0.020934856 0.050714351
-0.35313761 -0.015140481 0.055512186
-0.34055477 -0.012649616 0.052821405
-0.32421845 -0.016931567 0.058143009
-0.29652047 -0.018089879 0.05509318
-0.25237361 -0.018079957 0.057512537
-0.18160295 -0.018086407 0.055940188
-0.14197268 -0.018099478 0.052752942
-0.13549167 -0.018092964 0.054341495
-0.11328436 -0.018084886 0.056311123
-0.085195318 -0.018079732 0.057567373
-0.074992009 -0.018109722 0.050255138
-0.069978833 -0.018104112 0.051622979
-0.05422331 -0.018097995 0.053114757
0.046924889 -0.018073464 0.059095908
0.14374171 -0.018087128 0.05576406
0.28773698 -0.018097006 0.053355735
0.3223412 -0.017494848 0.052771136
0.34709221 -0.016747514 0.05558645
-0.37982172 -0.0079936041 0.059652168
0.37971288 -0.0080422005 0.057982676
-0.4179197 0.0079179043 0.051952735
-0.40606532 0.0048399987 0.058293734
0.39589 0.0020603661 0.052164614
0.42932722 0.010958362 0.05244356
0.46967599 0.020280462 0.053814903
-0.26387304 -0.023739783 0.060503494
-0.21718355 -0.023712434 0.067169309
-0.19430971 -0.023728281 0.0633066
-0.17018312 -0.023731072 0.062626228
-0.078588642 -0.023710417 0.067660518
-0.055365823 -0.023713848 0.066824146
0.054344725 -0.023712879 0.0670605
0.070600793 -0.023707904 0.068272717
0.086894192 -0.023701105 0.069929905
0.097778305 -0.023722766 0.064650744
-0.36441231 -0.012019532 0.065744512
-0.29123974 -0.018048078 0.065285787
-0.2779417 -0.01803343 0.068856686
-0.20597333 -0.018062219 0.061837595
-0.05239886 -0.018043716 0.066348903
0.028094131 -0.018033151 0.068924762
0.061483659 -0.018058337 0.062783994
0.25792524 -0.01806679 0.060723267
0.28869402 -0.018045854 0.065827511
0.3392266 -0.01289604 0.061782409
0.38561308 -0.0063872957 0.065155372
-0.41068128 0.0061669149 0.066597141
-0.38976833 0.00054376986 0.061558269
-0.46637145 0.018525552 0.061967146
-0.4406895 0.014095877 0.062124748
0.46425739 0.01714237 0.066285536
-0.29322505 -0.023669027 0.077748552
-0.28905734 -0.023698885 0.070471317
-0.25900757 -0.02367457 0.076397352
-0.11236536 -0.023698548 0.070553444
-0.10486011 -0.02369808 0.070667319
-0.094565108 -0.023666419 0.078384459
-0.013982433 -0.023672348 0.076938927
0.04787359 -0.023673333 0.076699212
0.065361694 -0.023689808 0.072683409
0.11111923 -0.023681454 0.074719302
0.15574488 -0.023663145 0.079182185
0.16022173 -0.023660323 0.079870172
0.17499639 -0.023684304 0.07402508
-0.34732044 -0.01057984 0.07548818
-0.31813827 -0.017998012 0.07749258
-0.28576601 -0.017987868 0.079965904
-0.17346805 -0.01798786 0.079967678
-0.037527721 -0.018016366 0.073017262
0.010670923 -0.017998975 0.077257887
0.076789804 -0.017996937 0.077754453
0.10881814 -0.018023124 0.071369708
0.15060624 -0.018026967 0.070432663
0.25864783 -0.018026404 0.070569962
0.28429997 -0.017987836 0.07997328
0.31931072 -0.01824009 0.079679452
0.35401994 -0.014679518 0.074489526
0.36314601 -0.012226688 0.076620616
-0.38339046 -0.00094913197 0.07861881
0.35409361 -0.0087544098 0.077481285
0.36019379 -0.0071780798 0.073610753
0.38554895 -0.003312249 0.078377068
-0.42207071 0.0034041526 0.073132962
-0.4122442 0.0067005218 0.076482832
0.41936961 0.0026800353 0.072657824
-0.30005726 -0.023658996 0.080193356
-0.25861797 -0.023629818 0.087304898
-0.018046182 -0.023628375 0.087656215
0.14345975 -0.023628978 0.087509312
0.18680309 -0.023619602 0.089794673
0.26734006 -0.023620851 0.089490414
0.31850886 -0.023644406 0.083749294
-0.3442139 -0.011339206 0.081106395
-0.33338588 -0.014124824 0.089042649
-0.31487924 -0.017949903 0.089222133
-0.29486308 -0.017967131 0.085022025
-0.28304505 -0.017968543 0.084677689
-0.23163559 -0.017987018 0.08017277
-0.212713 -0.017951258 0.08889208
-0.2010746 -0.017961558 0.086380601
-0.17811689 -0.017980361 0.081796102
-0.1373883 -0.017966043 0.085287176
-0.092188962 -0.017986089 0.080399573
-0.022912607 -0.017965041 0.085531652
0.044401865 -0.017965088 0.085520118
0.082855552 -0.017971477 0.083962165
0.10006172 -0.017969448 0.084456787
0.16679065 -0.017972779 0.0836448
0.19756474 -0.017976018 0.082855105
-0.37791333 -0.0023673275 0.081845455
0.36175734 -0.0066785282 0.080632344
0.3846851 -0.0064114151 0.083840474
0.39612561 -0.0033520842 0.0852127
0.39914113 0.0033613541 0.088753805
0.41527405 0.0076456489 0.088149488
0.4203738 0.0090177683 0.089452729
-0.44695258 0.014233004 0.08864297
0.44697618 0.013856403 0.087529249
-0.33209267 -0.020320091 0.090591803
-0.32494766 -0.022193728 0.092846386
-0.18515375 -0.023592275 0.096455038
-0.05679813 -0.02360576 0.093167968
-0.037396103 -0.02358906 0.097239353
0.054180522 -0.023598466 0.094946027
0.063578442 -0.023587301 0.09766721
0.075846933 -0.02357954 0.099559247
0.10714328 -0.023592323 0.096443109
0.12126855 -0.023587218 0.097687565
0.13148178 -0.02360151 0.094203934
0.17357926 -0.023585739 0.098048121
0.19793324 -0.023600867 0.094360918
0.22402136 -0.02359549 0.0956714
0.33309162 -0.020032771 0.092388779
-0.36483687 -0.011617131 0.090028532
-0.35351294 -0.014533699 0.098041646
-0.31734264 -0.017918546 0.096867532
-0.3000831 -0.017937472 0.092252858
-0.29689303 -0.017937526 0.092240319
-0.2765488 -0.017913815 0.098020956
-0.26685816 -0.0179148 0.097780935
-0.23261654 -0.017927654 0.094646975
-0.22030048 -0.017934481 0.092982337
8.7174172e-05 -0.01791409 0.097954191
0.13342513 -0.017940132 0.091604397
0.14722043 -0.017941197 0.091344811
0.17923737 -0.017914116 0.09794797
0.22562276 -0.017939685 0.091713384
0.23216908 -0.017911902 0.098488048
0.28247669 -0.017941441 0.091285489
0.34011054 -0.012324244 0.090034306
0.36420605 -0.011782235 0.09025383
-0.4352034 0.0071842377 0.097230181
-0.41185686 0.0067701251 0.090965003
-0.40799421 0.0057935608 0.095240727
-0.39681977 0.0027905791 0.092693433
0.43268543 0.0065353694 0.098969944
-0.4418529 0.013295804 0.092068247
0.44160649 0.014613588 0.09147428
-0.28726074 -0.02357249 0.10127714
-0.23759001 -0.023559371 0.10447437
-0.22185722 -0.023561655 0.10391804
-0.16519099 -0.023560494 0.10420106
-0.1382761 -0.023557965 0.10481764
-0.10085407 -0.023543309 0.10838903
-0.09219116 -0.023548484 0.10712789
-0.059763677 -0.023550922 0.10653394
0.012410676 -0.023543432 0.10835949
0.063572712 -0.023557873 0.10483967
0.11666258 -0.023541881 0.10873777
0.20812556 -0.023571555 0.1015053
0.3003521 -0.023560628 0.10416804
0.32613093 -0.021677874 0.10969906
-0.3426587 -0.017289568 0.10905291
-0.27107602 -0.017879236 0.106452
-0.23739494 -0.017885979 0.10480793
-0.20688525 -0.017890245 0.10376825
-0.18596569 -0.017900556 0.10125402
-0.17488302 -0.017890729 0.10364977
-0.03285832 -0.017898839 0.10167256
-0.018652983 -0.017875377 0.10739325
0.039011806 -0.017901428 0.10104155
0.092346571 -0.017870657 0.10854373
0.12799391 -0.017874053 0.10771579
0.32832873 -0.015224943 0.10960322
0.3457824 -0.013556865 0.10627465
-0.35480389 -0.0081887841 0.10909268
-0.41331434 0.0071843709 0.10695603
0.41726992 0.0081369113 0.10863482
0.42208207 0.0096145626 0.10139621
-0.29959616 -0.023512458 0.11590873
-0.27668962 -0.02353237 0.11105556
-0.26302737 -0.023526805 0.11241191
-0.23320062 -0.023503313 0.11813792
-0.17818661 -0.023531977 0.11115146
-0.13542998 -0.02351566 0.11512806
-0.12747717 -0.023511373 0.11617338
-0.10999686 -0.023530615 0.11148314
-0.044067655 -0.023529042 0.1118671
-0.038793877 -0.023526214 0.11255635
0.0010062499 -0.023496006 0.11991855
0.010799118 -0.023528729 0.11194324
0.097065181 -0.023515332 0.11520842
0.18642271 -0.02351306 0.11576205
0.23001602 -0.023513235 0.11571904
0.31850666 -0.020019932 0.11562498
-0.33317488 -0.019732228 0.11576026
-0.26962879 -0.017848667 0.11390562
-0.25730085 -0.017847136 0.11427911
-0.18096939 -0.01785793 0.11164707
-0.13660561 -0.017826937 0.11920376
-0.12458593 -0.017847799 0.11411718
-0.059472155 -0.017858975 0.11139248
-0.04932566 -0.017850596 0.11343496
-0.034320679 -0.01782673 0.11925459
-0.014296399 -0.017826086 0.11941133
0.083175153 -0.017843997 0.11504418
0.1192209 -0.017831495 0.1180924
0.13897142 -0.017853508 0.11272529
0.17014995 -0.017835431 0.11713303
0.18052235 -0.017824456 0.11980851
0.19505267 -0.017830046 0.11844566
0.21040785 -0.017863967 0.11017535
0.22696403 -0.01786284 0.11044983
0.28235021 -0.017856929 0.11189117
0.33359036 -0.013819233 0.11011955
0.36574709 -0.011117471 0.11163521
-0.35015288 -0.0093168328 0.11824687
0.35567844 -0.0078850277 0.11506042
0.3640978 -0.0056282124 0.11652056
-0.23416045 -0.020054579 0.12030999
-0.19434147 -0.022699991 0.12075882
-0.1783905 -0.021556355 0.12074775
-0.14685245 -0.020080037 0.12030999
-0.12376954 -0.020359866 0.12123907
-0.061441209 -0.02349446 0.12029523
-0.051185764 -0.021967527 0.12106459
-0.020919427 -0.020183377 0.12122966
0.048172176 -0.023346115 0.12031001
0.069338307 -0.020623997 0.12125316
0.12154596 -0.023495011 0.12016133
0.17300953 -0.020872381 0.1212436
0.20231169 -0.020858947 0.12124432
0.22961581 -0.021204583 0.12122157
0.25450161 -0.022348257 0.12031
0.26706615 -0.020452507 0.12030999
-0.34255642 -0.011636861 0.12121649
-0.27638119 -0.019688793 0.12030999
-0.20845339 -0.019904379 0.12031
-0.1694932 -0.01935721 0.1210667
-0.030849621 -0.019742269 0.12116164
-0.0015852827 -0.018145982 0.12052701
0.043985087 -0.017823381 0.12007043
0.05764886 -0.019494718 0.12110418
0.21798721 -0.018399136 0.12031001
0.28874314 -0.017976154 0.12041311
0.33508563 -0.019164622 0.12072593
