# .PCD v0.7 - Point Cloud Data file format
VERSION 0.7
FIELDS x y z
SIZE 4 4 4
TYPE F F F
COUNT 1 1 1
WIDTH 904
HEIGHT 1
VIEWPOINT 0 0 0 1 0 0 0
POINTS 904
DATA ascii
-0.37243783 0.027095059 -0.13141832
-0.36741245 0.0201119 -0.13050143
-0.35837317 0.023586662 -0.13400179
-0.18884407 0.022232942 -0.134426
-0.11127815 0.020492248 -0.134426
-0.096882708 0.021029312 -0.134426
-0.070921347 0.023746217 -0.134426
0.0090406537 0.028933324 -0.134426
0.010413509 0.029824775 -0.134426
0.059760332 0.023574773 -0.134426
0.06236133 0.021027619 -0.134426
0.13221124 0.021124469 -0.134426
0.26862395 0.0201119 -0.13234867
0.37152722 0.025159467 -0.134426
-0.37345344 0.035236362 -0.13117778
-0.36440414 0.036261894 -0.13332108
-0.34485689 0.038686801 -0.13197972
-0.22358659 0.038686801 -0.13064487
-0.17645586 0.034283143 -0.134426
-0.13263404 0.035014272 -0.134426
-0.038972124 0.033604316 -0.134426
0.040715083 0.036529541 -0.134426
0.054211255 0.038686801 -0.13440739
0.1510748 0.038686801 -0.13039313
0.16352852 0.037660919 -0.134426
0.26264012 0.030297987 -0.134426
0.30884171 0.032695107 -0.134426
0.38407105 0.036597233 -0.13042833
-0.36921909 0.0201119 -0.12190816
-0.1870752 0.0201119 -0.12657814
-0.1586291 0.0201119 -0.12784494
-0.012217656 0.0201119 -0.12549098
0.025320269 0.0201119 -0.12918451
0.13840169 0.0201119 -0.12124734
0.16342124 0.0201119 -0.12861457
0.25891224 0.0201119 -0.12099698
0.31369239 0.0201119 -0.12093637
0.36826015 0.0201119 -0.12088058
0.40699303 0.02505851 -0.12100942
-0.3487311 0.038686801 -0.12585735
-0.28503013 0.038686801 -0.12274744
-0.21330902 0.038686801 -0.12542835
-0.1753238 0.038686801 -0.12941311
-0.02803342 0.038686801 -0.12707764
-0.015918255 0.038686801 -0.12333415
0.028979912 0.038686801 -0.12780359
0.033826534 0.038686801 -0.12768462
0.10093453 0.038686801 -0.12225694
0.21110857 0.038686801 -0.12457024
0.2439298 0.038686801 -0.12281249
0.3023158 0.038686801 -0.1250481
-0.41966149 0.028460242 -0.11244619
-0.35481757 0.0201119 -0.11310931
-0.30089995 0.0201119 -0.11807736
-0.29949778 0.0201119 -0.11666305
-0.25639045 0.0201119 -0.1148819
-0.24218903 0.0201119 -0.11378042
-0.21701574 0.0201119 -0.11950781
-0.17752039 0.0201119 -0.11631121
-0.095845804 0.0201119 -0.11860681
-0.034939006 0.0201119 -0.11764665
0.0071094176 0.0201119 -0.11885609
0.063981824 0.0201119 -0.1109551
0.12476752 0.0201119 -0.11994126
0.26665655 0.0201119 -0.11726194
0.28255698 0.0201119 -0.11954948
0.30424306 0.0201119 -0.11697433
0.3492218 0.0201119 -0.11396337
0.35755217 0.0201119 -0.11374365
-0.34420654 0.038686801 -0.11852808
-0.33545002 0.038686801 -0.11426434
-0.31272632 0.038686804 -0.11724718
-0.25744951 0.038686801 -0.11694714
-0.24933574 0.038686801 -0.1127174
-0.19888486 0.038686801 -0.11531486
-0.14305165 0.038686801 -0.11375724
-0.11644086 0.038686797 -0.11363879
0.027023189 0.038686801 -0.11570092
0.04935563 0.038686801 -0.11987811
0.098031469 0.038686801 -0.11303279
0.12063532 0.038686801 -0.11838542
0.15608545 0.038686797 -0.11966433
0.22126846 0.038686801 -0.11356315
0.26309717 0.038686801 -0.11621777
0.27279142 0.038686801 -0.11394112
0.30916226 0.038686801 -0.11512665
0.4197737 0.031502847 -0.11301102
0.4205572 0.038028602 -0.11252072
-0.42498001 0.021417435 -0.1047899
-0.30360419 0.0201119 -0.10763565
-0.26068583 0.0201119 -0.10884672
-0.25306666 0.0201119 -0.10765261
-0.14890338 0.0201119 -0.10593908
-0.019884631 0.0201119 -0.10378403
0.042168498 0.0201119 -0.10896921
0.093686841 0.0201119 -0.10025789
0.13637818 0.0201119 -0.10926104
0.27074391 0.0201119 -0.10161305
0.30447239 0.0201119 -0.10365311
0.31373715 0.0201119 -0.10903428
0.36982742 0.0201119 -0.10718583
0.37048537 0.0201119 -0.10847162
-0.32759169 0.038686801 -0.10636249
-0.23607144 0.038686801 -0.10666189
-0.092994072 0.038686801 -0.109799
-0.042871952 0.038686801 -0.10943823
-0.017477196 0.038686801 -0.10625955
0.31297076 0.038686797 -0.10595408
0.39715227 0.038686801 -0.10878494
-0.40600222 0.0201119 -0.098805204
-0.35738841 0.0201119 -0.091912121
-0.23780006 0.0201119 -0.093546443
-0.21374756 0.0201119 -0.095930196
-0.19372308 0.0201119 -0.091087833
-0.16515248 0.0201119 -0.090968587
-0.13118672 0.0201119 -0.093845889
-0.11539119 0.0201119 -0.092841126
-0.10080104 0.0201119 -0.09210787
-0.068168715 0.0201119 -0.092395484
0.11844654 0.0201119 -0.09386453
0.12112316 0.0201119 -0.095583066
0.17929173 0.0201119 -0.09585385
0.2102055 0.0201119 -0.09294153
0.26942524 0.0201119 -0.092907339
0.28353786 0.0201119 -0.096952006
0.30143949 0.0201119 -0.09452565
0.35500062 0.0201119 -0.091714978
0.41320312 0.0201119 -0.094122738
0.42433062 0.0201119 -0.096263766
-0.42759398 0.038686797 -0.092902735
-0.39204815 0.038686797 -0.095292412
-0.37369031 0.038686801 -0.09304823
-0.32612267 0.038686801 -0.093766913
-0.31601363 0.038686801 -0.092133284
-0.30441716 0.038686801 -0.091321312
-0.28534341 0.038686801 -0.095432512
-0.24439105 0.038686801 -0.095950522
0.038273171 0.038686801 -0.093484923
0.06676732 0.038686801 -0.094195858
0.071143821 0.038686801 -0.098538943
0.097238228 0.038686801 -0.090220138
0.18164629 0.038686801 -0.092868567
0.34611756 0.038686801 -0.095105022
0.35538712 0.038686801 -0.097509041
0.42480356 0.038686801 -0.097856566
-0.38964903 0.0201119 -0.089499682
-0.33250952 0.0201119 -0.084197588
-0.32144374 0.0201119 -0.08468473
-0.27758348 0.0201119 -0.084650308
-0.24414709 0.0201119 -0.083893396
-0.23589334 0.0201119 -0.088295445
-0.18532474 0.0201119 -0.086889535
-0.1157541 0.0201119 -0.087030649
-0.056198522 0.0201119 -0.087375373
-0.047435768 0.0201119 -0.083817124
-0.033208206 0.0201119 -0.080104254
0.067494437 0.0201119 -0.087118782
0.10435063 0.0201119 -0.089621216
0.14290348 0.0201119 -0.083312906
0.15173076 0.0201119 -0.082230538
0.20283799 0.0201119 -0.089194104
0.21505114 0.0201119 -0.084855422
-0.32067668 0.038686801 -0.081640378
-0.14805135 0.038686801 -0.084962204
-0.13771221 0.038686801 -0.081551746
-0.10873814 0.038686801 -0.081671447
0.00243132 0.038686801 -0.089094266
0.10864912 0.038686801 -0.088002108
0.19590202 0.038686797 -0.084305927
0.26276085 0.038686804 -0.084568709
0.28283882 0.038686801 -0.083394758
0.29353273 0.038686797 -0.085124455
0.43232465 0.038686801 -0.088205472
-0.45593554 0.024640461 -0.075315922
-0.43610108 0.0201119 -0.073737241
-0.42846781 0.0201119 -0.075901695
-0.41747412 0.0201119 -0.077675067
-0.38998982 0.0201119 -0.078810379
-0.34377503 0.0201119 -0.078478366
-0.3235628 0.0201119 -0.07686124
-0.28509352 0.0201119 -0.074546084
-0.25175589 0.0201119 -0.070000157
-0.23317778 0.0201119 -0.077906996
-0.19603033 0.0201119 -0.076260805
-0.18406072 0.0201119 -0.071211338
-0.12938213 0.0201119 -0.075890534
-0.090769976 0.0201119 -0.073144943
-0.078069329 0.0201119 -0.074541911
-0.06615907 0.0201119 -0.078761891
0.034938756 0.0201119 -0.074397564
0.10894378 0.0201119 -0.079345196
0.24633309 0.0201119 -0.073784992
0.32534117 0.0201119 -0.07335972
0.39071575 0.0201119 -0.079424798
0.42721468 0.0201119 -0.071413673
0.4345637 0.0201119 -0.075305626
0.44571942 0.0201119 -0.075991966
-0.45735741 0.038686801 -0.072454259
-0.33373412 0.038686801 -0.07479994
-0.29376331 0.038686804 -0.075999111
-0.17949657 0.038686801 -0.078331493
-0.15760964 0.038686801 -0.070055947
-0.13449326 0.038686801 -0.073622346
-0.019940645 0.038686801 -0.07610061
0.030133449 0.038686801 -0.070307195
0.069457054 0.038686801 -0.075697482
0.12522285 0.038686801 -0.075276166
0.20003904 0.038686801 -0.070487931
0.32866132 0.038686801 -0.071327567
0.35465848 0.038686801 -0.077181324
-0.38858756 0.0201119 -0.061355919
-0.35460761 0.0201119 -0.063696884
-0.33477867 0.0201119 -0.06388627
-0.31605363 0.0201119 -0.066046968
-0.27644432 0.0201119 -0.060748503
-0.19888337 0.0201119 -0.060354896
-0.16766733 0.0201119 -0.067541979
-0.12357137 0.0201119 -0.069635727
-0.11249201 0.0201119 -0.06478522
-0.078012064 0.0201119 -0.062412761
-0.046955511 0.0201119 -0.066743083
0.0098075867 0.0201119 -0.065981217
0.07440576 0.0201119 -0.064238563
0.091761738 0.0201119 -0.0677462
0.11219387 0.0201119 -0.063613713
0.1418234 0.0201119 -0.068162873
0.25819021 0.0201119 -0.066260532
0.3037284 0.0201119 -0.063779309
0.3606213 0.0201119 -0.068436489
0.37356138 0.0201119 -0.067361854
0.4065913 0.0201119 -0.064216301
-0.095070504 0.038686801 -0.067061871
-0.0658435 0.038686804 -0.062921382
-0.025336858 0.038686801 -0.064516462
-0.011917546 0.038686801 -0.06894663
0.030277833 0.038686801 -0.067475572
0.10766201 0.038686801 -0.063754566
0.15741475 0.038686801 -0.064245977
0.18687643 0.038686801 -0.066688292
0.19555487 0.038686804 -0.064164154
0.21357435 0.038686801 -0.062835075
0.2822246 0.038686801 -0.063216485
0.317076 0.038686804 -0.069477133
0.3403413 0.038686801 -0.06218785
0.40459412 0.038686801 -0.068008877
0.46220636 0.036027733 -0.066450797
-0.44626683 0.0201119 -0.053147666
-0.4165445 0.0201119 -0.05793301
-0.36859044 0.0201119 -0.058229435
-0.3333832 0.0201119 -0.056083623
-0.32632953 0.0201119 -0.058960054
-0.31309545 0.0201119 -0.057530466
-0.23859584 0.0201119 -0.054857574
-0.22036552 0.0201119 -0.051405765
-0.15599339 0.0201119 -0.054941617
-0.13728434 0.0201119 -0.050535627
-0.095361814 0.0201119 -0.055795714
-0.049618132 0.0201119 -0.054564245
0.016992345 0.0201119 -0.053190809
0.082118064 0.0201119 -0.056954034
0.1587835 0.0201119 -0.056450121
0.19315837 0.0201119 -0.054816209
0.24297139 0.0201119 -0.057821393
0.26901984 0.0201119 -0.057268485
0.34192672 0.0201119 -0.053571686
0.4364779 0.0201119 -0.054711007
0.46589991 0.021511473 -0.058537722
-0.41208899 0.038686801 -0.055805121
-0.37314087 0.038686801 -0.057118092
-0.24197799 0.038686804 -0.054964595
-0.22467341 0.038686801 -0.054397069
-0.18089463 0.038686801 -0.058305293
-0.11221852 0.038686801 -0.05048975
-0.10475496 0.038686801 -0.055079769
-0.0091963932 0.038686804 -0.051213041
0.036455892 0.038686801 -0.054157428
0.084648035 0.038686801 -0.054847114
0.10550471 0.038686801 -0.053632125
0.15589437 0.038686801 -0.058644064
0.3286947 0.038686801 -0.052550722
0.35764715 0.038686801 -0.054993238
0.40856561 0.038686801 -0.050678715
0.43258253 0.038686801 -0.05034215
0.45881331 0.038686801 -0.05796035
0.46663857 0.034038384 -0.059031479
-0.43173674 0.0201119 -0.040517185
-0.41973257 0.0201119 -0.049113765
-0.19566011 0.0201119 -0.042424742
-0.16199973 0.0201119 -0.046757802
-0.097935878 0.0201119 -0.04231457
-0.044172809 0.0201119 -0.041826658
-0.023264244 0.0201119 -0.040057506
-0.008436054 0.0201119 -0.041912358
0.17251548 0.0201119 -0.04351382
0.20486206 0.0201119 -0.042238764
0.26551723 0.0201119 -0.044136979
0.27667075 0.0201119 -0.042793185
0.31882066 0.0201119 -0.04012908
0.37634975 0.0201119 -0.045587532
0.42368102 0.0201119 -0.04569393
0.45411134 0.0201119 -0.04419617
0.46957111 0.0201119 -0.040568754
-0.40160531 0.038686801 -0.046658982
-0.36484426 0.038686801 -0.041307542
-0.22552855 0.038686801 -0.047733992
-0.11171043 0.038686801 -0.043096848
-0.01293169 0.038686801 -0.049033288
0.11335856 0.038686801 -0.040910244
0.13214807 0.038686801 -0.045745045
0.24222824 0.038686801 -0.042822547
0.30405238 0.038686801 -0.046890523
0.3630614 0.038686801 -0.04773977
0.39638337 0.038686801 -0.045537919
0.44603601 0.038686797 -0.046635732
0.46788186 0.038686801 -0.043072686
-0.36579743 0.0201119 -0.03010764
-0.24663459 0.0201119 -0.037705407
-0.23281173 0.0201119 -0.036193389
-0.13692008 0.0201119 -0.035266344
-0.052166268 0.0201119 -0.036294103
0.0064004958 0.0201119 -0.0354142
0.023463383 0.0201119 -0.033953778
0.03186895 0.0201119 -0.032319114
0.085831791 0.0201119 -0.039114423
0.11439517 0.0201119 -0.036134757
0.2162497 0.0201119 -0.033284456
0.26150352 0.0201119 -0.031087067
0.36441559 0.0201119 -0.031217776
0.4117547 0.0201119 -0.036954124
0.44928971 0.0201119 -0.036527809
-0.39388442 0.038686804 -0.039550982
-0.36895013 0.038686801 -0.039481238
-0.33186689 0.038686801 -0.035399754
-0.16195658 0.038686801 -0.039805163
-0.10326762 0.038686801 -0.035766028
-0.055094197 0.038686801 -0.039079718
-0.030943453 0.038686797 -0.03242806
0.024987103 0.038686801 -0.034570534
0.031655684 0.038686801 -0.032006279
0.12453193 0.038686801 -0.038264453
0.14563593 0.038686801 -0.032707825
0.17961064 0.038686801 -0.034013011
0.18420006 0.038686801 -0.033536147
0.21443416 0.038686801 -0.037562937
0.22745706 0.038686801 -0.036075361
0.31818897 0.038686801 -0.034502838
0.41954705 0.038686801 -0.033066377
0.42757195 0.038686801 -0.03900218
0.47263506 0.038686801 -0.031847637
-0.45144522 0.0201119 -0.027539197
-0.41231734 0.0201119 -0.020984413
-0.38492489 0.0201119 -0.024693081
-0.34392753 0.0201119 -0.020200815
-0.25973675 0.0201119 -0.029237518
-0.24181001 0.0201119 -0.027904902
-0.22961777 0.0201119 -0.025161158
-0.21953775 0.0201119 -0.02967063
-0.19537009 0.0201119 -0.028180342
-0.18167979 0.0201119 -0.029180413
-0.094664611 0.0201119 -0.02276721
-0.083784729 0.0201119 -0.022730326
0.020273507 0.0201119 -0.028803311
0.076613814 0.0201119 -0.02167451
0.15306605 0.0201119 -0.023125781
0.21536165 0.0201119 -0.021444676
0.29450262 0.0201119 -0.024894267
0.30876201 0.0201119 -0.023882903
0.33271086 0.0201119 -0.026096972
0.36906824 0.0201119 -0.024016906
0.37175325 0.0201119 -0.024493739
0.44002011 0.0201119 -0.026281316
0.45564544 0.0201119 -0.022229411
0.46800083 0.0201119 -0.020646958
0.47461677 0.0201119 -0.02697143
-0.42599815 0.038686801 -0.021035476
-0.37609357 0.038686801 -0.026954582
-0.30806938 0.038686801 -0.025404731
-0.18758674 0.038686801 -0.022853222
-0.12871145 0.038686801 -0.022714311
-0.11912817 0.038686801 -0.029373292
-0.0529126 0.038686801 -0.026567983
-0.021750405 0.038686801 -0.023042515
0.082899086 0.038686801 -0.024759158
0.22621012 0.038686801 -0.022516882
0.28846604 0.038686801 -0.020611282
0.32783464 0.038686801 -0.026483228
0.34652841 0.038686801 -0.020345543
0.44485399 0.038686801 -0.024278499
-0.44440308 0.0201119 -0.015907954
-0.43884474 0.0201119 -0.018481148
-0.37561488 0.0201119 -0.011163448
-0.34042138 0.0201119 -0.013646252
-0.26294893 0.0201119 -0.019548248
-0.22431479 0.0201119 -0.017873641
-0.2122625 0.0201119 -0.013768006
-0.18213451 0.0201119 -0.01855845
-0.074882179 0.0201119 -0.013365527
-0.044273511 0.0201119 -0.01297133
-0.012219638 0.0201119 -0.011032701
0.02813594 0.0201119 -0.019716134
0.12433849 0.0201119 -0.019129341
0.17033279 0.0201119 -0.01801276
0.27484044 0.0201119 -0.016043562
0.32358232 0.0201119 -0.014382983
0.35003468 0.0201119 -0.011260667
0.37150478 0.0201119 -0.013078768
0.40249264 0.0201119 -0.01199
0.41387185 0.0201119 -0.017559556
0.4539468 0.0201119 -0.015751604
-0.46803886 0.038686801 -0.013453284
-0.31052637 0.038686801 -0.012505187
-0.27287409 0.038686801 -0.016620824
-0.26823127 0.038686797 -0.015200069
-0.24713819 0.038686801 -0.01397053
-0.16579929 0.038686797 -0.01330139
-0.15343329 0.038686801 -0.019826218
-0.083141521 0.038686801 -0.014312373
-0.078327693 0.038686801 -0.01294238
-0.068150572 0.038686801 -0.01660694
-0.035321116 0.038686804 -0.012363805
-0.021856114 0.038686801 -0.012969708
0.07830593 0.038686801 -0.018540656
0.13364148 0.038686804 -0.015912414
0.14982596 0.038686801 -0.014872723
0.18672961 0.038686801 -0.01608449
0.22854443 0.038686801 -0.011188924
0.23328367 0.038686797 -0.019181108
0.25406548 0.038686801 -0.011535763
0.26982737 0.038686801 -0.015475049
0.30697548 0.038686801 -0.014873104
0.3424961 0.038686801 -0.012227528
0.35441756 0.038686801 -0.018630192
0.40854764 0.038686801 -0.016319904
0.43970695 0.038686801 -0.014482689
0.45731992 0.038686801 -0.019443668
-0.46009028 0.0201119 -0.0058623473
-0.4523564 0.0201119 -0.0049012555
-0.41972506 0.0201119 -0.0018857317
-0.40014747 0.0201119 -0.003272
-0.273341 0.0201119 -0.0020997664
-0.2660335 0.0201119 -0.0094878478
-0.087908201 0.0201119 -0.0021153667
0.048696607 0.0201119 -0.0041669309
0.14603099 0.0201119 -0.0057916492
0.18950771 0.0201119 -0.00064830546
0.29038274 0.0201119 -0.0019654508
0.32842216 0.0201119 -0.0080464678
0.44691229 0.0201119 -0.0036759935
-0.43158627 0.038686801 -0.0060761105
-0.33884725 0.038686801 -0.0020038285
-0.31527859 0.038686801 -0.0044877902
-0.17139518 0.038686801 -0.002636224
-0.1263774 0.038686801 -0.009707232
-0.11512159 0.038686801 -1.9135679e-05
-0.084551334 0.038686804 -0.0014702741
-0.075410679 0.038686801 -0.0092893839
-0.06272833 0.038686801 -0.00331038
0.017855123 0.038686801 -0.0033165109
0.024782442 0.038686801 -0.0046666074
0.047278412 0.038686801 -0.005273913
0.08614102 0.038686801 -0.0083866743
0.12973104 0.038686801 -0.0028281834
0.22177908 0.038686801 -0.0090654595
0.23005831 0.038686801 -0.0005834417
0.24404605 0.038686801 -0.0089242067
0.26345593 0.038686801 -0.0020376618
0.28416571 0.038686801 -0.0049923034
0.44719374 0.038686801 -0.005518192
-0.46006477 0.0201119 0.0053565642
-0.41855168 0.0201119 0.0071399105
-0.32516459 0.0201119 0.0092241196
-0.30766654 0.0201119 0.00080287451
-0.29151064 0.0201119 0.0074954587
-0.23092394 0.0201119 0.0036797908
-0.17230126 0.0201119 0.00774355
-0.15404367 0.0201119 0.0021985886
0.010712612 0.0201119 0.0016084242
0.038932472 0.0201119 0.0054692742
0.1115867 0.0201119 0.0018089549
0.13806185 0.0201119 0.0073674549
0.21738672 0.0201119 0.0063990611
0.28688198 0.0201119 2.7029157e-05
0.34932739 0.0201119 0.00097813795
0.36920416 0.0201119 0.0024618397
0.38778019 0.0201119 0.009054061
0.4113057 0.0201119 0.0085369041
0.44720063 0.0201119 0.0038787527
0.45184067 0.0201119 0.0091090417
-0.47536498 0.038686801 0.0049183457
-0.34549505 0.038686801 0.0084580686
-0.29554129 0.038686801 0.0053726113
-0.21516958 0.038686801 0.0092820181
-0.20507586 0.038686801 0.0064771469
-0.16604955 0.038686801 0.0048408234
-0.06286563 0.038686801 0.0018403044
-0.016555209 0.038686801 0.0098311678
-0.0017418116 0.038686801 0.0071178032
0.0035918057 0.038686801 0.0071649435
0.010114595 0.038686801 0.0056260806
0.047106743 0.038686801 0.0088133747
0.14551148 0.038686801 0.0039485749
0.18255833 0.038686801 0.0041899914
0.24128602 0.038686801 0.0020677175
0.39642608 0.038686801 0.0060716374
-0.29340202 0.0201119 0.011572818
-0.23227167 0.0201119 0.016982773
-0.11293511 0.0201119 0.013767108
-0.08228635 0.0201119 0.018166861
-0.023943355 0.0201119 0.012121566
0.1287265 0.0201119 0.018627468
0.15466355 0.0201119 0.01865522
0.17651507 0.0201119 0.017948911
0.19321096 0.0201119 0.014908807
0.2461375 0.0201119 0.017304329
0.27260482 0.0201119 0.010132036
0.29438671 0.0201119 0.015031312
0.31196946 0.0201119 0.011330405
0.32312524 0.0201119 0.012983399
0.38519365 0.0201119 0.014227077
-0.36253786 0.038686801 0.016708439
-0.32555467 0.038686801 0.015604421
-0.25591123 0.038686801 0.017106866
-0.18873158 0.038686801 0.016991869
-0.1223283 0.038686801 0.019181315
-0.1021976 0.038686804 0.0144997
-0.099336825 0.038686801 0.01623301
-0.075229228 0.038686797 0.0157906
0.11198337 0.038686801 0.018930007
0.19309163 0.038686801 0.015267864
0.20752192 0.038686801 0.014438205
0.23791924 0.038686801 0.018933732
0.25329959 0.038686801 0.012137955
0.3965162 0.038686801 0.018572906
-0.41564265 0.0201119 0.027285967
-0.38909453 0.0201119 0.027171491
-0.28465715 0.0201119 0.027066274
-0.26966596 0.0201119 0.022944573
-0.13752091 0.0201119 0.024777666
-0.065008134 0.0201119 0.022818228
-0.056772023 0.0201119 0.023746969
-0.03037402 0.0201119 0.025556859
0.052632213 0.0201119 0.028754402
0.07450147 0.0201119 0.024165154
0.15192646 0.0201119 0.025225166
0.24198514 0.0201119 0.023101551
0.25434005 0.0201119 0.026500031
0.41638973 0.0201119 0.020890348
-0.47344297 0.038686801 0.020462096
-0.42983747 0.038686801 0.027090924
-0.40396732 0.038686797 0.021211078
-0.34328902 0.038686801 0.024034277
-0.31852198 0.038686801 0.020698529
-0.30132675 0.038686801 0.027845209
-0.29597577 0.038686801 0.027446939
-0.27690595 0.038686801 0.025927272
-0.25607693 0.038686801 0.022379415
-0.23791909 0.038686801 0.029355368
-0.22713758 0.038686801 0.021822266
-0.19859856 0.038686801 0.026132254
-0.022796467 0.038686801 0.02832876
0.24733493 0.038686801 0.023703206
0.25057587 0.038686804 0.027803281
0.27905163 0.038686804 0.025030596
0.28988713 0.038686801 0.027396698
0.30840266 0.038686801 0.021092273
0.40588063 0.038686801 0.022962496
-0.47516698 0.024794014 0.034907356
-0.39397636 0.0201119 0.035057932
-0.33652306 0.0201119 0.036108006
-0.24902257 0.0201119 0.036177728
-0.16715275 0.0201119 0.031898122
-0.076160625 0.0201119 0.031977206
0.054354202 0.0201119 0.030782886
0.06392023 0.0201119 0.033067569
0.11107347 0.0201119 0.035545968
0.21939482 0.0201119 0.038497429
0.26221049 0.0201119 0.03111868
-0.46941492 0.038686801 0.033459786
-0.25154489 0.038686801 0.034946535
-0.22808088 0.038686801 0.038068067
-0.18489325 0.038686801 0.030491274
-0.17108841 0.038686801 0.031131754
-0.16094717 0.038686801 0.036751967
0.21142569 0.038686801 0.034366872
0.30561256 0.038686801 0.036081254
0.31602442 0.038686801 0.036040697
-0.47045594 0.028995281 0.047235951
-0.46300212 0.0201119 0.044385441
-0.45739383 0.0201119 0.049390256
-0.44533712 0.0201119 0.041200861
-0.42679387 0.0201119 0.042875778
-0.37876892 0.0201119 0.047016717
-0.33886981 0.0201119 0.040856265
-0.12308797 0.0201119 0.046053041
-0.098812342 0.0201119 0.042042673
-0.088072807 0.0201119 0.046358615
-0.034767419 0.0201119 0.048798747
0.032979742 0.0201119 0.040750965
0.045305286 0.0201119 0.043098561
0.076960012 0.0201119 0.045442626
0.084512107 0.0201119 0.046350099
0.090373874 0.0201119 0.045995094
0.34881401 0.0201119 0.048418358
0.38292432 0.0201119 0.040589888
0.45221597 0.0201119 0.043359712
-0.45118159 0.038686801 0.041702002
-0.38788837 0.038686804 0.044243939
-0.33304104 0.038686797 0.043929961
-0.2272453 0.038686801 0.044352271
-0.15127411 0.038686801 0.046652
-0.09478078 0.038686801 0.045212124
-0.04233928 0.038686801 0.043568972
0.006451264 0.038686801 0.041924514
0.069998398 0.038686801 0.047291026
0.22096086 0.038686801 0.047537282
0.27118123 0.038686801 0.046298925
0.29523039 0.038686801 0.043942105
0.38359082 0.038686801 0.043885641
-0.42881185 0.0201119 0.054043904
-0.27619639 0.0201119 0.052765414
-0.21930882 0.0201119 0.053755756
-0.20392145 0.0201119 0.050019983
-0.16514939 0.0201119 0.057853181
-0.12182021 0.0201119 0.059063241
-0.066685714 0.0201119 0.057561748
-0.032658979 0.0201119 0.053967293
-0.016684756 0.0201119 0.057000965
0.15192494 0.0201119 0.058002509
0.19417337 0.0201119 0.050907694
0.21538804 0.0201119 0.053923003
0.22714013 0.0201119 0.05424957
0.2605654 0.0201119 0.058294915
0.28360847 0.0201119 0.052420743
0.29208735 0.0201119 0.056415595
0.31890488 0.020111902 0.055418953
0.43548131 0.0201119 0.052363388
-0.46469149 0.038686801 0.050892524
-0.45670354 0.038686801 0.053524043
-0.29004842 0.038686801 0.053942718
-0.24065423 0.038686801 0.050441641
-0.12715733 0.038686801 0.051002763
-0.059733488 0.038686801 0.057862654
-0.033595361 0.038686801 0.05301198
0.15960905 0.038686801 0.055859171
0.16701734 0.038686797 0.058688689
0.17311102 0.038686801 0.051046733
0.25575098 0.038686801 0.056402173
0.30067247 0.038686801 0.056650043
0.32655615 0.038686801 0.054613121
-0.46381906 0.024704324 0.063996233
-0.37907135 0.0201119 0.064792722
-0.29385474 0.0201119 0.063602366
-0.24095909 0.0201119 0.063686624
-0.21491815 0.0201119 0.064709142
-0.14445995 0.0201119 0.069004782
-0.10509722 0.0201119 0.062261492
-0.08624804 0.0201119 0.065490395
-0.037509032 0.0201119 0.063595951
0.035781011 0.0201119 0.065800637
0.060362473 0.0201119 0.062162079
0.16971412 0.0201119 0.064831935
0.1708502 0.0201119 0.060689919
0.21159914 0.0201119 0.063581035
0.28117037 0.0201119 0.060849998
0.3262682 0.0201119 0.061892696
0.39275673 0.0201119 0.063964315
-0.45917386 0.035655364 0.067757934
-0.40950552 0.038686801 0.060944512
-0.39380231 0.038686801 0.065695018
-0.33624795 0.038686801 0.06824483
-0.29391032 0.038686801 0.068532422
-0.19934972 0.038686801 0.065649264
-0.071012795 0.038686797 0.068627648
-0.053743169 0.038686801 0.060067534
-0.035843737 0.038686801 0.065169372
-0.0025333539 0.038686801 0.067892417
0.2163673 0.038686801 0.065100916
0.27529004 0.038686801 0.065761998
0.30155295 0.038686804 0.060586024
0.3253355 0.038686804 0.065062895
0.34652597 0.038686801 0.06066319
0.36678767 0.038686797 0.061539747
0.39015231 0.038686801 0.063426517
0.44173786 0.038686801 0.0668578
-0.39287633 0.0201119 0.077030279
-0.33931944 0.0201119 0.075244702
-0.26742968 0.0201119 0.0716426
-0.22097161 0.0201119 0.075202748
-0.066852301 0.0201119 0.073332332
0.11563475 0.0201119 0.072648928
0.16676056 0.0201119 0.072912939
0.23530406 0.0201119 0.073021166
0.33015531 0.0201119 0.072994217
0.37767375 0.0201119 0.073647365
-0.45385653 0.038686801 0.071860962
-0.32938278 0.038686801 0.071112305
-0.20865598 0.038686801 0.07402356
-0.064963646 0.038686801 0.071987696
-0.044936012 0.038686801 0.072195485
0.02150115 0.038686801 0.076692231
0.033574399 0.038686801 0.073787428
0.1246077 0.038686801 0.071211271
0.13264215 0.038686801 0.072223015
0.19074383 0.038686797 0.076293372
0.31663007 0.038686801 0.074142322
0.34726173 0.038686797 0.072432593
0.41500616 0.038686801 0.073938608
-0.44507968 0.0201119 0.088993043
-0.42008007 0.0201119 0.080667056
-0.365237 0.0201119 0.087939776
-0.25952792 0.0201119 0.087317199
-0.12945536 0.0201119 0.085451797
-0.059485123 0.0201119 0.081226423
0.026200412 0.0201119 0.086310767
0.071038716 0.0201119 0.083620079
0.10109991 0.0201119 0.081028812
0.13680124 0.0201119 0.080777027
0.20116009 0.0201119 0.083134159
0.24576324 0.0201119 0.083484627
0.30721188 0.0201119 0.081306502
0.3305169 0.0201119 0.087633982
0.34910923 0.0201119 0.080857322
0.37041375 0.0201119 0.08123742
0.38784748 0.0201119 0.083535656
0.43504167 0.0201119 0.084744915
-0.40423414 0.038686801 0.081651427
-0.39950103 0.038686801 0.083530188
-0.37485939 0.038686797 0.084146887
-0.36489028 0.038686801 0.083559476
-0.22325704 0.038686801 0.082392782
-0.13777962 0.038686801 0.084331892
-0.042173408 0.038686801 0.083629265
0.015178364 0.038686801 0.08480265
0.043245539 0.038686801 0.083571568
0.058008403 0.038686801 0.086233601
0.076830901 0.038686801 0.08310914
0.10067593 0.038686801 0.085969515
0.11280586 0.038686801 0.087135203
0.18218619 0.038686801 0.086299449
0.32856596 0.038686801 0.08949811
0.40107363 0.038686801 0.084797896
0.41932228 0.038686801 0.083234943
0.44665697 0.038686797 0.083191037
-0.4003064 0.0201119 0.095893741
-0.3986609 0.0201119 0.098468192
-0.38486648 0.0201119 0.097843975
-0.33965245 0.0201119 0.094624847
-0.31864685 0.0201119 0.092231244
-0.21903825 0.0201119 0.093936458
-0.20018348 0.0201119 0.09625788
-0.14866793 0.0201119 0.095745489
-0.072782636 0.0201119 0.098322287
-0.064276546 0.0201119 0.091902509
-0.0560828 0.0201119 0.095050797
-0.039168477 0.0201119 0.098246515
-0.029807389 0.0201119 0.095640525
-0.008810848 0.0201119 0.090153202
0.038697109 0.0201119 0.090043724
0.0450776 0.0201119 0.095790699
0.079449132 0.0201119 0.098739319
0.13058075 0.0201119 0.096757546
0.1666729 0.0201119 0.097595349
0.21885857 0.0201119 0.096182756
0.29184198 0.0201119 0.098169453
0.39764488 0.0201119 0.099908412
0.41761497 0.0201119 0.094332457
0.44188428 0.028637134 0.094007038
-0.33685318 0.038686801 0.094774559
-0.32743791 0.038686801 0.094744138
-0.22918533 0.038686801 0.093330391
-0.19992265 0.038686801 0.091217451
-0.16698386 0.038686801 0.094821826
-0.124523 0.038686801 0.097792283
-0.10414831 0.038686801 0.09530706
-0.099249952 0.038686801 0.093438864
0.0037350655 0.038686801 0.097733743
0.037316516 0.038686801 0.099179491
0.071754843 0.038686801 0.090244398
0.13700967 0.038686801 0.090967141
0.14207581 0.038686801 0.092724971
0.2705009 0.038686801 0.098732948
0.30263293 0.038686801 0.093899339
-0.40630597 0.0201119 0.10994272
-0.3290028 0.0201119 0.10781382
-0.26491818 0.0201119 0.10747786
-0.22131479 0.0201119 0.10408907
-0.19425449 0.0201119 0.10769445
-0.14570245 0.0201119 0.10325159
0.016828477 0.0201119 0.10461223
0.049967185 0.0201119 0.10031164
0.16760965 0.0201119 0.10192771
0.177477 0.0201119 0.10730438
0.18206112 0.0201119 0.10576784
0.20842341 0.0201119 0.10442528
0.24104688 0.0201119 0.10415603
0.25560707 0.0201119 0.100515
0.3353315 0.0201119 0.10468675
0.34626439 0.0201119 0.10638767
0.35748091 0.0201119 0.1049283
0.40038633 0.0201119 0.10372716
-0.32971042 0.038686801 0.10189445
-0.2789439 0.038686801 0.10224537
-0.26690692 0.038686801 0.10813589
-0.21597831 0.038686801 0.10144085
-0.19325221 0.038686801 0.10261226
-0.1816643 0.038686801 0.10602707
-0.13994209 0.038686801 0.1002556
-0.07480257 0.038686804 0.10011092
-0.066475734 0.038686801 0.10976534
0.041290268 0.038686801 0.10164845
0.061110299 0.038686804 0.10804628
0.1532255 0.038686801 0.10091227
0.17278315 0.038686801 0.1076545
0.26291886 0.038686801 0.10558182
0.29379249 0.038686801 0.10166366
0.30425826 0.038686801 0.10697515
0.31490356 0.038686801 0.10563411
0.33027095 0.038686804 0.10251928
0.37973782 0.038686801 0.10181196
-0.40620738 0.0201119 0.11826556
-0.35527608 0.0201119 0.11765116
-0.26780641 0.0201119 0.11052943
-0.23356403 0.0201119 0.11419434
-0.15075432 0.0201119 0.11731257
-0.10384852 0.0201119 0.11287026
-0.093661651 0.0201119 0.11042827
-0.067997687 0.0201119 0.1193308
-0.054861322 0.0201119 0.11015643
0.040398199 0.0201119 0.11304548
0.055011585 0.0201119 0.1101229
0.10544294 0.0201119 0.11769743
0.12405919 0.0201119 0.11878883
0.13182974 0.0201119 0.11644992
0.31989002 0.0201119 0.11993965
-0.41589081 0.038686801 0.11332434
-0.24657071 0.038686801 0.1188665
-0.21940024 0.038686801 0.11350401
-0.18625146 0.038686801 0.11377489
-0.10941608 0.038686801 0.11637152
-0.071266472 0.038686801 0.11884824
-0.063298315 0.038686801 0.1124666
-0.027541444 0.038686801 0.11113367
0.18430868 0.038686801 0.11407028
0.20450334 0.038686801 0.11902349
0.35742071 0.038686801 0.11700963
-0.39508924 0.023069017 0.12510656
-0.37936953 0.020945944 0.12977657
-0.30291438 0.0201119 0.12396799
-0.26676819 0.0201119 0.12824191
-0.22220568 0.0201119 0.12722422
-0.2025858 0.0201119 0.12876782
-0.14184707 0.0201119 0.124825
-0.080677293 0.0201119 0.12973949
0.05363147 0.0201119 0.12013895
0.12217082 0.0201119 0.12603796
0.15173712 0.0201119 0.12673125
0.16954096 0.0201119 0.12345448
0.23238374 0.0201119 0.1251252
0.29425052 0.0201119 0.12587929
0.37615347 0.0201119 0.12374429
0.3826516 0.0201119 0.12618341
-0.40126565 0.035714008 0.1219243
-0.35761428 0.038686801 0.12811337
-0.26867992 0.038686801 0.12007502
-0.10620223 0.038686801 0.1235987
-0.034135848 0.038686801 0.12828374
-0.024482064 0.038686801 0.12231569
0.040385738 0.038686801 0.12567827
0.16787055 0.038686804 0.12133276
0.23738007 0.038686801 0.12889037
0.25500026 0.038686801 0.127785
0.27707684 0.038686797 0.12673837
0.28912869 0.038686801 0.12205236
0.31530944 0.038686801 0.12788811
0.32519042 0.038686801 0.12474521
-0.33778819 0.027291544 0.134426
-0.25672406 0.0201119 0.1344185
-0.23091961 0.024626749 0.134426
-0.11310762 0.026174828 0.134426
-0.10483505 0.0201119 0.1343438
-0.085736305 0.025146889 0.134426
-0.07758975 0.025459642 0.134426
-0.05978705 0.024017552 0.134426
-0.048135735 0.023693839 0.134426
-0.038343363 0.0201119 0.1317409
-0.028696824 0.0201119 0.13180003
0.15546092 0.025116522 0.134426
0.18557642 0.0201119 0.13231304
0.19001019 0.027437832 0.134426
0.25637862 0.024631387 0.134426
-0.28381443 0.038686801 0.13041723
-0.20917152 0.035208344 0.134426
-0.15694432 0.038686801 0.13165613
-0.073118672 0.038686801 0.13004428
-0.038094819 0.038686801 0.13348813
0.03541787 0.038686801 0.13009429
0.097423926 0.038686801 0.13153204
0.10290362 0.037383035 0.134426
0.15357059 0.033538837 0.134426
0.19465619 0.038686801 0.13186443
0.23540671 0.036981359 0.13321967
0.28014219 0.033773836 0.134426
0.32101476 0.033036239 0.134426
0.34770533 0.035411499 0.134426
