# .PCD v0.7 - Point Cloud Data file format
VERSION 0.7
FIELDS x y z
SIZE 4 4 4
TYPE F F F
COUNT 1 1 1
WIDTH 890
HEIGHT 1
VIEWPOINT 0 0 0 1 0 0 0
POINTS 890
DATA ascii
0.32975873 -0.015116125 -0.15195064
0.32348093 -0.0044751689 -0.15217988
0.32157132 0.0045575043 -0.15210336
0.29111168 0.02431781 -0.15042067
0.36038408 0.023057811 -0.15783319
0.41388711 0.028817199 -0.1566159
0.42588028 0.038637422 -0.15040883
0.30655229 -0.021571357 -0.14271919
0.32078618 -0.010927388 -0.14488806
0.33070749 -0.012774218 -0.1481756
0.33074567 -0.0042444556 -0.14348389
0.32209551 0.0054587647 -0.14231154
0.24302396 0.017177084 -0.14802341
0.31191403 0.017441329 -0.14834081
0.34650534 0.017774733 -0.149636
0.38712248 0.019497907 -0.14379846
0.23114362 0.023744015 -0.14704774
0.27949101 0.024228266 -0.14398892
0.406151 0.025863031 -0.14184193
0.41931731 0.0365512 -0.14785779
0.4267613 0.032869864 -0.14450887
0.44116804 0.037791364 -0.14737421
0.43523747 0.041478463 -0.1477645
0.32476455 -0.022103716 -0.13290149
0.31126374 -0.012928553 -0.13010368
0.32719207 0.0023403175 -0.13496339
0.14962192 0.015909011 -0.13375497
0.18920222 0.016282097 -0.13747761
0.21236746 0.016504927 -0.13846377
0.22274435 0.016615454 -0.13604937
0.23567882 0.016764119 -0.13013498
0.24423775 0.016829673 -0.13497251
0.28453565 0.017220365 -0.1358715
0.32369226 0.0175969 -0.13757025
0.33165172 0.01766807 -0.1393472
0.3706798 0.018073555 -0.13302432
0.049805805 0.022033049 -0.13040574
0.33718413 0.024811815 -0.13881874
0.39879486 0.023229878 -0.13526538
0.43979529 0.042557493 -0.13212784
0.31076303 -0.007889525 -0.12277064
-0.077789426 0.019096671 -0.12129047
0.049148604 0.014946202 -0.12850286
0.24775201 0.016897419 -0.12607189
0.33231705 0.017739743 -0.12197155
0.36557549 0.018044775 -0.12738854
0.1350057 0.02288113 -0.12642558
0.20598693 0.023588415 -0.12291303
0.4041062 0.031287424 -0.12178203
0.42156482 0.036772095 -0.12550186
0.44176543 0.037411463 -0.12267451
0.31379086 -0.013982261 -0.11508976
0.31122071 -0.0084985001 -0.11391362
0.3236782 -0.0062563196 -0.11133222
-0.14722005 0.013087081 -0.11220346
-0.13120754 0.013609187 -0.11681253
-0.11484174 0.015792504 -0.11818674
0.038826078 0.014879328 -0.11941878
0.047415763 0.014993871 -0.11127415
0.068990588 0.015174391 -0.11939487
0.095294595 0.015460517 -0.11168755
0.1305441 0.015796291 -0.11406697
0.25178003 0.016969364 -0.11739105
0.37750807 0.018202178 -0.11647689
-0.057827115 0.021044701 -0.11326774
-0.047043923 0.021153376 -0.11240682
0.00048353709 0.021620307 -0.11183019
0.011852801 0.021711892 -0.11706141
0.042480901 0.022019396 -0.11492825
0.13423285 0.022917949 -0.1145793
0.14339808 0.023007741 -0.11453483
0.15651539 0.023143044 -0.11265888
0.18371207 0.023383126 -0.11956619
0.19729114 0.023551745 -0.11000142
0.26755527 0.024213508 -0.11676934
0.28166634 0.024350993 -0.11690434
0.31976703 0.024727628 -0.11582237
0.38666472 0.025802711 -0.11781034
0.39690119 0.022060629 -0.11268346
0.41554746 0.034774497 -0.11917297
0.44911668 0.03978508 -0.11828792
-0.29930142 0.017619967 -0.10281926
-0.25943828 0.018744953 -0.1061473
-0.21631736 0.015593339 -0.1097272
-0.20712367 0.019623267 -0.10297842
-0.19581455 0.019710718 -0.10915569
-0.18976247 0.019782342 -0.10583523
-0.097296238 0.013601509 -0.10520868
0.16796333 0.016207848 -0.1018968
0.22782379 0.016765632 -0.10925086
0.33004922 0.017772464 -0.10733328
0.37633109 0.018220365 -0.10855614
-0.095478214 0.020721866 -0.10115989
-0.070301861 0.020971837 -0.10015307
-0.065905258 0.020982552 -0.10876974
0.1950109 0.023534693 -0.10860131
0.31563586 0.024731219 -0.10407849
0.35775083 0.025131447 -0.10717803
0.37063494 0.025261361 -0.10613117
0.38405973 0.02539682 -0.10501489
0.43473786 0.03471446 -0.10867826
0.45534673 0.04414615 -0.1020835
-0.29359016 -0.047095016 -0.098834999
-0.27866769 -0.043773554 -0.09342806
-0.2892614 -0.037891075 -0.099416815
-0.26525775 -0.027250517 -0.096953809
-0.30244401 -0.012302493 -0.091787092
-0.28172302 -0.010845598 -0.093178593
0.31461865 -0.013566253 -0.094264589
0.31437752 -0.0041946336 -0.091571577
-0.29731038 0.0034837602 -0.097557217
-0.43727955 0.019733109 -0.090889253
-0.38439763 0.010841542 -0.092532992
-0.34815031 0.013830487 -0.098730013
-0.33677399 0.011295802 -0.095583826
-0.30286843 0.018725367 -0.092729837
-0.25692782 0.012083982 -0.093615614
-0.2290718 0.012335995 -0.099051192
-0.20453826 0.019682322 -0.093963511
-0.19673859 0.012660471 -0.096839346
-0.18594183 0.019850044 -0.097736277
-0.053487331 0.014058162 -0.097675033
0.064644948 0.015224651 -0.094662637
0.20139958 0.016549313 -0.098030999
0.2126693 0.016673287 -0.094359055
0.23358449 0.016891683 -0.090661407
0.27507824 0.017290002 -0.092644989
0.36378491 0.018138623 -0.097763382
0.37392288 0.018256776 -0.09256395
-0.4385097 0.022324115 -0.091236562
-0.42405748 0.021550817 -0.092437908
-0.12341598 0.020465052 -0.096784025
-0.10429805 0.020662891 -0.093878478
-0.072945893 0.020947721 -0.099688217
-0.054939404 0.021124728 -0.099442348
-0.017336059 0.021503661 -0.09645018
0.077514015 0.022444438 -0.092917003
0.12613584 0.022903403 -0.097324908
0.14805835 0.023123767 -0.095727079
0.19859374 0.023626165 -0.093535349
0.29765606 0.024577808 -0.098095037
0.34799868 0.02509211 -0.092219211
0.35007 0.025112061 -0.09230078
0.38735661 0.025567388 -0.09665221
0.40367591 0.023985701 -0.097487517
0.43177709 0.033382975 -0.094482973
0.45786798 0.043989219 -0.097523957
-0.31447729 -0.002383512 -0.088205919
-0.26989982 -0.00035018072 -0.080580726
-0.30371371 0.0064435019 -0.083890088
-0.40335876 0.017758908 -0.088394523
-0.32759562 0.018530061 -0.080315858
-0.30109555 0.018757803 -0.088699229
-0.2999607 0.011695613 -0.084964044
-0.28196076 0.018947594 -0.087986186
-0.22674286 0.019516151 -0.080356993
-0.20836802 0.012597214 -0.083383426
-0.071742892 0.013910709 -0.089391984
0.0087595992 0.014729572 -0.080954254
0.076601334 0.015395296 -0.080337152
0.10189673 0.015618099 -0.086884558
0.20229499 0.016594335 -0.088361189
-0.44734037 0.024454126 -0.083171546
-0.13642251 0.020364746 -0.089606382
-0.029932391 0.021427581 -0.083876789
0.048727401 0.022191284 -0.085348316
0.090458319 0.022596359 -0.086152799
0.11244974 0.022817641 -0.084490538
0.17809439 0.023473993 -0.080642916
0.19694486 0.023628997 -0.088474855
0.28959131 0.024560049 -0.081781358
0.34335488 0.025089275 -0.080852225
0.40632868 0.02461143 -0.086092457
0.43849689 0.035509571 -0.088640317
-0.30888081 -0.040683035 -0.079826556
-0.30503848 -0.034229837 -0.070209108
-0.28339958 -0.03011246 -0.071673751
-0.26725265 -0.033956476 -0.077670634
-0.31728682 -0.029080044 -0.078722507
-0.30206448 -0.024281088 -0.070451431
-0.29900962 -0.021092329 -0.070669644
-0.2703855 -0.015649822 -0.072606996
0.3177098 -0.014127378 -0.074985564
-0.27759278 0.005921151 -0.076079436
-0.43415752 0.019209584 -0.075589702
-0.39653054 0.010781261 -0.076952301
-0.36602238 0.011092598 -0.073483028
-0.34595418 0.018359322 -0.077969238
-0.31634438 0.018675385 -0.0708929
-0.15741062 0.013125893 -0.075280905
-0.13913712 0.013322054 -0.070619002
-0.02527941 0.014435087 -0.070721529
-0.0002019871 0.014670245 -0.073406123
0.011262029 0.014763314 -0.078481734
0.026773807 0.014925083 -0.075793453
0.069420353 0.015335367 -0.077592731
0.11183639 0.015754197 -0.076512232
0.27720541 0.017375378 -0.075426653
0.36610287 0.018246744 -0.074867174
-0.4406051 0.024856381 -0.074239269
-0.09337952 0.020846514 -0.073362961
-0.023501836 0.02151452 -0.077455148
-0.01007732 0.021669311 -0.071178168
0.10449001 0.022770312 -0.076346092
0.13333248 0.023054203 -0.075854778
0.21967715 0.023916166 -0.071155772
0.24202453 0.024123942 -0.074027218
0.30452427 0.024716716 -0.078940496
0.32203525 0.02488737 -0.079096586
0.36364096 0.025313523 -0.073944919
0.38911885 0.020871647 -0.071751252
0.40211213 0.022857141 -0.071910292
-0.44842306 0.030935235 -0.073157519
0.41690338 0.03435069 -0.079466701
0.43529391 0.040055487 -0.079966418
0.32661429 -0.010237489 -0.069011733
-0.41925237 0.01469707 -0.066724114
-0.38238662 0.018047899 -0.065996177
-0.36788464 0.018174924 -0.069944628
-0.30471444 0.015269131 -0.064577684
-0.27194732 0.012039747 -0.066226684
-0.26663041 0.016814692 -0.06673453
-0.25330773 0.019331979 -0.060172953
-0.19511706 0.012783755 -0.068181232
-0.14110805 0.013316866 -0.066858992
-0.12527364 0.013490023 -0.06197083
-0.094557673 0.013783833 -0.063722938
-0.088938557 0.013841932 -0.062882327
-0.075186104 0.013964363 -0.066100448
-0.031425133 0.014415141 -0.060004458
0.0080393702 0.014774072 -0.067210622
0.059796616 0.015295477 -0.063135564
0.08596237 0.015530531 -0.068685949
0.15711576 0.016247287 -0.063096568
0.17094037 0.016367113 -0.067193218
0.2006005 0.016672822 -0.063015677
0.33412749 0.017984929 -0.06142021
0.34457767 0.018075611 -0.064510539
0.38588095 0.018483024 -0.063346446
0.39412683 0.019954775 -0.062901318
-0.42316338 0.023193071 -0.06116648
-0.12149339 0.020607721 -0.06371671
-0.091435097 0.020903498 -0.063226983
-0.034988381 0.021465071 -0.060669988
0.032535948 0.022110894 -0.064540237
0.31206587 0.024844412 -0.064537399
0.35565621 0.025280699 -0.061861731
0.38532153 0.025137996 -0.062920205
0.39492089 0.027163301 -0.061532401
-0.45787841 0.034306031 -0.062564157
0.43547034 0.034043238 -0.069654509
-0.29325226 -0.024602797 -0.051932234
0.32593089 -0.012296591 -0.05503425
0.31766808 -0.0032130633 -0.054598112
-0.35604185 0.018344382 -0.055623509
-0.34279305 0.011391877 -0.054230958
-0.27826244 0.012036055 -0.050726213
-0.26715261 0.0156698 -0.055675074
-0.24793468 0.019402195 -0.055455245
-0.15734376 0.013199106 -0.055910856
-0.10018446 0.013743018 -0.059929758
0.0081959721 0.014816351 -0.056333072
0.23350146 0.01701859 -0.056605868
0.32175675 0.017897408 -0.052487038
-0.41642839 0.02130774 -0.052262999
-0.16447249 0.020222088 -0.054463778
-0.14777407 0.020367621 -0.059205353
-0.10918416 0.020749534 -0.057993278
-0.047734722 0.021350017 -0.058108598
0.030936919 0.022137821 -0.053177282
0.063717648 0.022432957 -0.059965737
0.13279708 0.023111461 -0.059172075
0.15553489 0.023344316 -0.056367882
0.19585678 0.023748456 -0.053741407
0.23019898 0.024095301 -0.05080035
0.24145457 0.024171788 -0.059765384
0.28012386 0.024576191 -0.05275362
-0.46688873 0.030257868 -0.058726292
0.42814901 0.037302561 -0.054518946
-0.29071441 -0.025221236 -0.045565538
-0.28407803 -0.016322346 -0.047012351
0.32578227 -0.0035023401 -0.045421723
-0.37133017 0.0111313 -0.049295045
-0.36988613 0.018243054 -0.046532311
-0.35751286 0.011296315 -0.041314602
-0.33356678 0.01153412 -0.040344458
-0.30063424 0.011847414 -0.042682234
-0.28827083 0.015490318 -0.048458099
-0.1947487 0.019959416 -0.045547664
-0.17624733 0.013065307 -0.042280227
-0.12833038 0.013505023 -0.049986623
-0.11825703 0.0136112 -0.047939435
-0.096088104 0.01382564 -0.048567299
-0.085009396 0.013963031 -0.040811814
-0.075241581 0.014038239 -0.046234231
-0.034775287 0.01443683 -0.045468628
0.030440368 0.015074494 -0.0454912
0.13800968 0.016118743 -0.047541339
0.15560144 0.01629228 -0.04713973
0.16794974 0.016434358 -0.041447125
0.20926297 0.016806711 -0.049896948
0.21977329 0.016926421 -0.045377403
0.23126081 0.017043758 -0.044042997
0.28962129 0.010532291 -0.042711396
0.2959339 0.010580067 -0.046435688
0.31783766 0.010804107 -0.043858819
0.33985111 0.011028333 -0.041498292
-0.45827281 0.028025916 -0.041593112
-0.18376692 0.020063426 -0.046449997
-0.15413897 0.020369802 -0.042007003
-0.11458074 0.020741023 -0.046177328
0.0085495263 0.021955606 -0.043377347
0.20036528 0.023819841 -0.046453383
0.21364659 0.023954436 -0.045193993
0.40745783 0.030656127 -0.043227009
0.33232328 -0.014884086 -0.039073221
0.3049342 0.0087533481 -0.032249443
0.33693922 0.0087336907 -0.039455671
-0.41453886 0.014210567 -0.033922363
-0.34031886 0.01858345 -0.032848664
-0.30573782 0.016549518 -0.035431687
-0.29777482 0.011895944 -0.037191324
-0.28219765 0.012048339 -0.037173938
-0.27307135 0.019225519 -0.036998831
-0.24928746 0.015922941 -0.034735769
-0.23868912 0.01957682 -0.032974493
-0.21841142 0.019780975 -0.031410702
-0.16657278 0.013204316 -0.030427756
-0.10953878 0.01373321 -0.038127948
0.022985056 0.015050963 -0.032310307
0.044958401 0.015247134 -0.037304536
0.065297186 0.015459123 -0.03380882
0.093694031 0.015735023 -0.034288004
0.19196089 0.016709769 -0.030607983
0.35214174 0.013388981 -0.031411625
0.39226043 0.019202486 -0.038068019
-0.064612478 0.021280758 -0.032537453
-0.036833413 0.021558322 -0.030958876
-0.022368997 0.021697519 -0.031560052
0.098436296 0.022850439 -0.039151419
0.14542359 0.023325607 -0.034964368
0.18105336 0.023672353 -0.035410091
0.31165695 0.024945151 -0.036574502
0.32388961 0.025087237 -0.03057681
0.33632761 0.025186095 -0.036656655
0.35255513 0.025363069 -0.031774472
0.40523356 0.029857848 -0.038069334
-0.46613076 0.037897535 -0.032604367
0.45007536 0.043689474 -0.035608023
-0.29486078 -0.019065689 -0.024807161
-0.28399333 -0.014262144 -0.026298262
0.31615031 -0.017492797 -0.02569248
0.32608944 -0.017395955 -0.025751371
0.30560786 -0.0070413235 -0.023637824
-0.41566885 0.014796609 -0.026813231
-0.40560451 0.011595164 -0.025753547
-0.38516781 0.018175008 -0.024803668
-0.30591857 0.011870477 -0.022730075
-0.28317493 0.012065811 -0.029958833
-0.26419097 0.019368131 -0.022110887
-0.057726402 0.014279364 -0.027589427
-0.043702587 0.014407794 -0.029914647
-0.015506782 0.0147073 -0.023567058
0.040377952 0.015248072 -0.025096694
0.15360215 0.016339986 -0.029184967
0.16455823 0.01646186 -0.025251085
0.19769393 0.016781695 -0.026373249
0.24489436 0.017257636 -0.022569271
0.27590707 0.017561072 -0.022548521
0.29807991 0.010673268 -0.027147144
0.37562484 0.018522177 -0.026170038
-0.44344303 0.023677705 -0.028259188
-0.11812688 0.020791085 -0.023555294
-0.095954739 0.020993007 -0.027532723
0.053353548 0.02247414 -0.021915652
0.060355198 0.022546217 -0.020952186
0.16869038 0.023590861 -0.024890531
0.26239097 0.024496153 -0.027825881
0.3011153 0.024901871 -0.020608
0.39907742 0.020621821 -0.020353079
0.40227643 0.021773674 -0.023499977
0.45139152 0.043773305 -0.020374276
0.30646718 -0.015744708 -0.010846369
0.34112582 -0.01260109 -0.011217752
-0.43002999 0.01976146 -0.015671019
-0.39393795 0.011047093 -0.012755666
-0.38500682 0.01467225 -0.014309775
-0.36356172 0.018410966 -0.018217437
-0.34671831 0.015048105 -0.013928229
-0.30140901 0.011954277 -0.012132041
-0.277419 0.019273287 -0.012897223
-0.26467609 0.019401262 -0.011999995
-0.24492563 0.012496891 -0.014732426
-0.1996467 0.012954563 -0.010758784
-0.11255134 0.013799567 -0.012549482
-0.10881703 0.013811636 -0.019076046
-0.090852618 0.013985107 -0.019664284
-0.082419053 0.01408007 -0.016330123
-0.073097035 0.014183996 -0.01292228
0.096982189 0.015855109 -0.010814555
0.13537475 0.016200785 -0.018761517
0.1474454 0.016347695 -0.011054272
0.19799672 0.016827837 -0.014860955
0.22047478 0.017064428 -0.010408992
0.28907046 0.012441895 -0.015571553
0.30346164 0.010789039 -0.010290852
-0.43297726 0.027863337 -0.012806746
-0.16946097 0.020328956 -0.012911968
-0.12469994 0.020743072 -0.019213039
-0.056467257 0.021435859 -0.012395747
-0.020515934 0.021783754 -0.013376512
0.016227394 0.022135131 -0.01549571
0.051415831 0.02247991 -0.015315436
0.066764407 0.022626622 -0.016218439
0.16457269 0.023596615 -0.012604436
0.1969099 0.023892213 -0.018110074
0.22096333 0.024149133 -0.012315601
0.33049119 0.025227718 -0.010306336
0.36655834 0.02556666 -0.013978619
0.46309957 0.047189735 -0.010551095
-0.27883795 0.0062092016 -0.0013580787
0.30894807 0.009076491 -0.0093614301
-0.35284713 0.018583309 -0.00018062815
-0.34810591 0.01153337 -0.0025893375
-0.33362108 0.018751923 -0.0053594373
-0.31678477 0.018914834 -0.0058212988
-0.30490375 0.019051578 -0.00033277646
-0.26830548 0.019384136 -0.0070969015
-0.21953124 0.012793547 -0.0018328838
-0.087881617 0.014079412 -0.0022457186
-0.068809137 0.014250329 -0.0064084567
-0.040805627 0.014540455 -0.0020629615
0.093125492 0.015846169 -0.0031335466
0.12528431 0.01616608 -0.0016842857
0.31703749 0.012140132 -0.0010583899
0.32534784 0.011210171 -0.0014638985
0.33564362 0.011134194 -0.002285369
-0.42416757 0.025308669 -0.003985012
-0.15238851 0.020536272 -0.0021367855
-0.070281275 0.021333029 -0.0037843436
0.010970205 0.022109624 -0.0085807294
0.020636156 0.022199888 -0.0097176358
0.032472193 0.022351226 -0.00021475554
0.074820235 0.022738745 -0.0073151737
0.10369837 0.023035761 -0.003412012
0.11799376 0.023163242 -0.0066996478
0.15192789 0.023501355 -0.0050239395
0.1865233 0.023821201 -0.0099522024
0.27664411 0.024727324 -0.0033196323
0.30510706 0.025000777 -0.0046232231
0.33599749 0.02531876 -0.00037568808
0.39465114 0.0253838 -0.0053665154
-0.46611959 0.035012171 -0.0068998933
-0.45191005 0.034302402 -0.001502851
0.45301253 0.038325172 -0.00042372476
-0.30228281 -0.022394706 0.0098787211
-0.28977561 -0.024021422 0.0076434431
-0.2804704 -0.015718738 0.0092294207
0.32834736 -0.0017429548 0.00018290663
-0.27297223 0.0028136824 0.0054697087
-0.39732048 0.011095265 0.0089344829
-0.38015056 0.018341137 0.0064474903
-0.35906374 0.011447234 0.0030222386
-0.31500417 0.011892858 0.0071443515
-0.3032414 0.011996698 0.0040403502
-0.28538039 0.01217176 0.0040823594
-0.2710498 0.012309117 0.0032990596
-0.26894936 0.019407842 0.00091245025
-0.23133861 0.019807819 0.0095028132
-0.21563759 0.019963166 0.0099854488
-0.072801441 0.014252759 0.0046622753
0.1572734 0.01649946 0.0037746448
0.17856324 0.016694412 0.00023230165
0.18627849 0.016794892 0.0068942383
0.22489583 0.017180931 0.009103274
0.29130167 0.012668582 0.00020688734
0.36766213 0.018560603 0.0048357863
-0.41244036 0.021895614 0.0073643886
-0.17674351 0.020330489 0.0065090749
-0.11917284 0.020885488 0.0043765884
-0.082300872 0.021263085 0.0089219511
-0.077198766 0.021313919 0.0091727711
0.10173041 0.023055663 0.0070393467
0.12842897 0.023306724 0.0043635312
0.19812325 0.023990344 0.0049207788
0.25598311 0.024545709 0.0021335091
0.37426397 0.02571756 0.0061911196
0.39284956 0.025910143 0.0090839118
-0.46526024 0.035535626 0.0029402059
-0.45380977 0.035191908 0.0073943604
0.46621946 0.047841799 0.0042235795
-0.28766459 -0.024609555 0.019700194
-0.30185467 -0.0031659792 0.017195111
0.32645872 -0.00074143754 0.017667623
-0.27737147 0.0051908954 0.0115677
-0.37365124 0.011363653 0.018791502
-0.31179547 0.011969659 0.019249117
-0.30274695 0.012045586 0.015851056
-0.29229271 0.012162717 0.019774033
-0.23001097 0.01276022 0.016628429
-0.12440772 0.013793809 0.016865388
-0.089864686 0.01414154 0.019516706
0.05692973 0.015549313 0.012111039
0.10351121 0.016002212 0.011401948
0.11303861 0.016096309 0.011642663
0.13804385 0.016335804 0.010284835
0.14595564 0.016431596 0.015185675
0.19942701 0.016961535 0.017022591
0.24160856 0.017360708 0.013464198
0.32681087 0.018204626 0.016419768
0.37029302 0.018639406 0.019010035
-0.43118268 0.028006455 0.010152586
-0.20751289 0.020070395 0.017400738
-0.080855079 0.021310411 0.017780978
-0.072550714 0.021365322 0.010760397
-0.044081897 0.021654408 0.013613969
0.045730852 0.022545801 0.01711785
0.1725672 0.023786964 0.017343767
0.26937425 0.024733497 0.017308481
0.39231405 0.02592637 0.014814477
-0.45369029 0.03548374 0.017926963
0.46693707 0.044873767 0.011315161
-0.30101743 -0.02563899 0.024683874
-0.27552766 0.0052549029 0.023787333
-0.26378956 0.0053585069 0.020809596
-0.41259712 0.015330232 0.021696802
-0.38481838 0.011288354 0.027842741
-0.32351288 0.018967025 0.025675349
-0.27363393 0.012354832 0.022289246
-0.26058614 0.019597495 0.029708248
-0.2470959 0.019721486 0.027591441
-0.20094195 0.013079602 0.026002273
0.018404737 0.015239013 0.029847376
0.10756758 0.016090974 0.02447585
0.20292222 0.017017473 0.022838058
0.33526525 0.018315241 0.023892097
0.34293547 0.018407723 0.028565921
-0.4534395 0.028472919 0.022216242
-0.1670616 0.020479361 0.020975087
-0.1209771 0.020934395 0.022142701
-0.088886686 0.021255199 0.024008583
-0.06544695 0.021470292 0.020238105
0.088480294 0.022980796 0.021643981
0.093502089 0.023054002 0.028077915
0.11487933 0.023244914 0.023236232
0.19588409 0.024044469 0.025216814
0.20469733 0.024128579 0.024663929
0.21098416 0.024207827 0.029407836
0.23863485 0.024449073 0.021626458
0.28839827 0.024944684 0.024023991
0.31085014 0.025157522 0.022231143
-0.4570092 0.036866717 0.028016165
-0.44447508 0.032726102 0.024431903
0.41277575 0.0309048 0.022566305
0.44027585 0.039450016 0.021114111
-0.28287625 -0.02627516 0.034357969
-0.29521191 0.0051220949 0.039710622
-0.42534953 0.019722102 0.031055026
-0.38618442 0.011316394 0.038893733
-0.35902348 0.018662551 0.037097342
-0.34027398 0.011764567 0.038683437
-0.31158513 0.012035728 0.036328848
-0.29415905 0.019290134 0.035301358
-0.23990788 0.019833419 0.038708206
-0.19605608 0.01315959 0.0346005
-0.16032365 0.013518369 0.037096191
-0.0033735484 0.015046937 0.035425253
0.0063462108 0.015131149 0.032531835
0.029611737 0.015386606 0.039970189
0.087519675 0.015933624 0.034797065
0.14956249 0.016557368 0.039354663
0.15037543 0.016560856 0.038154516
0.31371155 0.018145965 0.034979802
-0.42875865 0.027934566 0.032705877
-0.40746051 0.021097455 0.032958522
-0.19118527 0.020295208 0.034791425
-0.010392118 0.02205652 0.033013374
-0.0042043775 0.022138037 0.038622528
0.072827324 0.022888374 0.037835836
0.15501541 0.023693398 0.038186658
0.2340019 0.024450656 0.034144767
-0.29932541 -0.02183713 0.045404483
-0.27209947 -0.015041296 0.048296914
-0.26927572 -0.0017413525 0.046812024
-0.25642002 0.0055307392 0.047494475
-0.41068423 0.015527192 0.047590509
-0.38294959 0.011376111 0.046390977
-0.37501657 0.011454944 0.046725892
-0.32027251 0.019058716 0.041693378
-0.29698753 0.012214493 0.045868117
-0.28818589 0.01230339 0.046620317
-0.25540397 0.012624864 0.046938077
-0.24200563 0.019819967 0.04059327
-0.23053387 0.019946732 0.044486038
-0.20107737 0.013135081 0.041166361
-0.13284814 0.013814961 0.044545844
-0.10726482 0.014063438 0.044091396
-0.062002547 0.014497954 0.041926835
0.045990773 0.015568813 0.045827672
0.080876127 0.015909337 0.045637082
0.1614438 0.016681589 0.041527051
0.17003742 0.016778965 0.04509531
0.34696132 0.018526079 0.049684402
-0.45232031 0.028882565 0.046757624
-0.42627311 0.02740591 0.041321643
-0.077291176 0.02144812 0.045240939
-0.055404369 0.021645643 0.040834177
-0.033807859 0.021862917 0.042458851
-0.017037027 0.022018526 0.040218808
0.023941338 0.022446344 0.047452107
0.12519686 0.023439154 0.048158377
0.13838415 0.023542002 0.041187499
0.15128738 0.023680855 0.044571515
0.18972605 0.024061382 0.045810401
0.19551183 0.024110757 0.043887071
0.26482454 0.024810566 0.049762376
0.29456422 0.025099296 0.049203921
0.34646988 0.025593711 0.045689754
0.39859772 0.02476364 0.042346906
0.40391815 0.024171457 0.048370019
-0.44189194 0.032456227 0.042302154
0.46093306 0.045262568 0.048573621
0.32227221 -0.0039010481 0.058547031
-0.33165663 0.011909483 0.054873154
-0.29324692 0.015824601 0.053843074
-0.28535104 0.015898742 0.053025726
-0.13078003 0.013881913 0.05702034
-0.033052176 0.014827641 0.054352004
-0.025919229 0.014890958 0.052632682
0.076710433 0.015915565 0.058234993
0.27821699 0.017877799 0.056073315
0.33739966 0.018435419 0.050441369
0.35681635 0.01862444 0.050218895
-0.42887375 0.025145892 0.055251639
-0.20681879 0.020234128 0.05929834
-0.1970986 0.020327544 0.058860734
-0.16473728 0.020625465 0.053910431
-0.15063204 0.020784447 0.059528999
-0.14204562 0.020837786 0.051352806
-0.12632939 0.021013273 0.057172522
-0.10694452 0.021212336 0.05970908
-0.094741538 0.02131477 0.055197462
-0.079376496 0.021451082 0.05147605
-0.044526495 0.021799406 0.053486411
-0.015695296 0.022091227 0.056124993
0.075201929 0.022975696 0.054949243
0.094823927 0.023179665 0.058176223
0.15653661 0.023775902 0.056242317
0.18412578 0.024058007 0.059530154
0.22450003 0.024433643 0.054408669
0.23796135 0.024578562 0.057955332
0.28185752 0.025010027 0.058545746
0.3075465 0.025252283 0.056155376
-0.43812764 0.031639826 0.054848172
0.42252532 0.033191778 0.056997068
0.43774009 0.037852574 0.059340671
0.45708978 0.043882452 0.057520859
-0.28811443 -0.022370465 0.06467177
0.33329219 -0.027410112 0.069002375
0.32636186 -0.012038496 0.067772925
0.31372482 -0.0047893319 0.068506747
0.32457682 0.00073836744 0.067825496
-0.39256787 0.018437821 0.064674765
-0.37398851 0.011520047 0.06142186
-0.35333768 0.018830743 0.06715399
-0.32482743 0.012013913 0.064923257
-0.30312616 0.019311668 0.06445884
-0.29252174 0.012329945 0.064953111
-0.2727083 0.012506228 0.060288258
-0.2652595 0.019684779 0.065209687
-0.24512528 0.019871593 0.062518939
-0.21408322 0.013106102 0.067382507
-0.11625853 0.014044773 0.06258665
-0.010359675 0.015099986 0.067768626
0.033206131 0.015526754 0.068011716
0.087778389 0.016051689 0.065694302
0.13471159 0.016489329 0.060007587
0.1851466 0.016992396 0.062658839
0.33743998 0.018475758 0.061120827
0.39267612 0.019043976 0.068649031
0.40025723 0.019493546 0.064010106
-0.16760044 0.02063188 0.063097917
-0.13353589 0.020981345 0.067463458
0.083301663 0.023077838 0.061072197
0.33936054 0.025587434 0.062574834
0.39882344 0.026196467 0.069930345
0.45831263 0.040610597 0.065235682
0.31132835 -0.015862504 0.073975362
0.34720623 -0.016488906 0.071265094
0.34690046 0.0014410227 0.078599796
-0.39620298 0.011854894 0.076589286
-0.35333741 0.011771498 0.074636303
-0.33178824 0.011972142 0.071943939
-0.27788901 0.012511324 0.075173274
-0.20510302 0.01324035 0.079777472
-0.18237081 0.013459869 0.079034612
-0.13383992 0.013935221 0.079238959
-0.11986984 0.014043167 0.071585886
-0.064976566 0.014604576 0.078113109
0.13160713 0.016502736 0.071707398
0.17829247 0.016972469 0.075249165
0.19572428 0.017145012 0.075809419
0.20580351 0.017258182 0.079716697
0.27674559 0.017923836 0.072227523
0.36757839 0.018840007 0.079717435
-0.44272524 0.026640657 0.073612802
-0.17885259 0.020559708 0.073205635
-0.13034403 0.021035912 0.073698312
-0.11804945 0.021143558 0.070338845
-0.093243808 0.021397991 0.073505953
-0.089120507 0.0214501 0.076653503
-0.029716887 0.022020934 0.073965549
-0.0050610825 0.02225863 0.073055252
0.12642859 0.023535816 0.070749424
0.13874629 0.02367826 0.076620013
0.18091413 0.024068277 0.070657276
0.31325868 0.025363605 0.070962846
0.36408055 0.025859473 0.07066571
0.39732203 0.026183078 0.07027638
-0.43807304 0.03229861 0.076418772
0.4312883 0.035575278 0.072506517
0.31699967 -0.022944741 0.087081924
0.31318602 -0.010571454 0.08634226
0.34441128 -0.013264108 0.083800726
0.34327993 -0.0050253398 0.084315911
-0.41589934 0.018390438 0.085454613
-0.36802238 0.018766731 0.088400997
-0.34773153 0.011858824 0.083313942
-0.33338398 0.015561145 0.088219628
-0.3259494 0.012087842 0.087587647
-0.26087072 0.012716491 0.085515805
-0.25410289 0.0198768 0.087345712
-0.24726817 0.012853548 0.086593345
-0.19164385 0.013398691 0.086910687
-0.15602082 0.013751522 0.088103935
-0.068249226 0.014614967 0.089457855
0.0022103786 0.015292033 0.086285964
0.21693981 0.017372314 0.081118383
0.22474261 0.01745107 0.081776559
0.23613496 0.01758825 0.088670015
0.37108666 0.018888375 0.083476484
0.40258583 0.019694827 0.089583278
-0.43693584 0.025124986 0.084615543
-0.21529689 0.020260872 0.088570043
-0.15666403 0.020807467 0.081423707
-0.033546519 0.022015771 0.08258532
0.0059348755 0.022410139 0.084796697
0.01373503 0.022481689 0.083535202
0.03583248 0.022694049 0.082539752
0.10370152 0.023361184 0.083461493
0.13513081 0.023669433 0.083702654
0.16195269 0.023935653 0.08475256
0.18568882 0.024170849 0.085576288
0.24481878 0.024742544 0.083832197
0.28349185 0.025143495 0.089912273
0.30423456 0.025323166 0.083726153
-0.45547998 0.035867743 0.085202128
-0.28545097 -0.022765707 0.091740727
-0.39463058 0.01173564 0.091232345
-0.38401851 0.018620132 0.09102463
-0.36181599 0.018860405 0.097205453
-0.35976869 0.018865082 0.093109623
-0.33461836 0.012042563 0.098131061
-0.32443327 0.015668323 0.093465373
-0.31702974 0.019286593 0.094061375
-0.29601079 0.012422564 0.098786175
-0.28248033 0.019610224 0.090262651
-0.26786208 0.012697427 0.098678142
-0.25628304 0.012804972 0.097159967
-0.23561105 0.01298965 0.092494726
-0.12394077 0.01410507 0.098699003
-0.11023483 0.014240793 0.09918195
-0.10608457 0.014278913 0.09852545
-0.095933646 0.014361816 0.094137773
-0.080010921 0.014531516 0.097898684
-0.060031638 0.014734689 0.099988773
0.0008822456 0.015328355 0.099468485
0.018620655 0.015471637 0.091404691
0.063558832 0.015908241 0.090656176
0.15431756 0.016822459 0.097816974
0.21732315 0.017442271 0.098818719
0.2597588 0.01785749 0.098894984
-0.4221589 0.027746839 0.094365135
-0.14241368 0.021015521 0.09976542
-0.092097498 0.021494444 0.096264452
-0.051492169 0.021874074 0.091607079
0.010931652 0.022494111 0.094170697
0.066010922 0.023033965 0.094501875
0.10129879 0.02338399 0.095823027
0.13085137 0.023667505 0.094360344
0.16131221 0.023983411 0.09917549
0.25530422 0.024894405 0.09700188
0.3876633 0.021681651 0.095909834
0.40264261 0.026324816 0.094226055
-0.45767233 0.033567443 0.094221465
-0.2824071 -0.013149329 0.1041263
-0.35372302 0.016603272 0.10418654
-0.25909021 0.012815823 0.10738453
-0.054486737 0.014819764 0.10823853
-0.0048915595 0.015309316 0.10947171
0.0065112114 0.015416178 0.10823275
0.012799516 0.015469977 0.10617761
0.043331861 0.015748804 0.10090688
0.08814688 0.016190907 0.10195036
0.10941987 0.016391942 0.10008717
0.12375955 0.016532868 0.10027753
0.13070002 0.01662044 0.10554639
0.17971312 0.017101718 0.10608944
0.21818714 0.017471751 0.10444148
0.22854659 0.018007135 0.10779462
0.30834001 0.018345196 0.10228561
-0.18781514 0.020602459 0.10801885
-0.1078769 0.021383509 0.10784344
-0.089750655 0.02156223 0.10823445
-0.062503442 0.02180206 0.1011281
-0.0023721308 0.022404939 0.10509626
0.039582074 0.022797227 0.10029658
0.04317072 0.022857387 0.10698915
0.11231349 0.023528168 0.10555904
0.24549741 0.024828121 0.10490811
-0.44491136 0.03542152 0.1059273
-0.29705733 -0.041278251 0.11818382
-0.28131461 -0.044480067 0.11320299
-0.27483612 -0.037203569 0.1126297
-0.27345434 -0.025870485 0.11246195
-0.25096694 -0.028811736 0.11136306
-0.24886939 -0.016849302 0.11596081
-0.27896565 0.0095352698 0.11276044
-0.41565725 0.019156434 0.1123697
-0.39962453 0.014054939 0.1140137
-0.35966057 0.018938031 0.11230107
-0.32168385 0.012224399 0.11290659
-0.26624852 0.016323278 0.11641386
-0.14509636 0.013964188 0.11636591
-0.064374551 0.014758341 0.11766475
-0.02264978 0.015145952 0.11221884
-0.0097027123 0.015274695 0.11279293
0.0014113784 0.015389772 0.11450495
0.031483322 0.015683018 0.11429192
0.1137419 0.016478654 0.11197092
0.16707619 0.016998176 0.11144198
0.19402266 0.017259754 0.11093315
0.21109317 0.018843045 0.1106409
-0.17069745 0.020790461 0.11352114
-0.16097412 0.020877535 0.11138284
-0.15452583 0.020954229 0.1150239
-0.11441484 0.021357073 0.11785471
-0.086658157 0.021620594 0.11574307
-0.037791684 0.022084545 0.11202966
-0.026120901 0.022203783 0.11339402
0.055526942 0.023010328 0.11556275
0.11428296 0.02359643 0.11864222
-0.30589679 -0.010430584 0.12243003
-0.40913692 0.017499341 0.12635946
-0.38815507 0.011609775 0.12235723
-0.37849522 0.011728154 0.12874141
-0.335022 0.012146407 0.12690605
-0.31445104 0.012353866 0.12858628
-0.29024991 0.01257694 0.12495837
-0.023485124 0.015181436 0.12388873
0.036401466 0.01576234 0.12264255
0.07500878 0.016479533 0.12199505
-0.43071514 0.024513345 0.12887511
-0.16024448 0.02093935 0.1259817
-0.45517305 0.038825102 0.1247825
-0.2859928 -0.046368826 0.13864018
-0.2673071 -0.036693905 0.13733658
-0.27987641 -0.028771032 0.13434516
-0.289179 0.0079071987 0.13502678
-0.40604186 0.016721923 0.13329269
-0.31604114 0.019455185 0.13648757
-0.28228703 0.019768957 0.1321343
-0.27747858 0.016270384 0.1316053
-0.13976967 0.01794989 0.13989156
-0.10670434 0.014404241 0.13365187
-0.098317787 0.01447637 0.13101175
-0.087909833 0.014574513 0.13004263
-0.24337628 0.020175477 0.13908027
-0.16283178 0.020934217 0.13136546
-0.082929187 0.021720421 0.13265938
-0.045173854 0.021977114 0.13172263
-0.27023315 -0.038459908 0.1406976
-0.35843205 0.011987084 0.14548728
-0.34718895 0.012088449 0.14319633
-0.29858184 0.01255839 0.14175689
-0.1475292 0.018178836 0.14053729
-0.39656618 0.014270455 0.15224203
-0.35815531 0.012015527 0.15235585
-0.33740449 0.012221652 0.15321694
-0.32189381 0.012366532 0.15140383
