# .PCD v0.7 - Point Cloud Data file format
VERSION 0.7
FIELDS x y z
SIZE 4 4 4
TYPE F F F
COUNT 1 1 1
WIDTH 899
HEIGHT 1
VIEWPOINT 0 0 0 1 0 0 0
POINTS 899
DATA ascii
-0.32391834 0.053588074 -0.11927915
-0.31476253 0.050015114 -0.1100435
-0.20699272 0.058757123 -0.11159495
0.32284805 0.050881065 -0.11573812
-0.33130011 0.061006233 -0.1143672
-0.31597161 0.062992118 -0.11835751
-0.29798827 0.065391652 -0.119532
-0.25391293 0.069011599 -0.11952621
-0.24144807 0.067738295 -0.11201292
-0.16272101 0.061680399 -0.11426766
-0.15533671 0.065905645 -0.119532
-0.14695692 0.061649613 -0.11183722
-0.13897979 0.063060805 -0.11543116
-0.12605844 0.065268323 -0.119532
-0.11315306 0.063373923 -0.11267913
-0.10681006 0.064147979 -0.11436007
0.066434339 0.066136517 -0.11844417
0.080540225 0.065112174 -0.1156723
0.15346867 0.062515937 -0.11572716
0.17571506 0.062654503 -0.11947858
0.21304467 0.065382197 -0.11953199
0.22114632 0.060045943 -0.11942382
0.23877344 0.0673301 -0.119532
0.24670854 0.068229206 -0.11496254
0.26304051 0.067935042 -0.11798382
0.29862994 0.064157315 -0.119532
0.32272625 0.061235219 -0.11936137
-0.20526946 0.070123747 -0.11117187
-0.19585635 0.07136029 -0.11352015
-0.14575201 0.073593438 -0.11367632
-0.098573707 0.076569736 -0.11696483
-0.042333417 0.072876893 -0.119532
-0.022084983 0.076576859 -0.11322752
0.048990514 0.077998266 -0.11935925
0.083819255 0.077182829 -0.11831339
0.13679868 0.073864512 -0.11327156
0.14733288 0.072561741 -0.11042155
0.17374763 0.07274463 -0.11953199
0.39771724 -0.050151441 -0.10734163
-0.40292332 -0.039613362 -0.10604069
0.40422702 -0.037449583 -0.10975
-0.3370375 0.047257528 -0.10841747
-0.32506406 0.048155028 -0.10732292
-0.28801313 0.051124547 -0.10574685
-0.27795166 0.050836287 -0.10230087
-0.23371311 0.055923693 -0.1085989
-0.22736549 0.054070394 -0.10078351
-0.21769106 0.054781497 -0.10080584
-0.17595693 0.059468068 -0.1087412
-0.15824418 0.058026426 -0.10125427
-0.14933491 0.058723312 -0.10229574
-0.13024089 0.059600592 -0.10244459
-0.12474155 0.059353836 -0.10079919
0.12120239 0.059971951 -0.10236657
0.19459875 0.058300272 -0.10754398
0.23621975 0.053398404 -0.10069161
0.26532194 0.053219251 -0.10723972
0.2858479 0.052075639 -0.10842491
-0.28474835 0.061304204 -0.10093946
-0.12696676 0.060841992 -0.10615802
-0.10393564 0.060760852 -0.10248619
-0.041127417 0.063734666 -0.10907341
-0.029014295 0.063990191 -0.10934219
-0.019845987 0.062349726 -0.10334112
0.010384708 0.062043313 -0.1018391
0.049930159 0.062840723 -0.10648191
0.10590956 0.061581463 -0.10555137
0.21008897 0.067535758 -0.10362148
0.28809583 0.061953153 -0.1039525
-0.14865768 0.070187032 -0.10258953
-0.089208022 0.071824446 -0.1004498
-0.04715566 0.07333234 -0.10348384
-0.024354512 0.073675789 -0.10352477
-0.0047269398 0.074635454 -0.10580613
0.0085321395 0.075343326 -0.10838785
0.019061154 0.07306461 -0.10119666
0.055934623 0.074599147 -0.10820071
0.098375514 0.072160885 -0.10203876
0.10558727 0.07194759 -0.10218723
0.13499945 0.070493363 -0.10161021
0.40895903 -0.041167606 -0.091076821
-0.41464907 -0.038363747 -0.091333032
-0.40236908 -0.037190799 -0.092241615
-0.2995224 0.047950875 -0.0973389
0.28293031 0.04784371 -0.091862291
0.32483423 0.045585629 -0.098238975
-0.32478783 0.055976987 -0.094049461
-0.29782954 0.05906646 -0.095781155
-0.2769253 0.059374962 -0.09072613
-0.088739783 0.059943285 -0.098231584
0.069586754 0.058495857 -0.091026068
0.13974454 0.058414742 -0.099774018
0.17664608 0.055468686 -0.094202586
0.20804825 0.055056639 -0.099190161
-0.27316421 0.060538325 -0.094430417
-0.25291151 0.063294701 -0.099767424
-0.18126631 0.067173108 -0.096533738
-0.12428404 0.069489144 -0.095822006
-0.10409015 0.069155604 -0.090753958
-0.029202988 0.06040331 -0.096538879
0.11015236 0.069698483 -0.094122328
0.16102695 0.068056211 -0.096533164
0.19377464 0.065195389 -0.09056171
0.2564123 0.060853548 -0.090662695
0.011029679 0.07150279 -0.094442919
0.40501332 -0.046914458 -0.088309757
-0.40664473 -0.039070565 -0.086768329
0.40078467 -0.036745708 -0.086456202
-0.26378372 0.047249168 -0.083581604
-0.25733542 0.049111888 -0.089382574
0.3450565 0.04121856 -0.088678621
-0.31951404 0.053214267 -0.080313466
-0.19761506 0.053502001 -0.089816071
-0.16728139 0.05328162 -0.083375052
-0.12466431 0.056650601 -0.089670084
-0.10007637 0.057126086 -0.087177321
-0.071336597 0.057311468 -0.08618784
-0.049401984 0.05617122 -0.080003366
0.028654935 0.05665217 -0.080845341
0.088037111 0.055836357 -0.08104264
0.12896115 0.054491118 -0.081444196
0.24971537 0.059328981 -0.082284093
0.26531017 0.059290852 -0.086853288
-0.2327408 0.060774416 -0.083156265
-0.18729685 0.063175522 -0.080957867
-0.17169422 0.063982867 -0.081484854
0.00040790066 0.06844192 -0.081019096
0.10474093 0.068804383 -0.089407317
0.16535522 0.064300731 -0.081656665
0.17458186 0.064319193 -0.083413586
0.18301699 0.064560018 -0.085953645
0.19465061 0.063591883 -0.084033228
0.25500071 0.060149074 -0.08730115
-0.32982469 0.039062649 -0.071150675
0.32618797 0.039693795 -0.072546758
0.34549353 0.038563702 -0.077075966
-0.25719321 0.046758898 -0.079283834
-0.21361452 0.048783597 -0.073083639
0.21433949 0.048721954 -0.073035896
0.28646195 0.043825448 -0.074955821
-0.28409618 0.054485839 -0.070213199
-0.12404469 0.053162634 -0.073410273
-0.088613316 0.054132633 -0.072059244
-0.076573268 0.05527645 -0.077299625
-0.050283965 0.054558519 -0.071349613
0.015299663 0.056079771 -0.07682763
0.053066414 0.054269001 -0.07000237
0.060960006 0.054653279 -0.072701447
0.083463438 0.055130966 -0.077054389
0.10721061 0.053925797 -0.073564261
0.12104808 0.052846435 -0.070994616
0.13492149 0.052432973 -0.072032288
0.14273046 0.051904596 -0.071018487
0.16441782 0.052115276 -0.077272341
0.26181692 0.056707688 -0.07344874
0.29536125 0.053934347 -0.071663365
0.30718654 0.053491041 -0.075027242
-0.21422119 0.060576238 -0.075623013
-0.1774631 0.063180119 -0.078824431
-0.15212919 0.063620776 -0.075229436
-0.094503395 0.065627091 -0.073370092
-0.076641768 0.065874033 -0.073300578
0.014353125 0.067319065 -0.076220788
0.064555392 0.066378437 -0.075080216
0.17718473 0.062369633 -0.07437788
-0.3448258 0.036143798 -0.063685372
-0.32067192 0.039731838 -0.069721222
-0.30816531 0.039265443 -0.06027244
0.35365295 0.035364531 -0.064341247
-0.32451487 0.049070589 -0.060745195
-0.28303161 0.041518506 -0.061157461
-0.23793089 0.045366414 -0.064199835
0.20796068 0.047418363 -0.063496619
0.26062906 0.043195739 -0.061405592
0.34784946 0.047098048 -0.062973477
-0.30770674 0.050793286 -0.060793351
-0.28317493 0.052913513 -0.06136699
-0.23095888 0.05740153 -0.065068372
-0.070273958 0.052477375 -0.061663013
-0.066000029 0.052954338 -0.063907243
0.0054636709 0.053200122 -0.060468964
0.01892196 0.053008921 -0.060498174
0.041172896 0.053703163 -0.066005126
0.060601469 0.053700346 -0.067518659
0.10341178 0.05326467 -0.069095224
0.16898142 0.050410103 -0.069133155
0.2273217 0.058086809 -0.067337096
0.23252356 0.056394506 -0.060152896
0.24363793 0.055755675 -0.06116892
0.257779 0.056178752 -0.069008172
0.2614015 0.054377176 -0.060709957
0.30844212 0.051894743 -0.067125767
0.32262248 0.050712723 -0.068558425
-0.17781597 0.061325088 -0.068880767
-0.11795701 0.063295797 -0.065412998
-0.085575335 0.063719913 -0.062352136
-0.072376721 0.064284094 -0.064365342
-0.05694674 0.064654768 -0.065156415
0.022039706 0.064920224 -0.06384711
0.075854585 0.064488314 -0.065745071
0.1882319 0.060364556 -0.066146217
-0.36534595 0.036860507 -0.05337419
-0.3438412 0.034712888 -0.053383507
-0.31820083 0.03738318 -0.053776622
0.29875246 0.039902769 -0.05785406
0.32446682 0.036582526 -0.05255942
0.33821839 0.035766803 -0.057019938
0.37194505 0.033328079 -0.050048895
-0.28635281 0.040743206 -0.057379797
-0.26099908 0.041866321 -0.051888116
-0.2114189 0.045713637 -0.053688291
-0.12882321 0.04939862 -0.051627494
0.15459381 0.048990879 -0.057083897
0.18208498 0.047491118 -0.054801051
0.19987795 0.047287047 -0.059256792
0.22685188 0.044497289 -0.052985407
0.25373995 0.042286195 -0.051062331
0.26417363 0.042056751 -0.055090293
0.33259052 0.04704836 -0.051800158
-0.22922343 0.055583362 -0.052166551
-0.18784812 0.058933519 -0.057438433
-0.17307684 0.058841649 -0.051833972
-0.097943783 0.0517634 -0.059770152
-0.043497484 0.051300526 -0.05021375
0.00037838594 0.052799009 -0.056852072
0.01566514 0.052245699 -0.054330796
0.086342096 0.051513787 -0.056582998
0.10017568 0.051413532 -0.057446953
0.18641445 0.058028501 -0.050075542
0.21293293 0.056521002 -0.050279811
0.23252188 0.055382878 -0.052468657
-0.14311752 0.060551099 -0.054893643
-0.13412963 0.060776718 -0.053627331
-0.093804933 0.061978795 -0.05076452
-0.066237286 0.063073032 -0.056046385
-0.043161485 0.063435495 -0.05625125
-0.012251525 0.063223094 -0.051211517
0.035324637 0.063728742 -0.057614673
0.068144634 0.063332908 -0.058235601
0.11584301 0.061748251 -0.054946568
0.12743112 0.061779708 -0.059033372
0.15957969 0.060019303 -0.056313351
-0.43340191 0.029472303 -0.041139998
-0.41748112 0.026796531 -0.043184619
0.41409418 0.029737474 -0.043619588
0.43306699 0.024505382 -0.04118301
-0.38004327 0.033641212 -0.048238002
-0.35405689 0.032669455 -0.045807827
0.42749959 0.032610577 -0.04189834
-0.26600784 0.040133029 -0.041491967
-0.25960386 0.040745594 -0.042602777
-0.23102675 0.043014858 -0.044033334
-0.21795914 0.044409007 -0.047395326
-0.17411424 0.046364635 -0.043581773
-0.13854116 0.047907282 -0.043505579
-0.097926833 0.049408648 -0.041832536
0.094926059 0.04978874 -0.04439456
0.14484337 0.048485138 -0.049997456
0.18691865 0.04637377 -0.047903821
0.2069751 0.044665672 -0.043269187
0.21502365 0.04488983 -0.049424138
0.22564474 0.043097384 -0.041683145
0.32580644 0.046377778 -0.041470479
0.35914877 0.042822879 -0.040294901
0.36955115 0.041791312 -0.040565614
0.37852377 0.041743156 -0.04714914
-0.24595344 0.053217463 -0.043449402
-0.21756694 0.055461466 -0.044793829
-0.18262918 0.057043504 -0.041327346
-0.16863912 0.057585098 -0.040801466
-0.091318972 0.050096542 -0.046339028
-0.019768236 0.05100539 -0.045340039
0.089655556 0.050587434 -0.049892772
0.092631876 0.050001651 -0.045761835
0.13372983 0.059058897 -0.040420689
0.14790472 0.059410326 -0.047804721
0.25452751 0.052245472 -0.040810067
0.26129264 0.051695041 -0.040358122
0.28565606 0.050592534 -0.04547058
-0.074019752 0.061115563 -0.041999344
-0.042801645 0.061882045 -0.044382397
-0.023509922 0.062348638 -0.045800842
0.0048128311 0.062136602 -0.042115204
0.035540566 0.062392678 -0.047463421
0.048872601 0.06132713 -0.040827118
0.055763055 0.062246613 -0.048589475
-0.4639945 0.029591013 -0.032519061
-0.4599919 0.029384892 -0.037726045
-0.41015163 0.02582806 -0.039929058
-0.40527105 0.026444968 -0.03960979
-0.38040572 0.028876014 -0.035477735
0.37385851 0.029261777 -0.031890333
0.44466174 0.029940419 -0.039694183
-0.45500427 0.030804329 -0.035846367
-0.28187338 0.038328622 -0.033986375
0.27651665 0.038953602 -0.036970943
0.32763675 0.034109384 -0.033502035
0.34375083 0.03258045 -0.034982249
0.42004138 0.035539079 -0.03459534
-0.21120009 0.043800604 -0.038123872
-0.19372717 0.044636089 -0.034624413
-0.1754837 0.045134436 -0.030833576
0.065068662 0.049436077 -0.037070487
0.13745092 0.047445025 -0.039113753
0.15885204 0.046525896 -0.039303638
0.18804172 0.044594038 -0.030931462
0.27619141 0.049980354 -0.032350153
-0.25494009 0.051659249 -0.03402235
-0.24371342 0.052494138 -0.034244046
-0.22985958 0.053710543 -0.036884245
-0.20453236 0.055483334 -0.03597609
-0.11675644 0.059444778 -0.035920046
0.1049913 0.059674636 -0.032311138
0.14555094 0.057856858 -0.031702649
0.15451425 0.057602793 -0.033450197
-0.10529989 0.060081489 -0.037660882
-0.096171163 0.060515542 -0.039537903
-0.074237481 0.06019 -0.031327717
0.043079522 0.060676843 -0.031765778
0.081109539 0.060257882 -0.03346831
0.464681 0.017446429 -0.024686867
-0.46298769 0.029136235 -0.025099631
-0.45766705 0.029909141 -0.026018176
-0.38873649 0.027019233 -0.022721006
0.41591758 0.023739634 -0.023126036
0.42116404 0.023544997 -0.02938826
0.46566099 0.028901149 -0.026583178
-0.40826231 0.036670268 -0.029301638
-0.33810157 0.032723367 -0.029480092
-0.32922876 0.033609528 -0.029227652
-0.31027347 0.034923233 -0.021345295
-0.2618089 0.039277498 -0.027478905
0.25086865 0.03975416 -0.023413833
0.26485321 0.038514309 -0.020599436
0.32820705 0.033048861 -0.020800082
0.42694354 0.033769198 -0.023709469
-0.3669782 0.040811747 -0.0249414
-0.19927758 0.043613344 -0.024715517
-0.12980437 0.046341944 -0.020826794
-0.075306684 0.048614331 -0.028494427
-0.0089448234 0.049429744 -0.026591014
0.0053324597 0.049480289 -0.026566904
0.14705427 0.045702439 -0.02227021
0.20274851 0.043260463 -0.023443323
0.21350618 0.04234156 -0.021721119
0.22950152 0.041412368 -0.024713565
0.23908781 0.040506504 -0.022073448
0.34103242 0.043825679 -0.029558273
-0.16370061 0.056667171 -0.026641868
-0.12920739 0.058289669 -0.028133497
-0.11742006 0.058697991 -0.026783723
-0.073992923 0.059522718 -0.022782123
-0.05993282 0.05956424 -0.020706302
0.084078945 0.059525546 -0.024688888
0.11407466 0.058919936 -0.027750481
0.17181967 0.056328058 -0.026834715
0.23852539 0.052381329 -0.028005961
-0.0018809406 0.061027355 -0.028596189
-0.44791701 0.019053014 -0.010973753
0.44841295 0.018987104 -0.010948011
0.46015376 0.017619681 -0.017692853
-0.3978667 0.025758963 -0.015510657
-0.37611598 0.027949672 -0.01416268
0.37616026 0.027866609 -0.011170569
0.43442154 0.020887518 -0.013196228
0.45464015 0.029583232 -0.010233203
-0.34774783 0.030904148 -0.016355956
-0.28954691 0.03647989 -0.012406917
-0.25244537 0.039237477 -0.014545809
0.34265119 0.031328611 -0.012698756
0.39457375 0.037534639 -0.017002879
0.43919265 0.031705596 -0.013632525
-0.28230995 0.048383389 -0.012763303
-0.23217049 0.040785268 -0.017276112
-0.17234507 0.044385128 -0.01829372
-0.15137245 0.045285687 -0.017725855
-0.14746442 0.045401629 -0.015634678
-0.0986849 0.0475595 -0.017797628
-0.057940174 0.048047733 -0.013804405
0.091324672 0.047616746 -0.015891425
0.11270522 0.04685536 -0.013209917
0.19949752 0.043192614 -0.018354453
0.21325693 0.042087156 -0.014397196
0.24193902 0.040112447 -0.01874779
0.33695483 0.04343386 -0.017556215
-0.25181034 0.050535008 -0.010119887
-0.18335736 0.055117466 -0.01312718
-0.17931047 0.055266179 -0.012060683
-0.16165671 0.056152552 -0.016497564
-0.084819287 0.058900535 -0.010205551
-0.074111797 0.059245825 -0.017463017
-0.064086162 0.0592512 -0.012087183
0.078047588 0.059034891 -0.011578936
0.1345171 0.057191022 -0.010918778
0.14115256 0.057004735 -0.014868909
0.19429597 0.054590441 -0.011226816
0.24107258 0.051517732 -0.017784037
0.26176286 0.050000787 -0.017389357
-0.47075379 0.015790183 -0.00119407
0.4747549 0.015403742 -0.0065124515
-0.45491835 0.029432818 -0.00592442
-0.42692 0.021733329 -0.0078294808
-0.38643432 0.026551969 -0.0010561758
-0.3606613 0.029352941 -0.0074983411
-0.35347533 0.029960437 -0.0026807433
0.42605948 0.021781495 -0.0053579756
-0.30050743 0.035332836 -0.0012765332
0.24457133 0.039665088 -0.0089747831
0.25494361 0.03877655 -0.0038823553
0.26217127 0.038368151 -0.0083869835
0.33904022 0.031501409 -0.005228423
0.35112634 0.030350873 -0.0084207514
0.37590414 0.039165802 -0.0064980434
0.4305225 0.032721881 -0.0088996645
-0.36456868 0.040260129 -0.0040861187
-0.35876167 0.0409404 -0.0074068317
-0.3435989 0.042312261 -0.00068407418
-0.3104527 0.04569586 -0.00062995253
-0.29349649 0.047460645 -0.0086349398
-0.27590945 0.048618231 -0.0039388514
-0.26229566 0.049606197 -0.0038093568
-0.19497845 0.042991199 -0.002752668
-0.17024451 0.044121508 -0.0046958025
-0.084393516 0.04744637 -0.0055096569
-0.071319088 0.047625218 -0.0050776894
-0.013317128 0.048361223 -0.00096776604
0.031839624 0.048172012 -0.004034054
0.21920826 0.041367132 -0.0034433422
0.23554924 0.040165037 -0.002976048
0.25865853 0.049933512 -0.006194164
0.30989659 0.045962907 -0.008633188
-0.25428361 0.050153524 -0.0024301852
-0.24959947 0.050612722 -0.0069399825
-0.13806555 0.056939639 -0.0072262865
-0.11672108 0.057735547 -0.0020420616
-0.058798734 0.059265565 -0.0096932976
-0.010800441 0.059873592 -0.0062542697
0.051862653 0.05925541 -0.0054452028
0.076920532 0.05894994 -0.007699213
0.10063463 0.058464888 -0.0030884037
0.12227362 0.057682581 -0.009284446
0.13759638 0.056917977 -0.0056144488
0.21149901 0.053363308 -0.0060274871
-0.47553 0.017512349 0.0041448525
0.47553 0.018306881 0.0050106407
-0.47553 0.020051427 0.0061720219
-0.42211449 0.022211587 0.0021439404
-0.41203105 0.023723336 0.0091605876
-0.38575387 0.026779603 0.0072487793
-0.36426595 0.028969644 0.0070860558
0.35873237 0.029595228 0.0093910713
0.41519094 0.023119206 0.0020110633
-0.43655717 0.031841598 0.0058069485
-0.32565838 0.032777593 0.0019482641
-0.30025533 0.035569832 0.0094976798
-0.29585811 0.03587009 0.006830866
-0.24787593 0.039240353 0.0021067499
0.28234428 0.036870711 0.0074646161
0.30647388 0.034800939 0.0043948754
-0.36240783 0.04046518 0.0036582726
-0.34536657 0.04222472 0.0043897922
-0.28142831 0.048337124 0.0087144645
-0.14266393 0.04527374 0.0028921498
-0.12737942 0.0460307 0.0063300859
-0.092968844 0.04740233 0.008764714
0.037804734 0.047978014 7.0938608e-05
0.071327634 0.047594897 0.0040887874
0.10644203 0.04682485 0.0017534292
0.13250914 0.045666292 0.000954694
0.16192788 0.044390548 0.0012689292
0.19238847 0.043106262 0.0029966808
0.22058102 0.041327655 0.0059211445
0.25632545 0.04997471 0.001446659
0.28351545 0.04814516 0.0071885278
0.30450642 0.046358511 0.0029054375
-0.16502015 0.055609684 0.0015137475
-0.14181341 0.056818306 0.0090080267
-0.12798737 0.057299808 0.0043472904
0.026248293 0.059621103 0.0053542075
0.035871755 0.059388861 0.0018216185
0.10457763 0.05826617 0.0022357325
0.13257357 0.057144422 0.0060590785
0.18735246 0.054706119 0.00422857
0.22374898 0.052464627 0.0059407474
0.2536813 0.050337337 0.0079412684
-0.47402179 0.015665591 0.012958115
-0.44624501 0.019429211 0.017069522
0.45651957 0.017960452 0.01264057
-0.41336837 0.02373415 0.016253199
-0.36566272 0.029090662 0.017130356
0.35848892 0.029870521 0.018931545
0.42167392 0.022705883 0.018709844
0.43215328 0.021332648 0.01893045
0.46321297 0.028569385 0.014748031
-0.40193948 0.036641672 0.015093817
-0.33658597 0.031919919 0.011795709
-0.32048902 0.033712257 0.017455505
0.28127813 0.037044622 0.0111449
0.30596405 0.035120495 0.014593619
-0.3623392 0.040655434 0.010637539
-0.35713118 0.041424893 0.019692861
-0.33044362 0.04407867 0.016953588
-0.27668101 0.04885485 0.015279995
-0.22302221 0.041473698 0.018294439
-0.11026432 0.04688983 0.010620235
-0.10827146 0.04702124 0.012319851
-0.042114053 0.048288163 0.014364852
0.013319323 0.048660077 0.012573416
0.086189702 0.047706094 0.016619775
0.20749536 0.042558521 0.016544763
0.27427542 0.04902973 0.015269046
0.28197858 0.048486378 0.015939321
0.35777974 0.041350186 0.019369947
-0.24466273 0.051301762 0.019685436
-0.19049674 0.054789618 0.01267044
-0.086060546 0.059094895 0.018504133
-0.062352758 0.059298791 0.013110803
-0.026810531 0.059824817 0.013461998
-0.012612768 0.059991479 0.01194014
0.054929331 0.059483379 0.016044587
0.14030191 0.056939159 0.01110753
0.1870241 0.055057846 0.017133808
0.23734918 0.051842328 0.019991416
0.24336012 0.051381931 0.019125186
-0.010183768 0.060088761 0.014311056
-0.0069332072 0.060123555 0.013834162
-0.41291618 0.024631264 0.029570609
-0.40205309 0.025699187 0.025000475
0.38269529 0.027862331 0.025755178
-0.40342617 0.037033647 0.026021192
-0.39905795 0.037463736 0.024196126
-0.30879036 0.035447896 0.026241858
0.27609277 0.037835017 0.022533931
-0.29010227 0.048511803 0.026723756
-0.13421384 0.046398096 0.024157893
-0.10274919 0.047527052 0.02104727
-0.073220581 0.048403434 0.025588233
-0.031901412 0.048600893 0.020448998
0.036572244 0.04923401 0.029385529
0.070169002 0.048571818 0.027171956
0.090069361 0.048485324 0.029754017
0.17080393 0.044920094 0.025673293
0.2835325 0.048599508 0.021756582
0.36179671 0.04168614 0.029484548
-0.21602635 0.054159425 0.029950377
-0.18076748 0.056131996 0.029479392
-0.057279449 0.059711777 0.022262465
0.086402647 0.059259623 0.021897461
0.10859893 0.059187226 0.028277947
0.25201908 0.050976343 0.022800989
-0.009936058 0.060957771 0.029369529
0.0059760851 0.060416803 0.021739043
0.024518829 0.06065771 0.028247807
-0.47347257 0.028459145 0.034717392
-0.44581127 0.021021504 0.038650554
0.40575847 0.026353147 0.0394261
0.44346035 0.02104526 0.035040446
0.47277552 0.028580111 0.034513816
-0.43497464 0.033587307 0.034927942
-0.39136267 0.039379597 0.038514394
-0.33787647 0.033111848 0.034279827
-0.32008836 0.035150524 0.037095092
-0.28118938 0.038830463 0.039896395
-0.25563243 0.039924957 0.03015748
0.38929227 0.039469253 0.036971536
0.40054199 0.037737902 0.030122245
0.43656409 0.033634678 0.038172271
0.44605717 0.032212671 0.035987545
0.45376778 0.031059533 0.034236617
-0.33872342 0.044687156 0.037655018
-0.23131457 0.042187713 0.036408003
-0.19503315 0.044695713 0.036275335
-0.099664018 0.048789129 0.035445813
-0.0062740883 0.049902834 0.032293689
0.0598974 0.04896272 0.030250005
0.071702555 0.04888209 0.031408213
0.20419639 0.04394269 0.033616729
0.24735129 0.040993255 0.036068939
0.25772887 0.040096521 0.034276888
0.30502167 0.047711622 0.032364253
0.31287819 0.047132887 0.035200693
0.36530533 0.041742824 0.034742672
0.37211198 0.041434001 0.039636686
-0.27312666 0.050420776 0.035279233
-0.26340365 0.051134437 0.035351668
-0.25961941 0.051502272 0.0365251
-0.24416545 0.052191146 0.030976981
-0.23598661 0.053193405 0.036148239
-0.16923535 0.05716344 0.036205947
0.0041516814 0.050279908 0.036707819
0.14123619 0.058426857 0.036731116
0.15215355 0.057843689 0.035373017
0.26998845 0.050641954 0.035186112
0.27662474 0.050327666 0.037333749
-0.037458934 0.0611091 0.036398619
0.0070147589 0.061249577 0.032547876
0.014917238 0.061125208 0.032427475
0.046366084 0.060591135 0.031449169
0.057473511 0.060983248 0.03850022
-0.4288151 0.023412308 0.04058307
-0.41380131 0.02580728 0.042583376
-0.40538785 0.028578561 0.044904083
-0.41718841 0.034520011 0.042408127
-0.40303856 0.038603194 0.04333245
-0.39392442 0.039878286 0.04509709
-0.3821744 0.036766391 0.048051246
-0.37526205 0.038181525 0.049358428
-0.30839133 0.037103001 0.044230342
0.27821031 0.039540857 0.043910261
0.32003206 0.036170945 0.046174992
0.35990167 0.031970799 0.045203794
0.42986864 0.033804506 0.041760717
-0.32138714 0.04700879 0.042998172
-0.24059463 0.041804772 0.04012832
-0.18695375 0.046447091 0.048640393
-0.12936696 0.049079835 0.049548056
0.11541124 0.04899995 0.044306271
0.17824519 0.045760352 0.040499486
0.2198063 0.044298101 0.047741044
0.22233245 0.043272734 0.041349739
0.23994455 0.042163759 0.042667739
0.29542315 0.049362037 0.04169305
0.35742682 0.043004125 0.040530175
0.38533673 0.040168289 0.040648729
-0.17744903 0.057292435 0.041667677
-0.13595232 0.059067946 0.04139474
-0.073913045 0.050753631 0.049584549
-0.048588317 0.050509788 0.044924408
-0.021035239 0.050976586 0.045430996
0.101601 0.050213862 0.048957281
0.19136237 0.057043795 0.044395618
0.23033416 0.055049106 0.048890643
-0.033122256 0.061939918 0.043916833
0.057996005 0.062370043 0.049943492
0.33275986 0.03630963 0.05707534
0.34880397 0.034494054 0.055734932
-0.31125546 0.049886093 0.056957651
-0.2794272 0.041308139 0.058006793
-0.2595126 0.041764319 0.050457612
-0.24940343 0.042838551 0.053025868
-0.15497278 0.04820177 0.051371843
0.21057765 0.046458043 0.059044387
0.26747379 0.042033594 0.05690597
-0.30259594 0.050440405 0.05445791
-0.24563338 0.054925203 0.056410063
-0.14749505 0.059716582 0.050165854
-0.0022151121 0.051850952 0.050001189
0.022791499 0.052186143 0.054832317
0.047795027 0.051617406 0.053268827
0.066821337 0.051105559 0.051477123
0.23043287 0.05646592 0.059705466
0.27395266 0.052527707 0.053862505
-0.15855792 0.060278535 0.058113053
-0.10785101 0.062493231 0.058127645
-0.024570024 0.062962219 0.050753471
0.0066778064 0.064409927 0.059795842
0.040239684 0.063495681 0.056550421
0.12703599 0.061710961 0.058545373
0.14647304 0.060260326 0.053962156
0.16363081 0.060229257 0.059422743
-0.34857005 0.036160711 0.066001058
-0.33817053 0.04820222 0.063758746
-0.28599462 0.042257503 0.0664763
-0.22272521 0.047490153 0.069850951
-0.20790194 0.047907278 0.066277914
-0.19267759 0.048787583 0.066119835
-0.18895708 0.048018388 0.061085138
0.15019633 0.049937431 0.062314373
0.24871959 0.044481818 0.063832067
0.2804437 0.042345162 0.064767472
-0.29639685 0.053051475 0.067472875
-0.22902805 0.058033377 0.067885779
-0.13196583 0.050394148 0.060413994
-0.12350396 0.051157862 0.062614448
-0.10712349 0.052208602 0.064429648
-0.094103865 0.053388789 0.06863372
-0.083134361 0.053031448 0.065837853
-0.077585936 0.053723548 0.069145039
-0.04297962 0.053264365 0.063938834
-0.039949223 0.053431816 0.064606227
0.015016067 0.053520259 0.063123815
0.024816845 0.053273037 0.062557399
0.031452414 0.053791448 0.065884419
0.048541248 0.052870326 0.062245376
0.096027352 0.05357546 0.069794953
0.13319355 0.051285345 0.065588892
0.16103177 0.050545186 0.068154782
0.29309195 0.051971599 0.060223345
0.31112078 0.052086361 0.069795996
-0.15401515 0.06078162 0.06043284
-0.13535403 0.062973455 0.067940459
-0.06955108 0.064455703 0.065237768
0.011219847 0.064916626 0.063142635
0.16179878 0.060754459 0.062185168
0.19023728 0.060531124 0.067686185
0.32860637 0.039375845 0.07233122
0.34520999 0.037302602 0.070298202
-0.26802403 0.045270812 0.075676277
-0.24161732 0.046223558 0.070439234
-0.22713059 0.048046954 0.074585855
-0.20638262 0.049700357 0.07535544
0.21522561 0.048862081 0.074306704
0.22626433 0.048702974 0.077785872
0.27546927 0.045428351 0.07945288
-0.28263861 0.056169976 0.078894772
-0.25008139 0.057159461 0.071442306
-0.24743512 0.058907866 0.079836994
-0.2335353 0.059309211 0.076541401
-0.13689837 0.052008223 0.070369579
-0.052279536 0.055731349 0.078016415
-0.032761492 0.055813916 0.076928303
-0.01064634 0.056482721 0.078807801
0.022850057 0.055749577 0.075801939
0.04640235 0.055055648 0.073900081
0.094075851 0.054843128 0.076498464
0.11338124 0.053292032 0.071761124
0.31980085 0.052928716 0.079100981
-0.19116348 0.06116426 0.07132706
-0.18856494 0.062024996 0.075366572
-0.090051621 0.065307014 0.071455233
-0.025313798 0.066966519 0.075341418
-0.014855345 0.067422152 0.076984309
0.017664701 0.067584872 0.078086399
0.035782002 0.067359492 0.078291528
0.059353858 0.066475481 0.075362921
0.12781596 0.06450168 0.074421801
0.14964437 0.063392632 0.073576681
0.17845497 0.061672047 0.071073532
0.19635245 0.061680578 0.075342149
-0.41574085 -0.043648805 0.088913888
-0.40111834 -0.047447149 0.086455703
-0.39862269 -0.040862262 0.086455703
-0.41409159 -0.037626918 0.08628305
-0.34798187 0.043960869 0.085090823
-0.31122804 0.043969385 0.085923254
-0.2941536 0.045898341 0.087332591
-0.28229204 0.046428405 0.085943297
0.32962567 0.040799193 0.080554128
-0.3286958 0.054355852 0.089139931
-0.31209141 0.055337623 0.086174183
-0.29826361 0.057377543 0.089046001
-0.22061053 0.050541848 0.084366575
-0.21858503 0.050474212 0.083470657
-0.20018265 0.052878704 0.087902531
-0.16766427 0.052905679 0.082043335
-0.095310979 0.057418887 0.088257939
-0.073731735 0.056633659 0.083670169
-0.057365522 0.056656994 0.08277449
0.016559497 0.056956127 0.081547201
0.037714638 0.058291137 0.088404134
0.077458158 0.056714751 0.084234618
0.08519578 0.05659382 0.084199309
0.1045769 0.056751959 0.086602852
0.12527189 0.05506764 0.083344318
0.15097572 0.054038875 0.083732255
0.17693509 0.053274449 0.085269392
0.20973668 0.050953921 0.082784779
0.23699161 0.050613686 0.089633547
0.2417524 0.059967335 0.082694709
0.26708487 0.058822922 0.085609853
0.29528004 0.05674376 0.085501648
0.30113584 0.056433745 0.086079843
0.34360629 0.051708192 0.084466822
-0.18482593 0.065261781 0.089376733
-0.13039277 0.066970348 0.086594053
-0.036457583 0.069199502 0.086536177
-0.0033939159 0.068994835 0.083671853
0.038382083 0.068889618 0.08535926
0.085644938 0.067838661 0.083839163
0.13852239 0.067425206 0.089971729
0.14960769 0.06548351 0.083890244
0.24032223 0.060045168 0.082585201
-0.41235328 -0.048725568 0.0923618
-0.40714657 -0.046487525 0.09084633
-0.39892077 -0.047032051 0.092158303
0.39728487 -0.044883955 0.092158303
-0.41288227 -0.035611812 0.090219691
-0.39822498 -0.035168499 0.092139378
-0.3084923 0.046977218 0.097254261
0.29473463 0.04879339 0.099562049
0.31051594 0.04520651 0.090759009
0.32102609 0.045958918 0.098341137
-0.3443782 0.050477214 0.092890516
-0.31414813 0.05723406 0.094924644
-0.28692859 0.059989698 0.096487038
-0.27824721 0.059660003 0.092481032
-0.22276263 0.051765628 0.090115309
-0.21400517 0.052461848 0.090358622
-0.20967855 0.054848939 0.098986678
-0.19028965 0.055625528 0.097507305
-0.18904418 0.055862326 0.098268315
-0.10788105 0.058321316 0.093750894
-0.089169703 0.059845641 0.098017022
-0.057682835 0.058632292 0.091040641
-0.019076694 0.059664734 0.09300793
0.03775667 0.059851933 0.094922766
0.11127166 0.058814816 0.09642677
0.20818301 0.053619772 0.093414739
0.21541488 0.054507747 0.099305287
0.23713341 0.05133247 0.092669703
0.26305917 0.05063751 0.097636543
0.31471089 0.057104673 0.094625935
-0.2539691 0.061620995 0.093284771
-0.23595671 0.064359806 0.099228129
-0.22260064 0.063133694 0.090072364
-0.20802975 0.066123284 0.098102912
-0.077769905 0.060192049 0.098771341
0.019514982 0.060856458 0.098009512
0.02080841 0.06055937 0.096847668
0.061298929 0.060447767 0.098839194
0.17119798 0.067171402 0.094861001
0.25490466 0.060908955 0.090603091
0.28538588 0.060122609 0.096572667
0.39933485 -0.035959944 0.109954
0.40486139 -0.032385848 0.10586276
0.41072404 -0.033887379 0.10502037
-0.32193279 0.058012147 0.10123538
-0.28247759 0.052126136 0.10793355
-0.15960011 0.058163442 0.10208438
-0.14665516 0.059818946 0.10577083
0.13278723 0.059551366 0.10282066
0.15864891 0.059511688 0.10650143
0.16728663 0.058319792 0.10374674
0.27601963 0.051556766 0.10442458
0.33711883 0.057172585 0.10859737
-0.24378169 0.06649185 0.10854607
-0.20747195 0.068449996 0.10623069
-0.13671888 0.060691699 0.10725521
-0.097946793 0.061996274 0.10615321
-0.074541479 0.061442681 0.10312925
-0.03023988 0.062811926 0.10558277
0.013564514 0.064062491 0.10899347
0.083350644 0.062921114 0.10856419
0.095467538 0.062550806 0.1079073
0.10093503 0.061962157 0.10627113
0.12537879 0.061342217 0.10778131
0.22261553 0.066396937 0.10302353
0.23329261 0.064793907 0.10022803
0.26586714 0.062881179 0.10178812
0.29021424 0.062228125 0.10556795
-0.15124834 0.071637109 0.10804015
-0.12313315 0.071936861 0.10490607
-0.10031935 0.073054999 0.1053261
-0.072403081 0.073226452 0.10453347
-0.050543517 0.07388857 0.10569855
-0.040381625 0.072790921 0.10148583
-0.023941863 0.074719995 0.10720338
0.054522272 0.072756849 0.10206574
0.070165545 0.073542476 0.10549241
0.14923851 0.070405573 0.10358079
-0.3348226 0.055338431 0.11320936
-0.32299691 0.050046548 0.11314651
-0.29279172 0.053519163 0.11517034
-0.25020182 0.0563315 0.11419442
-0.22814167 0.059111934 0.11815677
0.20120576 0.059030481 0.1112617
0.21254078 0.059829902 0.11674556
0.26711601 0.0539538 0.11032656
0.27319664 0.054125957 0.11240215
0.30982941 0.057160962 0.11969102
0.31547913 0.059936259 0.11968693
-0.29666582 0.06507799 0.11677163
-0.2145209 0.062723979 0.119698
-0.19367455 0.065646112 0.119698
-0.16780023 0.06410417 0.119698
-0.15658648 0.064868227 0.119698
-0.13222143 0.069091752 0.119698
-0.12372627 0.066441342 0.119698
-0.097244769 0.06597133 0.11956661
-0.082609616 0.065882213 0.11854538
-0.0083745141 0.068468846 0.119698
0.020831518 0.067424424 0.119698
0.044695098 0.064810559 0.11305527
0.057472818 0.066618986 0.119698
0.071818456 0.065284364 0.1159921
0.097645074 0.063461296 0.11109465
0.10548437 0.069494605 0.119698
0.1262642 0.064175218 0.11748857
0.13113618 0.0638154 0.11699104
0.14613463 0.061867297 0.11261821
0.22647353 0.066023417 0.119698
0.29300302 0.061370313 0.119698
0.31410149 0.061532579 0.11968793
0.3301287 0.062159959 0.11801642
-0.23037466 0.070181884 0.11770471
-0.19539215 0.072382107 0.11707245
-0.13538919 0.075107843 0.11743325
-0.11961242 0.075071134 0.11498126
-0.05493306 0.077651918 0.119698
-0.023934036 0.07570067 0.119698
-0.0086566349 0.078549311 0.119698
0.044495661 0.074565262 0.119698
0.055168748 0.076657787 0.11585338
0.067512847 0.077212334 0.11777734
0.086737931 0.075703546 0.11361847
0.09934289 0.075006247 0.11187935
0.11188151 0.070722863 0.119698
0.1785918 0.071602769 0.11195856
0.21845286 0.070434205 0.1156261
