# .PCD v0.7 - Point Cloud Data file format
VERSION 0.7
FIELDS x y z
SIZE 4 4 4
TYPE F F F
COUNT 1 1 1
WIDTH 911
HEIGHT 1
VIEWPOINT 0 0 0 1 0 0 0
POINTS 911
DATA ascii
-0.28222463 -0.071270265 -0.11269766
0.27602959 -0.075767368 -0.11409213
0.28753152 -0.078386754 -0.11124045
-0.29277748 -0.066988975 -0.117317
0.30661383 -0.062836349 -0.117317
-0.29926163 -0.050541282 -0.11076701
0.3060196 -0.051057324 -0.117317
-0.32312667 -0.046390232 -0.117317
-0.26909292 -0.043077912 -0.11352616
0.25585628 -0.043995038 -0.11656538
0.3166908 -0.043359116 -0.11731701
-0.30260554 -0.036376555 -0.11295
0.28304654 -0.033581384 -0.110767
0.29559645 -0.023564527 -0.11731699
-0.30114806 -0.01198186 -0.11731701
0.27304149 -0.0088002682 -0.11488792
-0.28814989 -0.075173795 -0.1059854
0.29270241 -0.077585317 -0.10420684
-0.30169779 -0.053856265 -0.10734164
-0.30078936 -0.043415785 -0.108555
0.2822887 -0.047105968 -0.108555
-0.32655281 -0.020912038 -0.10477206
-0.32202259 -0.014428676 -0.10955165
-0.30885422 -0.0056024319 -0.10758814
0.2902627 -0.0047083283 -0.10551586
-0.24399827 0.033300601 -0.10295484
-0.22269952 0.033300601 -0.10362391
-0.19138406 0.037114318 -0.108555
-0.096561693 0.034602735 -0.10653123
-0.035950556 0.038582925 -0.108555
0.0081332643 0.033300601 -0.10177346
0.092884406 0.033300601 -0.10633726
0.1019915 0.034727313 -0.108555
0.14330317 0.035874218 -0.108555
0.19044943 0.033300601 -0.10359426
0.22203219 0.035477035 -0.10488248
0.27742201 0.033919729 -0.10289688
0.3003217 0.03529036 -0.104374
-0.34611204 0.045727946 -0.10191651
-0.3312543 0.04867579 -0.10409733
-0.17125593 0.040607177 -0.108555
-0.14651041 0.0485579 -0.108555
0.083809808 0.048598871 -0.108555
0.1331998 0.040171795 -0.108555
0.16650537 0.045788795 -0.108555
0.23418501 0.049223255 -0.10855499
0.26438972 0.04000093 -0.108555
0.28504831 0.04164397 -0.10804527
-0.33372313 0.052198336 -0.10373481
-0.30527651 0.052056909 -0.10687554
-0.24759746 0.058546577 -0.108555
-0.22945784 0.050121892 -0.108555
-0.21129127 0.055405289 -0.10855499
-0.052905448 0.057264604 -0.108555
-0.038470544 0.05638282 -0.108555
0.019069567 0.051835973 -0.108555
0.1529077 0.059433244 -0.108555
0.22721314 0.052706774 -0.10855499
0.24750422 0.052321892 -0.108555
0.25767624 0.050211135 -0.108555
0.26932955 0.0521672 -0.10849114
0.28326023 0.054615267 -0.10809598
-0.32500502 0.063265957 -0.10394001
-0.30414766 0.062235076 -0.10571921
-0.29382282 0.061724793 -0.10633092
-0.2418917 0.0604029 -0.10059455
-0.22706889 0.0604029 -0.10273053
-0.20681161 0.060402896 -0.10729148
-0.16235474 0.0604029 -0.10450619
-0.040198103 0.0604029 -0.10621312
-0.035125069 0.0604029 -0.10703957
0.25203317 0.0604029 -0.10136575
0.29949072 0.062004901 -0.10048573
0.30790555 0.062420804 -0.10459273
0.33324093 0.063673005 -0.10102583
-0.31975645 -0.070288286 -0.09182509
-0.29654047 -0.077846996 -0.090844408
0.26015893 -0.060465559 -0.095069677
0.28254628 -0.052756764 -0.09556631
-0.3310861 -0.049466431 -0.097144932
0.27996156 -0.031899422 -0.096878812
0.31769446 -0.032735813 -0.095769733
0.27794662 -0.0059703472 -0.095304571
-0.26239848 0.033300601 -0.093806781
-0.095498644 0.033300601 -0.098702066
-0.0024784915 0.033300601 -0.092311144
0.067396298 0.033300601 -0.096302375
0.07649599 0.033300601 -0.095950179
0.1229879 0.033300601 -0.097066894
0.17119974 0.033300601 -0.096863754
0.28554839 0.034406118 -0.099433124
-0.37000594 0.040776733 -0.094017386
0.37939897 0.049049601 -0.094556898
-0.37793443 0.051264383 -0.094980583
-0.25719893 0.0604029 -0.091506466
-0.21130301 0.0604029 -0.092037611
-0.20618349 0.060402896 -0.095463216
0.054991275 0.0604029 -0.092369802
0.084818602 0.0604029 -0.097260877
0.11093159 0.0604029 -0.096422777
0.1368451 0.0604029 -0.094090439
0.20180663 0.0604029 -0.094228745
0.2343384 0.0604029 -0.091350019
0.2907581 0.061573289 -0.096219927
0.358614 0.062726304 -0.0994225
-0.29435343 -0.070391782 -0.084567606
0.28918749 -0.078130096 -0.085531324
-0.30294359 -0.06193459 -0.084567599
-0.31148034 -0.055628918 -0.084567599
0.2732479 -0.056323811 -0.084567599
0.28879905 -0.053788107 -0.083148383
0.3120378 -0.058872674 -0.084567606
-0.31149185 -0.040494934 -0.084567592
-0.29515013 -0.041396786 -0.084567599
0.27640086 -0.040443365 -0.089475684
0.30877334 -0.049332611 -0.084567599
-0.32445285 -0.039084341 -0.084567599
-0.28535512 -0.031807825 -0.084567599
-0.31120813 -0.028438978 -0.084567599
-0.30647588 -0.02888228 -0.084567599
-0.29342499 -0.024078425 -0.084567599
0.31311032 -0.020754084 -0.086979583
0.27374834 -0.00864561 -0.084567599
0.28670484 -0.0042818645 -0.088042021
-0.33941114 0.037665367 -0.081824727
-0.16670205 0.033300601 -0.087076604
-0.15166727 0.033300601 -0.089174792
-0.024829231 0.033300601 -0.0842821
0.030985929 0.033300601 -0.08593747
0.086823314 0.033300601 -0.084626608
0.11666995 0.033300601 -0.085365921
0.2692121 0.033428337 -0.086744815
0.3084527 0.035777029 -0.082236417
-0.40666428 0.044571873 -0.080806404
-0.39137083 0.042949393 -0.088182032
-0.26714584 0.060406305 -0.082471609
0.070560776 0.0604029 -0.080530241
0.11251368 0.0604029 -0.084884852
0.1385286 0.0604029 -0.080767721
0.17029957 0.0604029 -0.081622988
0.21987054 0.0604029 -0.083281741
0.31767097 0.062903464 -0.088877484
-0.29529178 -0.052466836 -0.074946202
-0.2899223 -0.038818546 -0.079365186
-0.19525369 0.033300601 -0.079664081
-0.18974663 0.033300601 -0.076180398
-0.17895064 0.033300601 -0.078406885
-0.062205136 0.033300601 -0.078093208
-0.015814781 0.033300601 -0.074656583
0.10211258 0.033300601 -0.077626601
0.16836098 0.033300601 -0.076528758
0.1726616 0.033300601 -0.070664167
0.33000329 0.03706691 -0.073186249
-0.4228372 0.047193624 -0.074207574
0.39719456 0.043541528 -0.072890945
0.41189229 0.045419041 -0.079404317
-0.14189605 0.0604029 -0.076164424
-0.12466756 0.0604029 -0.070847437
-0.1002596 0.0604029 -0.073737234
0.039221089 0.0604029 -0.076241158
0.045126684 0.0604029 -0.07915622
0.17842928 0.0604029 -0.07102339
0.32786199 0.063407153 -0.076354578
0.38058925 0.067272045 -0.076123975
0.43527722 0.064860925 -0.072904743
-0.30674493 -0.05153849 -0.067066573
0.27641034 -0.042313859 -0.067410477
-0.3310661 0.037130531 -0.069569305
-0.31660986 0.036265284 -0.061078724
-0.28447187 0.034341734 -0.064322487
-0.041675046 0.033300601 -0.063758217
0.15486057 0.033300601 -0.063183606
0.23803003 0.033300601 -0.065813564
-0.41627795 0.04612999 -0.061431535
-0.36609849 0.040379621 -0.063058421
0.38978738 0.042788111 -0.069110781
-0.3994714 0.069464624 -0.061347704
-0.094461463 0.0604029 -0.068015143
-0.035061482 0.0604029 -0.065422066
-0.010786623 0.0604029 -0.069361836
0.28650585 0.06136312 -0.0611635
0.29059079 0.061565019 -0.067723922
0.41180947 0.071184829 -0.063779831
-0.30685779 -0.031235168 -0.050743889
0.2765328 -0.03926339 -0.059076227
-0.23313746 0.033300601 -0.057360407
-0.21394777 0.033300601 -0.056789774
-0.17834197 0.033300601 -0.050942644
-0.074472338 0.033300601 -0.051459827
0.07440374 0.033300601 -0.051508561
0.084433727 0.033300601 -0.052309673
-0.42269453 0.047169965 -0.059673078
-0.41290689 0.045583818 -0.052227952
-0.36544138 0.040312894 -0.05105263
0.42383936 0.047355417 -0.056762084
0.44239745 0.050363325 -0.054384284
-0.37998417 0.067201436 -0.050080631
-0.03928287 0.0604029 -0.059474751
-0.0068929307 0.0604029 -0.053168546
0.041469395 0.0604029 -0.057304583
0.17483124 0.0604029 -0.05044305
0.25422677 0.0604029 -0.051703211
0.27130902 0.060612042 -0.051471412
0.36890742 0.065915518 -0.054084379
-0.28983492 -0.043074168 -0.042684123
0.29112983 -0.02965223 -0.047028773
-0.35506088 0.039256945 -0.048377693
-0.29021233 0.034685317 -0.04543224
-0.12230989 0.033300601 -0.043848548
-0.11562793 0.033300601 -0.043436691
0.0069678403 0.033300601 -0.045147102
0.018967696 0.033300601 -0.043326199
0.051814608 0.033300601 -0.044253089
0.063534111 0.033300601 -0.045475911
0.34744114 0.038481951 -0.044013433
0.35471585 0.039221387 -0.049115304
-0.46314853 0.057475597 -0.04052433
-0.44039017 0.05003801 -0.047247175
-0.38256001 0.067500085 -0.044582613
-0.32506949 0.063269138 -0.041763823
-0.31863332 0.062951043 -0.042073518
-0.30906057 0.062477913 -0.049144827
-0.24908841 0.060402896 -0.04181011
-0.20653659 0.0604029 -0.04570134
-0.15918352 0.0604029 -0.040200412
-0.14059728 0.0604029 -0.049920991
-0.060569838 0.0604029 -0.047130328
0.047613591 0.0604029 -0.041901186
0.099940509 0.0604029 -0.041003101
0.19784091 0.0604029 -0.046649702
0.29383576 0.0617254 -0.044343077
0.34304559 0.064187884 -0.041126635
0.37941092 0.067135222 -0.047546923
-0.46196243 0.078372456 -0.041705534
0.41253191 0.071301781 -0.040762663
0.4354983 0.075024381 -0.045208544
0.44955811 0.077290818 -0.0403473
-0.29439977 -0.03090708 -0.03575927
-0.29743117 -0.029324442 -0.032839146
-0.37383777 0.016491961 -0.030302074
0.1964452 0.0112844 -0.031331439
0.23738293 0.018495526 -0.035209067
0.34163517 0.0189989 -0.032932863
0.35210672 0.0189989 -0.03448854
-0.37688836 0.023156317 -0.039866898
-0.28771821 0.028303746 -0.039866898
-0.26274863 0.020684309 -0.039866902
-0.20912692 0.021911316 -0.039866898
0.20750453 0.021460755 -0.039866898
0.33730835 0.022282226 -0.039866902
-0.376899 0.035166305 -0.030524589
-0.36316916 0.038625814 -0.039866898
-0.35034341 0.030369885 -0.039866898
-0.33349544 0.037697341 -0.039866898
-0.29043677 0.034698721 -0.036817525
-0.2840783 0.030590028 -0.039866898
-0.24885355 0.033300601 -0.033631548
-0.23540929 0.033300601 -0.03165045
-0.22798717 0.033300601 -0.031821832
-0.201364 0.033300601 -0.031309761
-0.1424327 0.033300601 -0.036619879
-0.075305521 0.033300601 -0.030179862
0.05770316 0.033300601 -0.039749369
0.074630216 0.033300601 -0.033039153
0.08295171 0.033300601 -0.035670206
0.16866051 0.033300601 -0.037735678
0.18911199 0.036237687 -0.037521761
0.22600675 0.033300601 -0.034581896
0.2483945 0.03190916 -0.039866898
0.31861472 0.036385261 -0.034435168
-0.42017072 0.046760909 -0.037271608
-0.38848224 0.042655803 -0.038126796
-0.3287102 0.040832002 -0.037642382
-0.28642306 0.040832002 -0.038938537
0.3515712 0.040832002 -0.036798138
-0.29513854 0.061789822 -0.034822959
-0.17854348 0.0604029 -0.033722617
-0.16404045 0.0604029 -0.031442568
-0.14881098 0.0604029 -0.030207738
-0.084360465 0.0604029 -0.033086419
-0.062772304 0.0604029 -0.033182431
-0.031382211 0.0604029 -0.033233013
-0.011103779 0.0604029 -0.036771752
0.053248171 0.0604029 -0.030098211
0.078638248 0.0604029 -0.031141726
0.093476996 0.060402904 -0.032350518
0.13718906 0.0604029 -0.03475111
0.14825621 0.0604029 -0.032523677
0.160869 0.0604029 -0.034194209
0.21350428 0.0604029 -0.030158367
0.23174646 0.0604029 -0.032850012
0.29499575 0.061782733 -0.036122136
0.32811397 0.06341961 -0.038013503
0.33975324 0.064002953 -0.03783834
0.35757148 0.065004908 -0.039600696
0.36192662 0.065249562 -0.037851155
-0.40598521 0.070240967 -0.038529627
0.43627957 0.075151011 -0.03427504
-0.29693395 -0.05569414 -0.026754901
-0.276499 -0.04977705 -0.026375644
0.29975337 -0.04191139 -0.026754901
-0.30396798 -0.0210039 -0.026461974
-0.28586555 -0.025092546 -0.023645308
-0.276499 -0.026271075 -0.024244064
-0.24306822 -0.024645988 -0.020132942
0.22601503 -0.020134348 -0.020912915
0.28044027 -0.029312368 -0.026754901
-0.26696935 -0.018199228 -0.024360517
0.31479084 -0.010094369 -0.023626255
-0.33857784 -0.0081686182 -0.020814734
-0.28554282 -0.0070943097 -0.026555128
-0.22496682 -0.0026816698 -0.020507189
-0.30091411 0.0070726667 -0.026754901
-0.28731558 0.0086086327 -0.027641159
-0.26858187 0.00014119269 -0.029530788
-0.23363927 0.0019349186 -0.026152853
0.22684443 0.0086450595 -0.028542826
0.28935409 0.0097791962 -0.026754901
0.30459285 0.0050155832 -0.026370177
-0.29113662 0.0189989 -0.025067709
-0.27973095 0.0189989 -0.029571937
-0.20622487 0.015173119 -0.027692204
0.21019414 0.0189989 -0.020399369
0.22468519 0.01369334 -0.029199352
0.25722936 0.0189989 -0.021984797
0.28603911 0.0189989 -0.021452809
0.32335213 0.0189989 -0.022419082
-0.376899 0.027160162 -0.025178662
-0.20245101 0.022958174 -0.026515301
-0.29141039 0.034756877 -0.020141646
-0.25288248 0.033300601 -0.020921055
-0.24697864 0.033300601 -0.02894029
-0.16796829 0.033300601 -0.029095408
-0.15319863 0.033300601 -0.025741156
-0.12840864 0.033300601 -0.025916666
-0.1143833 0.033300601 -0.024009438
-0.063571066 0.033300601 -0.023711242
-0.0021862537 0.033300601 -0.020948082
0.018836223 0.033300601 -0.026363099
0.057021823 0.033300601 -0.028328648
0.097610816 0.033300601 -0.023159929
0.10763227 0.033300601 -0.029263489
0.14450896 0.033300601 -0.027973186
0.1793949 0.033300601 -0.026880728
0.32076055 0.036513697 -0.029044081
-0.3713116 0.040909741 -0.022524742
-0.25480473 0.040832002 -0.026611758
-0.21339704 0.040832002 -0.022395507
0.22069621 0.040832002 -0.027573599
0.24995457 0.040832002 -0.021479884
0.26105118 0.040831998 -0.024084359
0.33264393 0.040832002 -0.023802027
0.42366877 0.047327772 -0.023246327
0.45876646 0.055731319 -0.029870616
-0.36175615 0.065240152 -0.029252551
-0.29442665 0.061754581 -0.024248835
-0.26648134 0.060402904 -0.020970937
-0.071058974 0.0604029 -0.02729857
0.0034567863 0.0604029 -0.025378656
0.045071289 0.0604029 -0.029138368
0.055888176 0.0604029 -0.028807888
0.26446053 0.0604029 -0.02119988
0.34003747 0.064018928 -0.023283621
0.41706067 0.072035708 -0.024431581
-0.29100055 -0.060193799 -0.015192894
-0.27844489 -0.060193799 -0.019792413
-0.32439399 -0.054980684 -0.010269297
-0.32439399 -0.042712942 -0.012189243
0.26315999 -0.04397741 -0.019154552
0.26843494 -0.03535632 -0.013882058
-0.30255195 -0.0210039 -0.011121873
-0.29553297 -0.0210039 -0.0143809
-0.28851029 -0.02811965 -0.012061523
0.24379459 -0.028351467 -0.015118848
-0.23272341 -0.017458035 -0.010514989
0.21830025 -0.015392711 -0.016967501
-0.31667051 -0.0025103558 -0.015071055
0.28927767 -0.00231327 -0.010267703
-0.34675211 0.0095879612 -0.017129313
-0.21845898 0.0097158672 -0.014395482
-0.35655499 0.0189989 -0.013288804
-0.23952246 0.0189989 -0.014910817
-0.22498628 0.0189989 -0.014029313
-0.21560135 0.0189989 -0.015215386
0.21671903 0.0189989 -0.010800718
0.22641863 0.0189989 -0.017597921
0.26997229 0.0189989 -0.012606662
0.30325449 0.0189989 -0.011817575
0.34358531 0.016850587 -0.012937567
-0.20245101 0.03777004 -0.013427356
-0.0080983751 0.033300601 -0.016305821
0.023430534 0.033300601 -0.012796873
0.056315258 0.033300601 -0.019258631
0.14783882 0.033300601 -0.015747832
0.20235939 0.033300601 -0.01126983
0.31381685 0.036098093 -0.018832613
-0.40140045 0.043969378 -0.019582283
-0.34066203 0.040832002 -0.017508369
-0.29648519 0.040832002 -0.011881691
0.28017199 0.040832002 -0.01957899
0.31052896 0.040832002 -0.018373437
0.38356054 0.042155299 -0.012893524
0.42981106 0.048323318 -0.010056926
-0.47138107 0.060751945 -0.016823169
-0.34248915 0.064156733 -0.019163318
-0.25574583 0.0604029 -0.012930766
-0.10892738 0.0604029 -0.018203052
0.046864893 0.0604029 -0.018303934
0.12554768 0.0604029 -0.012933774
0.15878594 0.0604029 -0.01622913
0.17261681 0.0604029 -0.017922167
0.31618443 0.062829986 -0.014999977
0.3246235 0.063247085 -0.018542882
0.34256762 0.064161159 -0.019382395
0.35839394 0.065051228 -0.012637517
-0.44256443 0.076169699 -0.017494932
-0.43893638 0.075581662 -0.018361542
0.43738756 0.075330593 -0.013195891
0.2764793 -0.060193799 -0.0034632059
-0.32439399 -0.046570245 -0.0062829107
0.31198561 -0.034094825 -0.005327859
-0.30736661 -0.0210039 -0.00095186936
-0.26159948 -0.027352922 -0.00012761843
0.29645327 -0.024183374 -0.0025049606
0.30853042 -0.024393717 -0.008624671
-0.29107153 -0.01926339 -0.00044217039
0.26299483 -0.017767854 -0.0052824076
0.27486622 -0.0040076054 -0.0025571357
0.33793852 -0.0067889784 -0.0027823837
-0.2207633 0.0053261025 -0.0090432661
-0.28319964 0.0189989 -0.0040869797
-0.23261294 0.0189989 -0.0046358304
0.20039597 0.018715121 -0.0060071619
0.25476089 0.018998899 -0.0045715487
0.27428508 0.0189989 -0.0041529969
0.30877683 0.0189989 -0.0080998186
0.31454873 0.0189989 -0.0051657902
0.32680541 0.0189989 -0.0095161116
0.36355901 0.028217809 -0.0050664842
-0.2955842 0.035006702 -0.0094934963
-0.22617717 0.033300601 -0.0095135793
-0.17843416 0.033300601 -0.0084364051
-0.10147521 0.033300601 -0.0028129444
-0.042810276 0.033300601 -0.0063420059
0.064168364 0.033300601 -0.0057944101
0.12149122 0.033300601 -0.00031267665
0.16815796 0.033300601 -0.0068974057
0.19457556 0.033300601 -0.0053795408
0.25937602 0.033300601 -0.0030246489
0.29436621 0.03493372 -0.0067553967
0.3496179 0.03870336 -0.0018793945
0.19853446 0.040832005 -0.0088891452
0.20295559 0.040832002 -0.0039778054
0.26236674 0.040832002 -0.0076788655
0.28852299 0.040832002 -0.0042776437
0.44914055 0.051900864 -0.0070163384
-0.47577578 0.062500909 -0.0095309038
-0.30123946 0.062091351 -0.0083219707
-0.22504929 0.0604029 -0.0069683967
-0.0080860518 0.0604029 -0.0028350255
0.16871291 0.0604029 -0.00096408278
0.31793383 0.06291645 -0.0087538883
0.36415988 0.065375283 -0.0044725263
-0.46712118 0.077231698 -0.0034020853
-0.42468673 0.073272012 -0.0078615788
0.42404678 0.073168099 -0.0072178915
0.29607081 -0.060193799 0.0012937514
0.26253751 -0.051082298 0.0023977277
0.311055 -0.058594499 0.0026582321
-0.28576937 -0.045241058 0.0084206816
0.27090421 -0.047009647 5.9405109e-05
-0.33324385 -0.022008885 0.0072539127
-0.32042047 -0.026141204 0.0053037526
-0.29841909 -0.0210039 0.0073914872
0.33170637 -0.017425612 0.0063012415
-0.29883507 -0.00231327 0.0017916057
-0.22276133 0.001519803 0.0026797936
-0.36628988 0.0189989 0.0049407156
-0.33872843 0.0189989 0.002250433
-0.32179841 0.0189989 0.0011024773
-0.30550414 0.018998902 0.0073375413
-0.29323208 0.0189989 0.0029090848
-0.28301442 0.0189989 0.0093804616
0.2011462 0.0189989 0.0084204171
0.22594735 0.018998902 0.0068664867
0.24572161 0.0189989 0.0092306267
0.25822943 0.0189989 0.00072888844
0.27239555 0.0189989 0.0017253617
0.2832877 0.0189989 0.0061328653
0.33428404 0.0189989 0.0063077956
0.346618 0.0189989 0.0011582403
-0.20245101 0.029502559 0.0026800479
-0.30708599 0.035695232 0.009801358
-0.29609835 0.035037398 0.0048486702
-0.26318935 0.033300601 0.0023075803
-0.25964001 0.033300601 0.0062444881
-0.2308376 0.033300601 0.0070961099
-0.18799424 0.033300601 0.002451553
-0.036639027 0.033300601 0.0060101901
0.058672547 0.033300601 0.0029243268
0.18387061 0.033300601 0.0019663211
0.28451586 0.034344301 0.009998966
0.30099359 0.03533043 0.0082686469
-0.39828196 0.043652296 0.0056157475
-0.38268217 0.042066127 0.0056284424
-0.36676729 0.040447608 0.0013894988
-0.25908056 0.040832002 0.0017313147
0.24846253 0.040832002 0.0081153102
0.33280528 0.040832002 0.0064522494
0.34194177 0.040831998 0.0063870493
0.42886031 0.048169471 0.0097814789
0.43429354 0.049049839 0.001516337
-0.33026159 0.063525759 0.0071948916
-0.25685519 0.0604029 0.0086782835
-0.18694974 0.0604029 0.0092095714
0.12969813 0.0604029 0.0080226986
0.16148016 0.0604029 0.0059679914
0.19474262 0.0604029 0.0073403269
0.20154077 0.0604029 0.0045671882
0.30271655 0.06216418 0.0081020333
0.37987766 0.067189008 0.0063828714
-0.43950894 0.075674467 0.0034417063
0.4416239 0.076017223 0.003246
0.47471565 0.074285462 0.00064325053
-0.30467331 -0.060193799 0.01988765
0.30322832 -0.060193799 0.013733955
0.26315999 -0.055644028 0.013298096
-0.26414186 -0.020439161 0.019774765
-0.32629555 -0.013833749 0.016535513
0.26018643 -0.016749045 0.012117102
-0.32111001 -0.007733061 0.016445899
0.32379252 -0.0078234849 0.017885758
-0.34948981 0.0070729731 0.012572922
-0.3378208 0.0189989 0.01265118
-0.2571032 0.0189989 0.016375663
0.23538023 0.0189989 0.019363483
0.27207145 0.018998902 0.011066032
0.28461778 0.0189989 0.013552174
0.32607633 0.0189989 0.011344647
-0.35070673 0.038813889 0.016546918
-0.3372196 0.037498835 0.015183788
-0.2957378 0.035015829 0.012674242
-0.22000492 0.033300601 0.013547871
-0.1223821 0.033300601 0.013030811
-0.10676535 0.033300601 0.013308032
0.064720534 0.033300601 0.015067972
0.14993179 0.033300601 0.015410751
0.2561968 0.033300601 0.019435607
0.28185043 0.034184791 0.015099392
0.3366358 0.037463889 0.014255963
-0.37511295 0.040594321 0.014434997
-0.35474148 0.040832002 0.018451344
0.19087504 0.040832002 0.012264905
0.21777047 0.040832002 0.015175845
0.22606725 0.040832002 0.016229523
0.43658686 0.049421541 0.015877979
-0.47938201 0.069852829 0.012646879
-0.40162253 0.069714427 0.013615496
-0.33235955 0.063629448 0.018910713
-0.1635889 0.0604029 0.014972312
-0.098561734 0.0604029 0.010733298
-0.030615203 0.0604029 0.016386747
0.03618519 0.0604029 0.014547073
0.18380702 0.0604029 0.01297198
0.30938482 0.062493913 0.010304246
0.36103874 0.065199308 0.012054734
-0.43815863 0.075455606 0.011368241
0.44434202 0.076457798 0.016130321
-0.2979852 -0.055853568 0.0234362
0.28557849 -0.05520393 0.0234362
-0.31746182 -0.047914468 0.0234362
-0.31079879 -0.033676304 0.0234362
-0.28846437 -0.035960633 0.0234362
0.27019894 -0.021839924 0.0234362
0.28367093 -0.02936657 0.023661178
-0.26450658 -0.013956524 0.022121467
0.31434581 -0.012057998 0.020427298
-0.25825697 -0.0035701157 0.024180405
0.27406469 -0.0049366998 0.021923363
-0.3266274 0.0082650026 0.020712029
-0.23226523 0.0033863448 0.02306499
0.2213119 0.0075032646 0.024437342
0.25007802 0.0079278871 0.027939124
-0.27246079 0.0189989 0.026987959
-0.22513509 0.0189989 0.028733375
-0.20802703 0.012296094 0.023997484
0.19569513 0.018998902 0.029188916
0.21945457 0.014538516 0.025588583
0.22044811 0.0189989 0.024819851
0.23445144 0.0189989 0.0273946
0.25066137 0.0189989 0.026368774
0.35767266 0.018998902 0.026899684
-0.35377806 0.039126363 0.020445872
-0.34351662 0.038082462 0.023554055
-0.30050525 0.035301134 0.026091967
-0.071490079 0.033300601 0.027471945
0.016207341 0.033300601 0.024602866
0.068656519 0.033300601 0.026806112
0.10864009 0.033300601 0.026666
0.12035564 0.033300601 0.024414957
0.16423351 0.033300601 0.027630353
0.22036138 0.033300601 0.020297198
0.19784592 0.040832002 0.025907146
0.22742815 0.040832002 0.027458891
0.23143801 0.040832002 0.021266278
0.27832961 0.040832002 0.026658066
0.4461031 0.051251628 0.0268251
0.45180565 0.052961744 0.023968168
-0.11619131 0.0604029 0.027391905
-0.10312225 0.0604029 0.025523137
-0.06110096 0.0604029 0.02681439
0.042651959 0.0604029 0.02475208
0.12153604 0.0604029 0.022952909
0.25880343 0.0604029 0.02013823
0.32666123 0.063347802 0.026800526
0.37054941 0.066106312 0.020032715
0.47115508 0.060661688 0.026462685
0.44994897 0.077352062 0.020753551
-0.29663634 -0.053122543 0.036643289
-0.3089492 -0.049006168 0.037715718
0.28311437 -0.029637996 0.038000271
-0.35331389 0.0189989 0.032377124
0.2255802 0.0189989 0.036123089
0.32846332 0.0189989 0.03648084
-0.33810329 0.027640032 0.0365487
-0.29575568 0.026749268 0.0365487
-0.2136268 0.028401621 0.0365487
0.19981915 0.020375239 0.0365487
0.21644427 0.022347644 0.0365487
0.26282364 0.021622315 0.0365487
0.28990892 0.020233948 0.036548696
0.30103919 0.020284165 0.036548704
0.31208009 0.028539343 0.0365487
-0.33879939 0.039822973 0.0365487
-0.2602739 0.033300601 0.034880634
-0.20401791 0.034947336 0.0365487
-0.17314035 0.033300601 0.03187862
-0.11102617 0.033300601 0.037672885
-0.10681985 0.033300601 0.038723543
-0.049645022 0.033300601 0.030931206
0.12220457 0.033300601 0.030402206
0.19367556 0.033300601 0.031004246
0.21864811 0.033300601 0.039068732
0.32540247 0.036791533 0.037931953
0.34079489 0.033128008 0.0365487
-0.42104053 0.046902768 0.030907011
-0.37434894 0.041218434 0.038448609
-0.24728177 0.040832002 0.031544756
0.21974283 0.040832002 0.032959823
0.25421095 0.040831998 0.032903135
0.26145479 0.040832002 0.032860208
0.33642387 0.040832002 0.035277672
0.45704919 0.055048525 0.033460598
0.46186128 0.056963272 0.034886364
-0.38934535 0.068288773 0.030392338
-0.26859537 0.06047795 0.035023402
-0.24268577 0.0604029 0.037925921
-0.23566294 0.0604029 0.031430691
-0.10301413 0.0604029 0.03344968
0.004019022 0.060402904 0.037152406
0.045972049 0.0604029 0.03582944
0.17741843 0.0604029 0.038424261
0.34491432 0.064293087 0.037102498
0.4262028 0.073517293 0.036552794
-0.30505779 -0.052732345 0.040247444
-0.31119698 -0.041710898 0.043805443
0.29736367 -0.045144796 0.049355369
-0.30680364 -0.031186279 0.043417715
0.28963923 -0.029013753 0.04754572
-0.30353987 0.035482757 0.047288757
-0.23492703 0.033300601 0.041457217
-0.22880152 0.033300601 0.046871889
-0.20262599 0.033300601 0.043306921
-0.19276932 0.033300601 0.048115551
-0.041942276 0.033300601 0.046485741
-0.037190977 0.033300601 0.049247369
0.0076184049 0.033300601 0.046801604
0.10178987 0.033300601 0.046124093
0.19173339 0.033300601 0.048812047
0.2445925 0.033300601 0.047136616
0.29859748 0.035186984 0.040048603
-0.41593072 0.046074662 0.041792672
-0.39696419 0.069173485 0.047550913
-0.096177362 0.0604029 0.045182217
-0.080614701 0.0604029 0.045245044
-0.074415244 0.0604029 0.046235118
0.12034732 0.0604029 0.048185911
0.14060727 0.0604029 0.040776782
0.16643561 0.0604029 0.046709221
0.17812136 0.0604029 0.048714507
0.20413458 0.0604029 0.048719004
0.23124379 0.0604029 0.046526197
0.2792502 0.061004583 0.043082785
-0.4518984 0.077657513 0.049638048
-0.41454169 0.071627572 0.0457469
0.41680703 0.071994647 0.044612981
0.42479888 0.073289789 0.049029566
0.45723063 0.078364238 0.049112923
0.2921555 -0.052519351 0.059899092
-0.29233587 -0.049606487 0.052729942
0.27664837 -0.044442311 0.050979055
0.297903 -0.041434765 0.053189214
-0.32084495 0.036518726 0.052551292
-0.28693187 0.034488913 0.059594925
-0.22604731 0.033300601 0.059829794
-0.19561885 0.033300601 0.052110344
-0.029523857 0.033300601 0.055802472
-0.0020236671 0.033300601 0.059848748
0.10588144 0.033300601 0.056011658
0.28342727 0.034279171 0.053412359
-0.38859236 0.042667069 0.053631622
0.3970561 0.043527536 0.05052866
-0.44324377 0.050500575 0.05015118
-0.36091396 0.065192796 0.050767291
-0.29918689 0.06198971 0.056472618
-0.26404878 0.0604029 0.05188578
-0.17143495 0.0604029 0.056165889
-0.13763329 0.0604029 0.053378314
-0.12531953 0.0604029 0.059872083
-0.06182652 0.0604029 0.055702381
-0.026816918 0.0604029 0.053141896
0.00060815364 0.0604029 0.056398563
0.11428286 0.0604029 0.058634646
0.39738056 0.069221683 0.051090345
-0.40669918 0.070356674 0.057911202
0.40724903 0.070445627 0.05122079
-0.35002258 0.038743902 0.064380199
-0.28069165 0.034115437 0.065694578
-0.21446973 0.033300601 0.065958641
-0.13546064 0.033300601 0.062027678
-0.023864895 0.033300601 0.061609287
0.00127884 0.033300601 0.0698388
0.08981169 0.033300601 0.061751079
0.14543106 0.033300601 0.062488921
0.16002095 0.033300601 0.066314936
0.20095003 0.033300601 0.065660328
0.23052473 0.033300601 0.062321834
0.27972651 0.034057666 0.067705669
0.32658201 0.036862124 0.061382446
0.3466073 0.038396545 0.061810367
-0.40786865 0.044767272 0.065034926
-0.36254066 0.04001759 0.067981735
0.42887196 0.048172057 0.060721003
-0.43551821 0.06083402 0.069466375
-0.38330588 0.067587033 0.068647936
-0.32469329 0.063250452 0.064779505
-0.27674797 0.060880907 0.064656869
-0.22105166 0.0604029 0.068083845
-0.13868728 0.0604029 0.068455815
-0.038221307 0.0604029 0.062477726
0.019819096 0.0604029 0.060186759
0.056683891 0.0604029 0.068914741
0.34659678 0.064387657 0.062797233
0.36297655 0.065308563 0.067634597
0.37305927 0.066397771 0.067056894
0.39546299 0.068998493 0.065390296
-0.43958688 0.07568685 0.063516758
-0.30743396 -0.050916731 0.079555586
-0.29361787 -0.031612627 0.076773755
-0.29808912 -0.028986922 0.075919025
-0.27676907 0.033880673 0.077480093
-0.24304204 0.033300601 0.073927723
-0.22754401 0.033300601 0.071373478
-0.2175516 0.033300601 0.073114388
-0.2022029 0.033300601 0.077799544
-0.15483922 0.033300601 0.070306405
-0.077875629 0.033300601 0.075946413
0.045205384 0.033300601 0.07679759
0.12701616 0.033300601 0.072186053
0.196614 0.033300601 0.070454232
0.28237602 0.034216251 0.070301615
0.33759153 0.037521098 0.072381884
-0.42513737 0.047567084 0.074399903
-0.39273858 0.043088935 0.074735977
0.41686013 0.055109859 0.07858932
0.43311429 0.05648892 0.070656568
-0.43153727 0.068468533 0.071435988
-0.093874514 0.0604029 0.075526319
-0.066952527 0.0604029 0.073682949
-0.054838963 0.0604029 0.07912764
0.014900329 0.0604029 0.071663991
0.046864241 0.0604029 0.074354261
0.078624442 0.0604029 0.070657179
0.11886429 0.0604029 0.076335058
0.22739142 0.0604029 0.076308452
0.28754777 0.061414741 0.076262347
0.33260733 0.06364169 0.078381829
0.40131706 0.069678605 0.075542152
-0.41229752 0.071263902 0.073304079
0.27362782 -0.07459712 0.088400677
0.3029393 -0.069690898 0.084568001
0.27964604 -0.059196029 0.084568001
0.26428893 -0.0406981 0.084568001
-0.29299158 -0.028723866 0.084568001
-0.27792412 -0.021535221 0.084568001
0.31586754 -0.027364422 0.084567994
-0.27597964 -0.018399309 0.086038485
0.27724314 -0.012090724 0.084568001
-0.19513595 0.033300601 0.089093812
-0.1272174 0.033300601 0.084761411
-0.11404113 0.033300601 0.082247972
-0.10063273 0.033300601 0.087139085
-0.079074383 0.033300601 0.087372057
0.31348231 0.03607776 0.082324885
-0.39122546 0.057953745 0.087817401
-0.39661753 0.069132507 0.081794493
-0.36813003 0.065825261 0.080109917
-0.29655254 0.061859671 0.081555448
-0.23657328 0.0604029 0.084909409
-0.14551957 0.0604029 0.084959939
-0.10325411 0.0604029 0.081853539
-0.0073713139 0.0604029 0.080319822
0.023105972 0.0604029 0.08613126
0.1901118 0.0604029 0.089817874
0.2420235 0.0604029 0.080249235
0.26359522 0.0604029 0.08466135
0.31608814 0.062824741 0.089875773
0.35524952 0.064874053 0.087277472
-0.2864759 -0.074358046 0.092764512
-0.33046991 -0.052223198 0.092779443
-0.30236152 -0.028918291 0.097439066
-0.29667684 -0.029529499 0.090402454
-0.27197561 -0.026040722 0.099598654
0.30961239 -0.015389359 0.094093561
-0.26427314 0.033300601 0.095237188
-0.2504054 0.033300601 0.090001158
-0.24444023 0.033300601 0.093048334
-0.2318884 0.033300601 0.090224497
-0.22330287 0.033300601 0.091057681
-0.18495397 0.033300601 0.092110991
-0.13100515 0.033300601 0.094286002
-0.053735103 0.033300601 0.093972899
0.23081508 0.033300601 0.096140206
-0.3571015 0.04523363 0.096426904
-0.34218186 0.041938998 0.099175081
0.34275296 0.041667983 0.09909118
0.36774057 0.046576254 0.094156891
-0.37179589 0.056104794 0.093291596
0.36890191 0.050327964 0.093909107
-0.27722251 0.060904369 0.094717994
-0.23941293 0.0604029 0.093041644
-0.15115972 0.0604029 0.097893164
-0.11708394 0.0604029 0.097769022
-0.10427681 0.0604029 0.094290324
-0.066073246 0.0604029 0.095019862
-0.02160614 0.0604029 0.095807493
4.9591064e-05 0.0604029 0.093097828
0.080638483 0.0604029 0.093587264
0.14936036 0.0604029 0.09313637
0.15113816 0.0604029 0.092730425
0.18911453 0.0604029 0.095043033
0.20442031 0.0604029 0.097862557
0.22654396 0.0604029 0.091241278
0.37996453 0.066514738 0.091075011
0.29211152 -0.0776769 0.10993794
0.278189 -0.048367608 0.10001425
0.25638047 -0.033989049 0.1042885
0.29256344 -0.039614506 0.105236
0.31763402 -0.032195199 0.10653466
-0.28125533 -0.012276297 0.10076359
-0.27992582 -0.013476178 0.10297215
0.26894841 -0.011344884 0.10535913
0.31095141 -0.017442975 0.10477254
-0.30044734 -0.0042818245 0.10450473
-0.28884459 -0.0071594398 0.10744276
0.27654904 -0.006768269 0.10564917
0.29229644 -0.005023533 0.10195081
-0.29578486 0.035946403 0.10437351
-0.26555991 0.03588213 0.105236
-0.20322774 0.033300601 0.10022869
-0.13842349 0.038543127 0.10523601
-0.050093003 0.033817079 0.10523601
-0.035638399 0.035123847 0.10523599
-0.019487133 0.033300601 0.10065725
-0.0053139776 0.033300601 0.101199
0.18175837 0.034179289 0.10523599
-0.22250104 0.046692178 0.10523599
-0.19143078 0.041036349 0.10523599
-0.15961874 0.046932563 0.10523599
-0.11100177 0.042537838 0.10523599
-0.06594003 0.043754458 0.105236
-0.045545664 0.044279173 0.105236
-0.021420399 0.043809827 0.105236
0.13893144 0.041134305 0.105236
0.19348547 0.04357408 0.10523599
0.20318711 0.044929452 0.105236
-0.33541638 0.057163633 0.10016835
-0.19018896 0.058337774 0.105236
-0.071859188 0.056225438 0.10523599
-0.025267947 0.052800838 0.105236
-0.014602764 0.053074293 0.10523601
0.014515117 0.056931525 0.105236
0.086706743 0.052386507 0.105236
0.11206947 0.055741698 0.10523601
0.19298185 0.054806143 0.10523599
0.28423521 0.051813997 0.10474995
-0.31873903 0.062846221 0.10240021
-0.15568852 0.0604029 0.1016562
0.11331756 0.0604029 0.10097192
0.25176448 0.0604029 0.10200663
0.26405135 0.0604029 0.10159844
0.2970598 0.061884839 0.1005474
0.29296017 -0.070279866 0.11731701
0.2736904 -0.068187855 0.11731701
0.30757689 -0.069242775 0.11157733
-0.32851735 -0.057770386 0.115777
0.25856707 -0.056432799 0.11726598
-0.27312213 -0.04052313 0.117317
0.27870592 -0.035151031 0.11731701
0.2831738 -0.033092052 0.11631829
0.29498509 -0.039813306 0.11517818
