# .PCD v0.7 - Point Cloud Data file format
VERSION 0.7
FIELDS x y z
SIZE 4 4 4
TYPE F F F
COUNT 1 1 1
WIDTH 896
HEIGHT 1
VIEWPOINT 0 0 0 1 0 0 0
POINTS 896
DATA ascii
-0.34001905 -0.015735 -0.1139866
-0.30591798 -0.015735 -0.11356527
-0.27190614 -0.014188031 -0.117337
-0.26490688 -0.015735 -0.11403938
-0.14917547 -0.015735 -0.11353149
-0.10162665 -0.015735 -0.11311825
-0.080714002 -0.014982853 -0.117337
-0.06320814 -0.015735 -0.1136772
-0.034850597 -0.01385298 -0.117337
0.021326497 -0.015735 -0.11287668
0.031122997 -0.015735 -0.11419317
0.043843374 -0.015735 -0.11126058
0.083208695 -0.015735 -0.11455359
0.099114954 -0.010283201 -0.117337
0.16522326 -0.015735 -0.11559047
0.17100409 -0.012516798 -0.117337
0.19350408 -0.015735 -0.11345728
0.25096995 -0.015735 -0.11146841
0.26598272 -0.015735 -0.11467074
0.27598235 -0.015735 -0.11480004
0.31316963 -0.015735 -0.1126653
0.32263029 -0.015735 -0.11423862
0.38510212 -0.015735 -0.11219298
-0.37488151 -0.0051174723 -0.11637162
-0.35784703 -0.004599967 -0.117337
-0.33832592 -0.0044466737 -0.11726407
-0.3184506 -0.006583178 -0.117337
-0.29358673 -0.0058315024 -0.11475833
-0.18617743 -0.0046265712 -0.117337
-0.17283502 -0.0028181509 -0.117337
-0.10669023 -0.0083835674 -0.117337
-0.094960824 -0.0082677957 -0.117337
-0.086945146 -0.0056774113 -0.117337
-0.0033539198 -0.00193737 -0.11719117
0.010408996 -0.00193737 -0.1109197
0.048100375 -0.00193737 -0.11323613
0.07904464 -0.00193737 -0.11144886
0.084832177 -0.0032485111 -0.117337
0.098353408 -0.00193737 -0.11472753
0.18489063 -0.0053484701 -0.117337
0.19213584 -0.0041533913 -0.117337
0.21861744 -0.0088774217 -0.117337
0.26458025 -0.0049879458 -0.117337
0.3249647 -0.00193737 -0.11524275
0.36937273 -0.001796177 -0.11625823
0.39753509 -0.00193737 -0.11263478
-0.39529383 -0.015735 -0.10448626
-0.38762867 -0.015735 -0.10915721
-0.34236547 -0.015735 -0.10454275
-0.31187469 -0.015735 -0.10638539
-0.13512504 -0.015735 -0.10227025
-0.11588403 -0.015735 -0.10130541
-0.023240536 -0.015735 -0.10605704
-0.0083405999 -0.015735 -0.10247473
0.042692095 -0.015735 -0.10972188
0.064747065 -0.015735 -0.10327131
0.16301611 -0.015735 -0.10533827
0.23385704 -0.015735 -0.10181619
0.33333239 -0.015735 -0.10391231
0.39463508 -0.015735 -0.10851575
0.41516641 -0.014954501 -0.10656494
-0.41101244 -0.00193737 -0.10789731
-0.36665213 -0.00193737 -0.10651022
-0.3184498 -0.00193737 -0.10800833
-0.30616778 -0.00193737 -0.10858838
-0.27799004 -0.00193737 -0.1024041
-0.25863346 -0.00193737 -0.10827865
-0.24986482 -0.00193737 -0.10197321
-0.1332356 -0.00193737 -0.10513722
-0.10765667 -0.00193737 -0.10222952
-0.077824257 -0.00193737 -0.10629795
0.027275532 -0.0019373702 -0.10551279
0.034752909 -0.00193737 -0.10999259
0.081510834 -0.00193737 -0.10784733
0.15089819 -0.00193737 -0.10782721
0.24300846 -0.00193737 -0.10458151
0.35635963 -0.00193737 -0.10258093
0.41482878 -0.0048326394 -0.1053834
0.41762099 0.0026398252 -0.10540465
-0.4191798 -0.015735 -0.099849992
-0.3929323 -0.015735 -0.09294723
-0.3830567 -0.015735 -0.094675623
-0.30903208 -0.015735 -0.099063531
-0.28319919 -0.015735 -0.09824723
-0.27222037 -0.015735 -0.09752854
-0.1905261 -0.015735 -0.099867135
-0.16284111 -0.015735 -0.096201092
-0.15880728 -0.015735 -0.09329927
-0.12804484 -0.015735 -0.09276022
-0.11596464 -0.015735 -0.092121929
-0.085514188 -0.015735 -0.094585665
-0.078960627 -0.015735 -0.092482105
-0.048623446 -0.015735 -0.097008154
-0.03525158 -0.015735 -0.090805359
0.039617188 -0.015735 -0.090568095
0.17035791 -0.015735 -0.096786231
0.18302907 -0.015735 -0.094524615
0.23939849 -0.015735 -0.090826452
0.27299511 -0.015735 -0.092220992
0.28639358 -0.015735 -0.094441384
0.32776791 -0.015735 -0.093252972
0.34725064 -0.015735 -0.09464474
0.35381404 -0.015735 -0.097239509
0.38643193 -0.015735 -0.096239135
-0.34132713 -0.00193737 -0.092040434
-0.29088008 -0.00193737 -0.095958948
-0.27481216 -0.00193737 -0.093291827
-0.16905327 -0.00193737 -0.091077283
-0.13072619 -0.00193737 -0.098394707
-0.11670917 -0.00193737 -0.091084391
-0.10177201 -0.00193737 -0.097848527
-0.081123091 -0.00193737 -0.099387996
-0.037623703 -0.00193737 -0.090594247
0.13675299 -0.00193737 -0.093441993
0.18558462 -0.0019373702 -0.091558762
0.37737894 -0.00099664729 -0.095715076
0.38934273 0.0012464513 -0.095643945
-0.42098364 -0.015735 -0.083225876
-0.40235311 -0.015735 -0.081572756
-0.39588648 -0.015735 -0.084491476
-0.38605908 -0.015735 -0.085966155
-0.35465822 -0.015735 -0.08431758
-0.32230431 -0.015735 -0.083912872
-0.31459528 -0.015735 -0.085615546
-0.23187205 -0.015735 -0.080080003
-0.19229199 -0.015735 -0.083819896
-0.16387025 -0.015735 -0.084419593
-0.087292805 -0.015735 -0.080255836
-0.015387749 -0.015735 -0.086781673
0.043547198 -0.015735 -0.083769925
0.070926681 -0.015735 -0.083294384
0.12365296 -0.015735 -0.081242219
0.1329108 -0.015735 -0.080072761
0.21988735 -0.015735 -0.086896129
0.24706945 -0.015735 -0.085231304
0.25276822 -0.015735 -0.087831303
-0.43328577 -0.00193737 -0.080787949
-0.3941682 -0.00193737 -0.088233739
-0.33934316 -0.00193737 -0.082712106
-0.30865872 -0.00193737 -0.089409672
-0.28062052 -0.00193737 -0.089691147
-0.24196413 -0.00193737 -0.086536855
-0.22641483 -0.00193737 -0.084866054
-0.18738382 -0.00193737 -0.089010149
-0.13835257 -0.00193737 -0.089006044
-0.092244431 -0.00193737 -0.08052437
-0.0072121304 -0.00193737 -0.081796937
0.039054736 -0.00193737 -0.083812118
0.050013691 -0.00193737 -0.08299841
0.11769871 -0.00193737 -0.0834333
0.12562001 -0.00193737 -0.082626224
0.18924809 -0.00193737 -0.083390027
0.20529497 -0.00193737 -0.083399907
0.2169404 -0.00193737 -0.086456567
0.2312315 -0.00193737 -0.08460623
0.24316095 -0.00193737 -0.083563447
0.27596331 -0.00193737 -0.082018524
0.4161976 -0.00193737 -0.080443121
0.43808883 -0.00193737 -0.086511031
0.43481264 0.0081737181 -0.085534342
-0.23885247 -0.015735 -0.071668856
-0.19982149 -0.015735 -0.073068991
-0.18051632 -0.015735 -0.072122142
-0.1685487 -0.015735 -0.078061551
-0.15585558 -0.015735 -0.076252803
-0.09577769 -0.015735 -0.079981551
-0.0085929893 -0.015735 -0.074611492
0.14463639 -0.015735 -0.079987526
0.23332854 -0.015735 -0.073377863
0.30985728 -0.015735 -0.071397021
0.38550654 -0.015735 -0.07084728
-0.41557896 -0.0019373702 -0.07631164
-0.35269028 -0.00193737 -0.074018978
-0.28121063 -0.00193737 -0.073698059
-0.15667006 -0.00193737 -0.070458338
-0.021683887 -0.00193737 -0.071707502
0.15781434 -0.00193737 -0.075855762
0.20130743 -0.00193737 -0.070621416
0.23650405 -0.00193737 -0.072222948
0.26122093 -0.00193737 -0.072918423
0.29167747 -0.00193737 -0.072222084
0.31744263 -0.00193737 -0.071750522
0.33049148 -0.00193737 -0.070528209
0.42612296 -0.00193737 -0.073009133
0.43708265 -0.00193737 -0.076320678
0.44719884 -0.00193737 -0.076611482
0.39882344 0.0026908377 -0.076589286
0.44804919 0.01019039 -0.073628299
-0.40531558 -0.015735 -0.060854737
-0.28996676 -0.015735 -0.066412091
-0.25976759 -0.015735 -0.061317496
-0.22180262 -0.015735 -0.060811281
-0.21374065 -0.015735 -0.065520093
-0.20705383 -0.015735 -0.066362396
-0.17801189 -0.015735 -0.064551428
-0.16102943 -0.015735 -0.063554287
-0.15310732 -0.015735 -0.069454268
-0.12039194 -0.015735 -0.064163044
-0.098147392 -0.015735 -0.062520474
-0.062119633 -0.015735 -0.068151698
-0.011352892 -0.015735 -0.065145284
0.025253545 -0.015735 -0.061806597
0.12556204 -0.015735 -0.066790476
0.23037511 -0.015735 -0.064235546
0.39264607 -0.015735 -0.063713059
0.46133026 -0.015735 -0.068662159
-0.40564656 -0.00193737 -0.067563593
-0.23632674 -0.0019373702 -0.063770525
-0.17049091 -0.00193737 -0.069486447
-0.16563597 -0.00193737 -0.062138923
-0.036248036 -0.00193737 -0.060970888
0.078846499 -0.00193737 -0.063976258
0.23820841 -0.00193737 -0.06547264
0.25181568 -0.00193737 -0.069685154
0.33245468 -0.0019373702 -0.068808451
0.42426986 -0.00193737 -0.062362533
0.43160003 -0.00193737 -0.065759875
-0.41965556 -0.015735 -0.055609178
-0.30846944 -0.015735 -0.053751919
-0.21741325 -0.015735 -0.050187491
-0.1692532 -0.015735 -0.052823301
-0.12458867 -0.015735 -0.051892884
-0.10265342 -0.015735 -0.05932416
-0.038047493 -0.015735 -0.056288522
-0.0085322168 -0.015735 -0.052637365
0.0053429138 -0.015735 -0.0589968
0.02936719 -0.015735 -0.053956233
0.034972779 -0.015735 -0.053923078
0.13050371 -0.015735 -0.056350999
0.22709885 -0.015735 -0.057443678
0.23031774 -0.015735 -0.054223128
0.36652333 -0.015735 -0.056067158
-0.42880827 -0.00193737 -0.056127768
-0.36738038 -0.00193737 -0.051110059
-0.34994763 -0.00193737 -0.052920949
-0.33307487 -0.00193737 -0.058863357
-0.32244676 -0.0019373702 -0.057095036
-0.27840433 -0.00193737 -0.050048914
-0.2645207 -0.00193737 -0.055220846
-0.11576167 -0.00193737 -0.056368336
-0.095308229 -0.00193737 -0.052579388
-0.041526608 -0.00193737 -0.055528805
-0.013022512 -0.00193737 -0.052671894
0.0088958293 -0.00193737 -0.055901453
0.05556782 -0.00193737 -0.059093583
0.083058864 -0.00193737 -0.056379888
0.10351323 -0.00193737 -0.052800179
0.17339197 -0.00193737 -0.055937249
0.18378459 -0.00193737 -0.059377816
0.19592968 -0.00193737 -0.050117634
0.20063871 -0.00193737 -0.056954883
0.29421523 -0.0019373702 -0.057655811
0.3793447 -0.00193737 -0.059180114
0.40286881 -0.00193737 -0.05789303
-0.39105958 -0.015735 -0.04840124
-0.26229393 -0.015735 -0.044354152
-0.24838097 -0.015735 -0.047635727
-0.19765495 -0.015735 -0.046921682
-0.17486873 -0.015735 -0.048286632
-0.16930105 -0.015735 -0.04327517
-0.053498622 -0.015735 -0.042996176
-0.047053281 -0.015735 -0.048703708
-0.0085762208 -0.015735 -0.045268774
0.025129639 -0.015735 -0.043901376
0.031844653 -0.015735 -0.043385912
0.045877609 -0.015735 -0.048463106
0.065857396 -0.015735 -0.047684912
0.12120953 -0.015735 -0.045155086
0.1987689 -0.015735 -0.049268179
0.20867349 -0.015735 -0.048400339
0.23643273 -0.015735 -0.048141602
0.34748974 -0.015735 -0.044304661
0.39498055 -0.015735 -0.047293469
-0.42048299 -0.00193737 -0.043735649
-0.41473609 -0.00193737 -0.04533175
-0.38620761 -0.00193737 -0.044983268
-0.34262785 -0.00193737 -0.047770187
-0.3216404 -0.00193737 -0.046488181
-0.26580846 -0.00193737 -0.04524745
-0.23445125 -0.00193737 -0.049314063
-0.22605428 -0.00193737 -0.042884719
-0.20368186 -0.00193737 -0.047337342
-0.12344621 -0.00193737 -0.044745326
-0.11520079 -0.00193737 -0.046870682
-0.092991747 -0.00193737 -0.044737078
-0.069164038 -0.00193737 -0.04885114
0.0079782307 -0.00193737 -0.047188383
0.014766693 -0.00193737 -0.049021691
0.20591961 -0.00193737 -0.045319136
0.2594983 -0.00193737 -0.047888063
0.31029147 -0.00193737 -0.048652254
0.3464655 -0.00193737 -0.046550162
0.37680185 -0.00066427788 -0.041091844
0.45338941 -0.00193737 -0.049446449
0.42544642 0.0067467834 -0.045955315
0.474002 0.011355698 -0.046725988
-0.38134545 -0.015735 -0.034679513
-0.37886566 -0.015735 -0.037114397
-0.34965453 -0.015735 -0.039467268
-0.33842531 -0.015735 -0.031933062
-0.16594349 -0.015735 -0.035719447
-0.018564641 -0.015735 -0.038663421
0.042689174 -0.015735 -0.034283992
0.1016282 -0.015735 -0.036431946
0.16890223 -0.015735 -0.037986744
0.21353006 -0.015735 -0.032005474
0.25852108 -0.015735 -0.034222066
0.26895073 -0.015735 -0.032213662
0.28539038 -0.015735 -0.033226088
0.36485493 -0.015735 -0.030863423
0.40906826 -0.015735 -0.03820565
-0.28274971 -0.00193737 -0.035236999
-0.26743278 -0.00193737 -0.030730646
-0.25070304 -0.00193737 -0.03657138
-0.240679 -0.00193737 -0.030222557
-0.040091746 -0.00193737 -0.039273504
-0.0036152489 -0.00193737 -0.038132265
0.0038086325 -0.00193737 -0.036375389
0.063769817 -0.00193737 -0.039166741
0.070806772 -0.00193737 -0.032369051
0.15814918 -0.00193737 -0.036739923
0.19310498 -0.00193737 -0.038601533
0.26170808 -0.00193737 -0.032487039
0.29298896 -0.00193737 -0.033449359
0.32310671 -0.00193737 -0.030524977
0.37304583 -0.00193737 -0.033125784
0.40506744 -0.00193737 -0.030941345
0.44983256 -0.00193737 -0.034991592
0.45544067 -0.00193737 -0.036696494
0.46960211 -0.00193737 -0.031505227
0.47096589 -0.00193737 -0.032794271
0.40243936 0.0032416061 -0.038022101
0.44559404 0.0098161772 -0.031894695
-0.46136153 -0.015735 -0.021166425
-0.44052455 -0.015735 -0.029346306
-0.40982914 -0.015735 -0.028833661
-0.3707341 -0.015735 -0.025525779
-0.26095024 -0.015735 -0.02820134
-0.25653815 -0.015735 -0.020979606
-0.21250376 -0.015735 -0.023744989
-0.17164686 -0.015735 -0.027181551
-0.1276027 -0.015735 -0.02151514
-0.022117656 -0.015735 -0.029150354
-0.0029199459 -0.015735 -0.020305108
0.089029446 -0.015735 -0.023671582
0.11360767 -0.015735 -0.028752083
0.14747302 -0.015735 -0.020672172
0.15896265 -0.015735 -0.023594305
0.20321073 -0.015735 -0.027455535
0.23749082 -0.015735 -0.025937214
0.3474569 -0.015735 -0.022288624
-0.45823854 -0.00193737 -0.024484212
-0.43387422 -0.00193737 -0.026289504
-0.41689467 -0.00193737 -0.023056349
-0.37938705 -0.00193737 -0.028632937
-0.31761101 -0.00193737 -0.02632232
-0.3055636 -0.00193737 -0.025315408
-0.24604511 -0.00193737 -0.020873835
-0.20187697 -0.00193737 -0.021815414
-0.10675217 -0.00193737 -0.023486909
-0.081998736 -0.00193737 -0.027258314
-0.068738654 -0.00193737 -0.024076879
-0.05798474 -0.00193737 -0.020835534
-0.019004941 -0.00193737 -0.026656445
0.00034349412 -0.00193737 -0.027921898
0.081944264 -0.00193737 -0.029036444
0.11125166 -0.00193737 -0.026750887
0.1241815 -0.00193737 -0.028097428
0.14003481 -0.00193737 -0.02462904
0.21924311 -0.00193737 -0.023459859
0.3600058 -0.00193737 -0.029389758
0.37657064 -0.00193737 -0.027788088
0.39767337 -0.00193737 -0.024829406
0.41057727 -0.00193737 -0.029711766
0.39545107 0.0021769735 -0.02960733
0.40491566 0.0036188141 -0.025180709
0.45271525 0.010901175 -0.029687015
-0.48081148 -0.015735 -0.019029159
-0.47074127 -0.015735 -0.012049175
-0.44193077 -0.015735 -0.015394299
-0.42727944 -0.015735 -0.016475584
-0.36257836 -0.015735 -0.017428372
-0.35304835 -0.015735 -0.012013397
-0.31188831 -0.015735 -0.015911441
-0.29603356 -0.015735 -0.010666293
-0.2450957 -0.015735 -0.014979262
-0.19029544 -0.015735 -0.013057249
-0.15191634 -0.015735 -0.019582666
-0.14245465 -0.015735 -0.017294165
-0.1356217 -0.015735 -0.017889159
-0.052019045 -0.015735 -0.01552382
-0.025902759 -0.015735 -0.012107699
0.0029994005 -0.015735 -0.014307165
0.023737052 -0.015735 -0.012654804
0.15086886 -0.015735 -0.01450607
0.25599441 -0.015735 -0.016193002
0.32772347 -0.015735 -0.015136006
0.45222771 -0.015735 -0.015053755
-0.44064882 -0.00193737 -0.016113739
-0.38004375 -0.00193737 -0.016288631
-0.32276797 -0.00193737 -0.01103045
-0.26483256 -0.00193737 -0.016323492
-0.19449206 -0.00193737 -0.017659776
-0.17890009 -0.00193737 -0.015784532
-0.12190774 -0.00193737 -0.014689304
-0.11024928 -0.00193737 -0.01809261
-0.070095725 -0.00193737 -0.015626639
0.0058968812 -0.00193737 -0.011444807
0.14996338 -0.00193737 -0.010563444
0.15446447 -0.00193737 -0.018261187
0.19328229 -0.00193737 -0.011779396
0.23260945 -0.00193737 -0.017542243
0.33546481 -0.00193737 -0.014415875
0.3423143 -0.00193737 -0.017422957
0.44930506 -0.00193737 -0.019484797
0.45742348 -0.00193737 -0.019105349
0.46698672 -0.00193737 -0.015432717
0.45411763 0.011114885 -0.016976615
-0.37030736 -0.015735 -0.00044541986
-0.32306683 -0.015735 -0.0018864432
-0.25132227 -0.015735 -0.008156131
-0.23569195 -0.015735 -0.0061269631
-0.15459597 -0.015735 -0.0010998423
-0.10295299 -0.015735 -0.0074650864
-0.07637912 -0.015735 -2.3237022e-05
-0.069901913 -0.015735 -0.0020895547
0.052695885 -0.015735 -0.0021044856
0.099872723 -0.015735 -0.0074231415
0.16397169 -0.015735 -0.0044541964
0.23014578 -0.015735 -0.0079301298
0.24329945 -0.015735 -0.005470369
0.26426756 -0.015735 -0.00029423088
0.36042339 -0.015735 -0.0095344801
0.42564261 -0.015735 -0.0051974291
0.44258481 -0.015735 -0.003280031
0.46546561 -0.015735 -0.0011110378
0.47813296 -0.015735 -0.0075781834
-0.42495874 -0.00193737 -0.0063653574
-0.3481884 -0.00193737 -0.0033669327
-0.24802038 -0.00193737 -0.0087991618
-0.23819719 -0.00193737 -0.0074120862
-0.1014315 -0.00193737 -0.0074506141
0.05265246 -0.00193737 -0.0063306266
0.088302031 -0.00193737 -0.0031952756
0.14005007 -0.00193737 -0.0079568885
0.15597524 -0.00193737 -0.0041838661
0.17203489 -0.00193737 -0.0049999673
0.21985815 -0.00193737 -0.0085043367
0.35314524 -0.00193737 -0.0060206838
0.38981059 -0.00193737 -0.0088556688
0.47774678 -0.00193737 -0.0053329808
0.41501772 0.005157969 -0.0052880021
0.44181615 0.0092407186 -0.0015579425
-0.46659529 -0.015735 0.0072462307
-0.40481156 -0.015735 0.00051925244
-0.36324537 -0.015735 0.00018152109
-0.27474588 -0.015735 0.004125305
-0.25318229 -0.015735 0.0058378475
-0.24574214 -0.015735 0.00801853
-0.17515922 -0.015735 0.0027553777
-0.092218161 -0.015735 0.0047017434
0.015360115 -0.015735 0.0076310625
0.058410604 -0.015735 0.0028886576
0.24775779 -0.015735 0.0040029343
0.2764467 -0.015735 0.0056185075
0.28523597 -0.015735 0.0097083468
0.40068394 -0.015735 0.0028440263
0.47015625 -0.015735 0.0080467146
0.48466152 -0.015735 0.0040242025
-0.48325136 -0.00193737 0.0049030874
-0.45250434 -0.00193737 0.00023645302
-0.44016588 -0.00193737 0.0063085682
-0.37336731 -0.00193737 0.004552186
-0.35076374 -0.00193737 0.0078286109
-0.23279434 -0.00193737 0.0043959245
-0.19814546 -0.00193737 0.0095569547
-0.17079367 -0.00193737 0.0078298934
-0.16122246 -0.00193737 0.0074111968
-0.12996392 -0.00193737 0.0061067678
-0.086096942 -0.00193737 0.0046679452
-0.073183924 -0.00193737 0.009990368
-0.023182578 -0.00193737 0.00047676079
0.083293051 -0.00193737 0.0067226607
0.16570173 -0.00193737 0.0051718447
0.18139179 -0.00193737 0.0051233806
0.21107373 -0.00193737 0.0023544729
0.31301373 -0.00193737 0.007843446
0.34277821 -0.00193737 0.0069996901
0.35561445 -0.00193737 0.0043109134
0.48497826 -0.0065968893 0.006105084
0.41021863 0.00442681 0.0083368719
0.42273766 0.006333957 0.003754802
0.47575378 0.014411133 0.0063122204
-0.48192421 -0.015735 0.011864366
-0.43427056 -0.015735 0.018454069
-0.42100722 -0.015735 0.015550217
-0.36324719 -0.015735 0.015172389
-0.26497012 -0.015735 0.01648093
-0.2598041 -0.015735 0.017245723
-0.21678959 -0.015735 0.01821324
-0.11059038 -0.015735 0.01728853
-0.063664585 -0.015735 0.016783629
-0.025849495 -0.015735 0.017485848
0.0046994891 -0.015735 0.01711045
0.076667726 -0.015735 0.013224315
0.083165079 -0.015735 0.018755469
0.11870808 -0.015735 0.012594108
0.14260019 -0.015735 0.015168469
0.27495196 -0.015735 0.018963112
0.30241114 -0.015735 0.016929001
-0.48333159 -0.0052017579 0.017746402
-0.44483498 -0.00193737 0.018861579
-0.42944279 -0.00193737 0.01920699
-0.29406649 -0.00193737 0.01347399
-0.19160557 -0.00193737 0.01386714
-0.0092195552 -0.00193737 0.011438604
0.11294538 -0.00193737 0.016561994
0.1429047 -0.00193737 0.01948259
0.20401812 -0.00193737 0.015521998
0.23502953 -0.0019373702 0.017661039
0.26640338 -0.00193737 0.012024231
0.28762829 -0.00193737 0.018721357
0.29877388 -0.00193737 0.014783472
0.34426233 -0.00193737 0.010938045
0.37432379 -0.00193737 0.013776723
0.38081899 -5.2224146e-05 0.014957357
0.44354689 -0.00193737 0.019303229
0.46169424 -0.00193737 0.016446987
0.48328108 -0.0040332694 0.01899695
0.40959287 0.0043314761 0.010630019
0.42064351 0.006014952 0.016544167
0.44888484 0.010317565 0.017337205
0.47740582 0.014662676 0.010385872
0.48252562 0.012644523 0.016348829
-0.36601323 -0.015735 0.025151368
-0.33957094 -0.015735 0.022834335
-0.30636504 -0.015735 0.026384197
-0.28637967 -0.015735 0.027574882
-0.27316904 -0.015735 0.026865739
-0.20145279 -0.015735 0.020108245
-0.19233711 -0.015735 0.020169688
-0.1498227 -0.015735 0.025268704
-0.085887529 -0.015735 0.025323445
-0.051264711 -0.015735 0.023915039
-0.016435366 -0.015735 0.023048736
0.020425413 -0.015735 0.023690162
0.041556172 -0.015735 0.027867371
0.22245322 -0.015735 0.021600503
0.23765029 -0.015735 0.029911753
0.37787563 -0.015735 0.028134493
0.48227185 -0.01440476 0.025927208
-0.47493261 -0.00193737 0.02406059
-0.45415092 -0.00193737 0.020807125
-0.4268612 -0.00193737 0.029288556
-0.30646142 -0.00193737 0.024691401
-0.29970744 -0.00193737 0.026240153
-0.10332395 -0.00193737 0.024765288
-0.054537207 -0.00193737 0.026341259
-0.03701368 -0.00193737 0.027124099
-0.024429929 -0.00193737 0.023543369
0.022128958 -0.00193737 0.023308828
0.043695137 -0.00193737 0.024843749
0.13918705 -0.00193737 0.029879577
0.21638204 -0.00193737 0.023660926
0.24225059 -0.00193737 0.026277758
0.29171509 -0.00193737 0.024947006
0.34447482 -0.00193737 0.024514396
0.36728096 -0.00193737 0.026614152
0.37630031 -0.00193737 0.026198924
0.42367896 -0.00193737 0.026703116
0.47076523 -0.00193737 0.021496125
0.42465767 0.0066265808 0.024718039
0.48078918 0.012105232 0.029846251
-0.3895053 -0.015735 0.036314189
-0.33598152 -0.015735 0.037943818
-0.27457306 -0.015735 0.032130431
-0.24673279 -0.015735 0.036089592
-0.11326399 -0.015735 0.038442057
-0.063427806 -0.015735 0.033908617
0.075692855 -0.015735 0.030271811
0.11568984 -0.015735 0.032509103
0.12192822 -0.015735 0.030152276
0.14977801 -0.015735 0.032316916
0.16227987 -0.015735 0.031233817
0.17368871 -0.015735 0.039679192
0.20518255 -0.015735 0.038459867
0.23806824 -0.015735 0.03755267
0.27405173 -0.015735 0.031772785
0.28468829 -0.015735 0.037130922
0.37080121 -0.015735 0.039879344
0.39997941 -0.015735 0.030559912
0.43694067 -0.015735 0.033642597
0.45155364 -0.015735 0.031039655
-0.4149389 -0.00193737 0.035390895
-0.24120416 -0.00193737 0.03747661
-0.18768254 -0.00193737 0.03702262
-0.17232612 -0.00193737 0.037438292
-0.023018867 -0.00193737 0.03835009
-0.016053528 -0.00193737 0.032081224
-0.0096147358 -0.00193737 0.034141973
0.015574947 -0.00193737 0.034556035
0.056748599 -0.00193737 0.03516962
0.07347928 -0.00193737 0.033098847
0.0954853 -0.00193737 0.032104664
0.16379586 -0.0019373699 0.031870976
0.29877889 -0.00193737 0.032314111
0.32336879 -0.00193737 0.035592094
0.3445555 -0.00193737 0.038775958
0.36681682 -0.00193737 0.037241884
0.37299776 -0.0013423497 0.037182521
0.40575802 -0.00193737 0.034241848
0.4215292 -0.00193737 0.034519818
0.47998685 0.0038155881 0.033655614
0.47764164 0.012529537 0.037724048
-0.47628662 -0.014564848 0.043553054
-0.36377165 -0.015735 0.041297801
-0.32673025 -0.015735 0.046227481
-0.28801185 -0.015735 0.046880286
-0.192268 -0.015735 0.0460997
0.016055947 -0.015735 0.046300706
0.17227601 -0.015735 0.048124269
0.18523356 -0.015735 0.042790443
0.22829829 -0.015735 0.042519592
0.23493066 -0.015735 0.04714423
0.26591885 -0.015735 0.049095694
0.27160376 -0.015735 0.044968743
0.30861557 -0.015735 0.046293765
0.31264061 -0.015735 0.043155078
0.32400158 -0.015735 0.044851478
0.35175624 -0.015735 0.049118876
0.41428065 -0.015735 0.040612277
0.4236283 -0.015735 0.040610872
0.43147242 -0.015735 0.045753904
0.4773508 -0.013366329 0.041071504
-0.37222826 -0.00193737 0.042454615
-0.35775337 -0.00193737 0.041913413
-0.33098328 -0.0019373702 0.046890687
-0.32790813 -0.00193737 0.041274957
-0.31078741 -0.00193737 0.042799816
-0.25633189 -0.00193737 0.049328472
-0.18496053 -0.00193737 0.048288953
-0.17025392 -0.00193737 0.048103008
-0.11517153 -0.00193737 0.048307981
-0.091124818 -0.00193737 0.047305204
-0.086880669 -0.00193737 0.043258812
-0.032792874 -0.00193737 0.048937172
0.051791765 -0.00193737 0.049832545
0.14304948 -0.00193737 0.048401386
0.19787709 -0.00193737 0.045417905
0.22265804 -0.00193737 0.044836529
0.25755879 -0.00193737 0.040408961
0.28187042 -0.00193737 0.04776917
0.2949658 -0.00193737 0.04603979
0.47514492 0.012118664 0.043826833
-0.34334099 -0.015735 0.05632554
-0.30440974 -0.015735 0.05261704
-0.27687618 -0.015735 0.053345323
-0.19729559 -0.015735 0.051657222
-0.11462352 -0.015735 0.057059016
-0.090482078 -0.015735 0.050813165
-0.066030756 -0.015735 0.058916599
0.0085150283 -0.015735 0.05785742
0.040150803 -0.015735 0.054643601
0.11397113 -0.015735 0.056132033
0.2739976 -0.015735 0.057976194
0.28434259 -0.015735 0.058270607
0.33413401 -0.015735 0.054736417
0.35259849 -0.015735 0.057141669
0.433339 -0.015735 0.057241093
0.46867535 -0.015735 0.055507798
-0.4245733 -0.00193737 0.056285821
-0.38528273 -0.00193737 0.057155848
-0.34318489 -0.00193737 0.050504796
-0.2800805 -0.00193737 0.054582782
-0.27111888 -0.00193737 0.055127729
-0.26138747 -0.00193737 0.050163426
-0.10890287 -0.00193737 0.057735544
-0.095397249 -0.00193737 0.055841312
0.010992952 -0.00193737 0.05962671
0.12864402 -0.00193737 0.056054961
0.13469817 -0.00193737 0.05653229
0.15271819 -0.00193737 0.056000464
0.23325209 -0.0019373699 0.053002417
0.29549894 -0.00193737 0.050158147
0.30527371 -0.00193737 0.056318782
0.31924263 -0.00193737 0.052814901
0.32663545 -0.0019373699 0.059705965
0.37302181 -0.0012402007 0.057585873
0.40918973 0.0042700209 0.052947912
0.41231266 0.0047458219 0.053311013
0.4224689 0.0062931799 0.059280887
0.43400541 0.0080505358 0.057708979
-0.43803942 -0.015735 0.063214935
-0.42364195 -0.015735 0.066817023
-0.36720854 -0.015735 0.061202247
-0.29639909 -0.015735 0.066123389
0.01487839 -0.015735 0.066701137
0.049084917 -0.015735 0.061141163
0.13415173 -0.015735 0.061899137
0.15281487 -0.015735 0.060850304
0.23532237 -0.015735 0.063383929
0.29671958 -0.015735 0.060729742
0.41321808 -0.015735 0.061398767
0.43465814 -0.015735 0.061379451
-0.44978416 -0.00193737 0.06244722
-0.43042108 -0.00193737 0.066679277
-0.37022555 -0.00193737 0.064688742
-0.26462716 -0.00193737 0.061660282
-0.24398336 -0.00193737 0.065892026
-0.2232127 -0.00193737 0.062080383
-0.094043292 -0.00193737 0.060966674
-0.057936795 -0.00193737 0.066867523
-0.022309309 -0.00193737 0.065450281
-0.0089681149 -0.00193737 0.062328026
0.040738985 -0.00193737 0.067813441
0.073827952 -0.00193737 0.063237369
0.12139148 -0.00193737 0.06963861
0.14492962 -0.00193737 0.066946432
0.23662885 -0.00193737 0.068533204
0.28460547 -0.00193737 0.06183254
0.29550225 -0.00193737 0.06534747
0.37616968 -0.00076061802 0.068081327
0.38367975 -0.00193737 0.060414664
0.41153309 -0.00193737 0.067264281
0.46780849 -0.0071198959 0.061604962
0.40742821 0.0040016361 0.062186308
0.41943312 0.0058306423 0.06047418
-0.41038841 -0.015735 0.078924924
-0.38378012 -0.015735 0.07655447
-0.34131289 -0.015735 0.071580581
-0.28654921 -0.015735 0.079463057
-0.26106757 -0.015735 0.075687416
-0.24447639 -0.015735 0.076354861
-0.19825691 -0.015735 0.078438677
-0.17143601 -0.015735 0.079102211
-0.13599172 -0.015735 0.079323128
0.034931187 -0.015735 0.075648263
0.051856391 -0.015735 0.072652489
0.068000145 -0.015735 0.076905526
0.16357894 -0.015735 0.07311523
0.24716598 -0.015735 0.079368345
0.2894671 -0.015735 0.076834157
0.34281826 -0.015735 0.071724772
0.36291036 -0.015735 0.073881194
0.37311345 -0.015735 0.074138895
0.42838091 -0.015735 0.071972989
-0.4571881 -0.0053226929 0.075206749
-0.44359598 -0.00193737 0.074955553
-0.38168502 -0.00193737 0.076919988
-0.23713826 -0.00193737 0.076198347
-0.22629225 -0.00193737 0.071631268
-0.21005572 -0.00193737 0.077251479
-0.20483595 -0.00193737 0.078860886
-0.15751538 -0.00193737 0.079118617
-0.11500542 -0.00193737 0.072636008
-0.082476377 -0.00193737 0.072339863
-0.031475574 -0.00193737 0.071664147
-0.028787509 -0.00193737 0.073170185
0.0042306706 -0.00193737 0.07253097
0.034360468 -0.00193737 0.079230279
0.066591695 -0.0019373699 0.074142523
0.074664719 -0.00193737 0.073875211
0.15411973 -0.00193737 0.078752346
0.40212065 0.0031929873 0.07476449
0.43273172 0.0078566447 0.078674734
0.44334626 0.0094738547 0.079145662
0.4579823 0.0047484506 0.07375104
-0.38719925 -0.015735 0.088019624
-0.36245838 -0.015735 0.081051931
-0.15988269 -0.015735 0.089531168
-0.00069196522 -0.015735 0.089293197
0.11172628 -0.015735 0.085346192
0.12711744 -0.015735 0.08353769
0.15679245 -0.015735 0.085225195
0.16794735 -0.015735 0.088542432
0.2152791 -0.015735 0.084523231
0.26130056 -0.015735 0.085057877
0.41078171 -0.015735 0.089581281
0.4490037 -0.015735 0.083802395
-0.45241386 -0.0072968025 0.081038222
-0.31550461 -0.00193737 0.087193601
-0.21823059 -0.00193737 0.088432685
-0.14503443 -0.0019373702 0.080453604
-0.030361593 -0.00193737 0.085212469
-0.02797927 -0.00193737 0.089425303
0.13442861 -0.00193737 0.081160806
0.18655288 -0.00193737 0.085340366
0.28624144 -0.00193737 0.08342056
0.30829886 -0.00193737 0.083039984
0.33382586 -0.00193737 0.08160729
0.35539818 -0.00193737 0.087233104
0.37003636 -0.0016950624 0.085860915
0.38080502 -5.443523e-05 0.085869312
0.44228965 -0.0073250127 0.089971557
0.41582024 0.0052801063 0.0819313
0.43444008 0.0081169922 0.085280545
-0.28396365 -0.015735 0.09104909
-0.25892496 -0.015735 0.098548949
-0.13025858 -0.015735 0.090856738
-0.12417436 -0.015735 0.09473975
-0.030094735 -0.015735 0.097595766
-0.016923323 -0.015735 0.090792015
0.047569349 -0.015735 0.090520583
0.23541686 -0.015735 0.097737364
0.27458116 -0.015735 0.097502865
0.28213656 -0.015735 0.096329644
0.32534495 -0.015735 0.098736279
-0.35401851 -0.00193737 0.098923609
-0.30312672 -0.00193737 0.09401834
-0.22368461 -0.00193737 0.091827899
-0.034342974 -0.00193737 0.096304677
0.083669432 -0.00193737 0.091481678
0.13632748 -0.0019373702 0.094037682
0.16358814 -0.00193737 0.095391713
0.18263993 -0.00193737 0.097201109
0.32290033 -0.00193737 0.098851398
0.42931911 -0.0036714054 0.099924006
-0.42211127 -0.015735 0.10293518
-0.40213287 -0.015735 0.10820463
-0.25903827 -0.015735 0.10602222
-0.15732265 -0.015735 0.10102302
-0.14295325 -0.015735 0.10407446
-0.1077345 -0.015735 0.10561066
-0.067690149 -0.015735 0.10124037
-0.0042410456 -0.015735 0.10429485
0.012937456 -0.015735 0.10489767
0.020980932 -0.015735 0.10571961
0.14674814 -0.015735 0.10406119
0.15602274 -0.015735 0.10285632
0.17766671 -0.015735 0.10034372
0.19589287 -0.015735 0.10079587
0.28383836 -0.015735 0.10528052
0.33282387 -0.015735 0.10715679
0.3609482 -0.015735 0.10265101
-0.40480554 -0.00193737 0.10481629
-0.30922344 -0.00193737 0.10331927
-0.29230216 -0.00193737 0.10567792
-0.25665382 -0.00193737 0.10152454
-0.20495029 -0.00193737 0.10252488
-0.14584599 -0.00193737 0.10150438
-0.060138874 -0.00193737 0.10543544
0.0024736226 -0.00193737 0.10914534
0.016029939 -0.00193737 0.10285713
0.093562327 -0.00193737 0.10292812
0.10951319 -0.00193737 0.10764749
0.14716659 -0.00193737 0.10043579
0.17320323 -0.00193737 0.10759703
0.33524466 -0.00193737 0.10162102
0.40966845 -0.00193737 0.10219856
0.41231084 -0.0017455836 0.10774175
-0.39384571 -0.015735 0.11316212
-0.37911671 -0.013551462 0.11611076
-0.34973082 -0.013492497 0.117337
-0.32842636 -0.015735 0.11224277
-0.31174892 -0.014602592 0.117337
-0.18671551 -0.010589205 0.117337
-0.17808458 -0.015735 0.11303943
-0.13917485 -0.014077108 0.117337
-0.048216268 -0.015735 0.11466187
0.0022373013 -0.015735 0.11034063
0.010215223 -0.015735 0.11059792
0.06482783 -0.014922766 0.117337
0.075799361 -0.012839481 0.117337
0.082082301 -0.012080111 0.117337
0.10135128 -0.010965302 0.117337
0.11629322 -0.011316406 0.117337
0.12572925 -0.013104611 0.11733701
0.24090773 -0.015735 0.11518102
0.25730279 -0.014495758 0.11524299
0.28933918 -0.015735 0.11692959
0.30576593 -0.012637011 0.117337
0.32329005 -0.015735 0.1127758
0.38457954 -0.010268259 0.11521253
0.39045042 -0.015735 0.11378425
-0.40379077 -0.0051351325 0.11093175
-0.35515517 -0.0048217704 0.117337
-0.31884155 -0.00193737 0.11655594
-0.26286364 -0.0046493341 0.11509514
-0.21217051 -0.0047132126 0.117337
-0.20987649 -0.00193737 0.11301567
-0.14447895 -0.0097058304 0.117337
-0.12712678 -0.0097176582 0.117337
-0.069578588 -0.0093860608 0.117337
0.012107458 -0.0068048206 0.117337
0.036364883 -0.0046181707 0.117337
0.04845576 -0.0032772936 0.117337
0.051435906 -0.0079579987 0.117337
0.066146284 -0.0041713277 0.117337
0.15446529 -0.00193737 0.11370637
0.20709662 -0.00398476 0.117337
0.2100528 -0.0060352697 0.117337
0.22046331 -0.00193737 0.11404397
0.23755187 -0.0058478639 0.117337
0.29445711 -0.0062702838 0.117337
0.36819533 -0.00193737 0.1168789
0.37701461 -0.0092500579 0.11620869
