# .PCD v0.7 - Point Cloud Data file format
VERSION 0.7
FIELDS x y z
SIZE 4 4 4
TYPE F F F
COUNT 1 1 1
WIDTH 893
HEIGHT 1
VIEWPOINT 0 0 0 1 0 0 0
POINTS 893
DATA ascii
-0.16573824 -0.00067534402 -0.11096517
-0.13995317 -0.00067534402 -0.11008649
-0.05503659 -0.00067534402 -0.11020292
0.18821259 -0.00067534402 -0.11078787
0.21636972 -0.00067534402 -0.11002748
-0.27785164 0.0067918375 -0.111102
-0.25670546 0.0028891244 -0.111102
-0.24602623 0.0072257831 -0.11041483
-0.082481422 0.0020100994 -0.111102
-0.020204127 0.0044217054 -0.111102
0.054693483 0.0060808947 -0.11006074
0.093364269 0.0059336689 -0.11027523
0.13490754 0.0006795706 -0.111102
0.19258599 0.00024614966 -0.111102
0.21210569 0.0033395977 -0.111102
0.29212338 0.0040519079 -0.11106476
0.20494969 -0.052350942 -0.105835
0.20345561 -0.036887407 -0.105835
0.23690778 -0.034902435 -0.1043191
-0.22847237 -0.029502966 -0.10583501
-0.21631028 -0.025679346 -0.10331442
0.21576607 -0.023930186 -0.105835
-0.2888453 -0.00067534402 -0.10185704
-0.19278935 -0.00067534402 -0.10680928
-0.15140024 -0.00067534402 -0.10758478
-0.035859682 -0.00067534402 -0.10026668
-0.02417329 -0.00067534402 -0.10811
0.065285288 -0.00067534402 -0.10226151
0.1288234 -0.00067534402 -0.10497579
0.15279685 -0.00067534402 -0.10367613
0.18775536 -0.00067534402 -0.10236053
0.2273293 -0.00067534402 -0.10701583
-0.27315009 0.0073290481 -0.1009074
-0.1484967 0.0068544727 -0.1004093
-0.10455454 0.0066871778 -0.10405688
-0.070635483 0.006558042 -0.10859449
-0.030972332 0.0064070383 -0.10645275
0.034878507 0.0061563337 -0.10347634
0.10604756 0.0058853817 -0.10839594
0.2304188 0.0054118801 -0.10081666
-0.36063746 0.017028343 -0.1045237
-0.357434 0.019535962 -0.10712999
-0.34108132 0.015468398 -0.10968263
-0.33793163 0.018245969 -0.10223751
0.33715731 0.018263247 -0.10296099
-0.3896066 0.026452836 -0.10000361
-0.35737661 0.023714747 -0.10292687
0.21844545 -0.059074402 -0.098126456
0.22718704 -0.056298036 -0.09792611
-0.21006414 -0.047143932 -0.09861429
0.22610836 -0.043189228 -0.096496545
0.21597552 -0.026018273 -0.094593287
0.23312348 -0.0240502 -0.092245452
-0.24892724 -0.00067534402 -0.092701294
-0.21933898 -0.00067534402 -0.093990177
-0.19851628 -0.00067534402 -0.094570547
-0.15719925 -0.00067534402 -0.094773449
-0.14850609 -0.00067534402 -0.097208649
-0.031366155 -0.00067534402 -0.099981926
-0.018223941 -0.00067534402 -0.091108359
-0.0035506934 -0.00067534402 -0.093286134
0.053689189 -0.00067534402 -0.092810571
0.12558937 -0.00067534402 -0.09546259
0.16106413 -0.00067534402 -0.0946775
0.19400661 -0.00067534402 -0.096320301
0.25963798 -0.00067534402 -0.090025276
0.26787499 -0.00067534402 -0.098410353
0.2836552 -0.00067534402 -0.096909337
-0.30761579 0.0021159099 -0.09415859
-0.26308373 0.0072907237 -0.097094476
-0.15129344 0.00686512 -0.099826045
-0.12000796 0.0067460109 -0.091036774
-0.082097031 0.0066016782 -0.091047935
-0.046306051 0.0064654159 -0.090052262
-0.0077853166 0.006318762 -0.096271038
0.060477786 0.0060588731 -0.094633564
0.16917843 0.0056450325 -0.09648411
0.25258029 0.0053275079 -0.097818725
-0.31542587 0.011916258 -0.093314618
0.32102528 0.01343838 -0.095499784
0.36019564 0.019306101 -0.090732671
-0.38174915 0.022965856 -0.090689175
-0.37464452 0.020967724 -0.091168523
0.37203163 0.028693831 -0.092587486
-0.40888911 0.035979927 -0.090670317
-0.21414933 -0.057639144 -0.085330591
0.21942011 -0.052337781 -0.087747291
-0.22041613 -0.047249764 -0.0882442
0.20342609 -0.047666471 -0.086946003
0.23677728 -0.040434856 -0.087763622
-0.20233397 -0.031651918 -0.08735203
0.20733586 -0.033798777 -0.08177717
-0.23105823 -0.023949755 -0.087268427
0.21517882 -0.020687409 -0.085330606
0.2126343 -0.015669394 -0.085383661
-0.28587607 -0.00067534402 -0.08701098
-0.27113432 -0.00067534402 -0.084605888
-0.2246667 -0.00067534402 -0.083042659
-0.15926392 -0.00067534402 -0.086115785
-0.14887303 -0.00067534402 -0.086640395
-0.13106015 -0.00067534402 -0.085562833
-0.065090343 -0.00067534402 -0.086756848
-0.001489684 -0.00067534402 -0.08781682
0.10357293 -0.00067534402 -0.082938902
0.23030895 -0.00067534402 -0.081962101
-0.31284136 0.0035856322 -0.083722502
-0.30013683 0.0061552078 -0.08661969
-0.25007093 0.007241182 -0.08823441
-0.24567533 0.0072244471 -0.083176225
-0.22388783 0.0071414988 -0.082328379
-0.17820187 0.0069675646 -0.0833482
-0.13732904 0.0068119559 -0.083626203
-0.090171963 0.0066324212 -0.089048691
-0.028052166 0.0063959211 -0.08868438
0.044290192 0.006120502 -0.085997313
0.10797378 0.005878048 -0.087091774
0.18589729 0.0055813808 -0.085381165
0.19935051 0.0055301622 -0.082575195
0.21926928 0.0054543284 -0.086193718
0.29645094 0.0030275532 -0.082539208
0.31641257 0.0062113376 -0.087443307
-0.31752962 0.012507936 -0.086885616
0.30957949 0.010015096 -0.085908458
0.3425678 0.019881442 -0.082244873
0.3575803 0.018523881 -0.084136598
0.36231843 0.019941021 -0.083500519
-0.37840968 0.029630095 -0.084816545
0.37983227 0.025179265 -0.084489651
0.38472885 0.026643798 -0.084844992
-0.40900475 0.034432959 -0.082268804
0.40539148 0.032823615 -0.083628729
0.41844016 0.040776484 -0.081893764
-0.20746802 -0.044659264 -0.07342156
-0.21481535 -0.025597334 -0.071959019
0.21649016 -0.025644403 -0.076972306
-0.28002086 -0.00067534402 -0.072422259
-0.27716005 -0.00067534402 -0.079842865
-0.24885443 -0.00067534402 -0.070778914
-0.23611943 -0.00067534402 -0.075649448
-0.1873965 -0.00067534402 -0.071675695
-0.15359831 -0.00067534402 -0.079826795
-0.14645967 -0.00067534402 -0.074508451
-0.1301146 -0.00067534402 -0.076870367
-0.077087492 -0.00067534402 -0.07250163
-0.065927729 -0.00067534402 -0.07883931
-0.053744249 -0.00067534402 -0.07795082
-0.0075777099 -0.00067534402 -0.072002947
0.011363447 -0.00067534402 -0.075319678
0.056511864 -0.00067534402 -0.077477284
0.08302699 -0.00067534402 -0.07694754
0.17052628 -0.00067534402 -0.074287638
0.21050128 -0.00067534402 -0.07941962
0.24160565 -0.00067534402 -0.07547424
0.2728596 -0.00067534402 -0.070601292
-0.28530946 0.0073753409 -0.076346897
-0.25815082 0.0072719436 -0.075354777
-0.20628589 0.0070744855 -0.071029231
-0.13025367 0.0067850184 -0.079633802
-0.06099043 0.0065213228 -0.07794489
0.16284142 0.0056691584 -0.07361047
0.18647152 0.0055791945 -0.078158394
0.2482127 0.0053441362 -0.079117216
0.28935662 0.0051874947 -0.076322958
0.29530704 0.0038282173 -0.070405409
0.30728456 0.0034813404 -0.074003659
0.3141478 0.0055339951 -0.073869839
-0.35845381 0.016414206 -0.070288062
-0.34813359 0.013511705 -0.074317604
-0.32041627 0.01331981 -0.071755834
-0.31849355 0.012779037 -0.074449286
0.32380295 0.014269142 -0.073970497
0.33353817 0.011333249 -0.074523486
0.35273156 0.02292135 -0.070556819
0.3690885 0.021965899 -0.071175292
0.3784869 0.024776878 -0.07135193
-0.43921009 0.039540958 -0.074355543
-0.42429522 0.034931779 -0.070101865
-0.40011352 0.035734016 -0.078088053
0.37773594 0.030399952 -0.07700602
0.39463675 0.0325309 -0.075314313
0.41952971 0.042899333 -0.077574179
0.43037698 0.040296186 -0.071061075
0.22399433 -0.045866799 -0.063737482
-0.29836145 -0.00067534402 -0.068960249
-0.2771146 -0.00067534402 -0.06342455
-0.21382479 -0.00067534402 -0.061371304
-0.20529312 -0.00067534402 -0.063578419
-0.18379937 -0.00067534402 -0.068411253
-0.17550188 -0.00067534402 -0.065852925
-0.049770016 -0.00067534402 -0.067360513
0.02030874 -0.00067534402 -0.062805936
0.086239025 -0.00067534402 -0.062255077
0.17088281 -0.00067534402 -0.063687831
0.23165825 -0.00067534402 -0.06399028
-0.3001079 0.0062106438 -0.063780464
-0.29616994 0.0074166884 -0.064650163
-0.28334445 0.0073678596 -0.062808238
-0.25895303 0.0072749974 -0.063208871
-0.21588066 0.0071110143 -0.068807542
0.010610566 0.0062487256 -0.062816843
0.092626326 0.0059364783 -0.066957861
0.1269851 0.0058056694 -0.064348087
0.16581327 0.0056578438 -0.062251933
0.17662644 0.0056166765 -0.065925144
0.23787631 0.0053834878 -0.067236587
0.24961129 0.0053388113 -0.067838795
0.25912958 0.0053025736 -0.065612115
0.29755926 0.0022517918 -0.064249441
0.31837672 0.0067987759 -0.063914187
-0.34505358 0.012645444 -0.063021816
-0.33600599 0.017704388 -0.0651002
-0.32031864 0.013292341 -0.062617205
0.32054839 0.013295745 -0.063728616
0.35701913 0.01835604 -0.062778063
0.37551624 0.029736053 -0.067672655
0.3815822 0.025702666 -0.064530902
0.42987457 0.045993309 -0.062289514
-0.20866655 -0.045950629 -0.05933217
0.20717466 -0.034476686 -0.058470488
-0.26486102 -0.00067534402 -0.051596723
-0.24847396 -0.00067534402 -0.050393868
-0.22081633 -0.00067534402 -0.054495659
-0.19090083 -0.00067534402 -0.058680534
-0.17265368 -0.00067534402 -0.050021641
-0.10561114 -0.00067534402 -0.050938137
-0.053832464 -0.00067534402 -0.059260115
0.011237726 -0.00067534402 -0.059342831
0.25615144 -0.00067534402 -0.058497239
0.26544842 -0.00067534402 -0.055062611
-0.33000249 0.0084122624 -0.05480735
-0.30018601 0.0060609607 -0.055985652
-0.29819509 0.0074243988 -0.059888031
-0.27697542 0.0073436117 -0.053689502
-0.20921116 0.0070856223 -0.053297743
-0.13033991 0.0067853467 -0.052547902
-0.090171963 0.0066324212 -0.056775499
-0.072423674 0.0065648509 -0.057863884
-0.054977451 0.0064984295 -0.052851222
-0.0074537545 0.0063174991 -0.056240723
0.0094322115 0.0062532118 -0.053153165
0.061630096 0.0060544861 -0.056603067
0.10530614 0.0058882041 -0.059062406
0.13918549 0.0057592201 -0.052749995
0.16987598 0.0056423764 -0.050868466
0.30962715 0.010029347 -0.054015644
0.33203065 0.016729932 -0.052738756
-0.37551111 0.028814908 -0.056694008
-0.35671219 0.023527881 -0.058636218
0.36853889 0.021801513 -0.052436121
0.37011409 0.022272639 -0.05339459
-0.41495824 0.032305777 -0.059166566
0.38021779 0.031142257 -0.052352861
0.39322594 0.035032712 -0.054136246
0.41464406 0.035590835 -0.052012462
-0.45186332 0.046486814 -0.054063879
-0.45239705 0.050438665 -0.053953853
0.44543624 0.050647698 -0.056148559
0.21217337 -0.047200393 -0.0494873
0.2231103 -0.046621252 -0.043986466
-0.22558476 -0.038091041 -0.045904614
-0.20516397 -0.034599662 -0.047128409
0.21492326 -0.025874035 -0.048332822
-0.2796849 -0.00067534402 -0.049296387
-0.22450696 -0.00067534402 -0.043719511
-0.19963771 -0.00067534402 -0.045864388
-0.10364375 -0.00067534402 -0.047279775
-0.085231304 -0.00067534402 -0.042942554
-0.077176049 -0.00067534402 -0.044131756
0.092252962 -0.00067534402 -0.049857531
0.11543199 -0.00067534402 -0.040508177
-0.30224591 0.0072290674 -0.041722719
-0.25170064 0.0072473865 -0.043562666
-0.097408749 0.0066599725 -0.046176016
-0.024207257 0.0063812826 -0.040864214
0.069948681 0.0060228161 -0.048624679
0.1569337 0.0056916499 -0.043247588
0.30356839 0.008217263 -0.048819244
-0.37024987 0.019731767 -0.048975617
-0.35598081 0.015718691 -0.045473352
0.32492787 0.014605589 -0.043576911
-0.35932863 0.024263728 -0.041133162
0.36489165 0.023634493 -0.045616511
-0.42979684 0.036479101 -0.045280233
0.41740513 0.036416598 -0.048941649
0.41394868 0.041230239 -0.042279709
0.44760132 0.045447864 -0.049588688
0.45039937 0.046284739 -0.046196576
0.46342665 0.050341494 -0.04892613
-0.22287962 -0.046600923 -0.032643359
-0.20671415 -0.00067534402 -0.031821921
-0.18873782 -0.00067534402 -0.037167657
-0.17846377 -0.00067534402 -0.036697067
-0.091390908 -0.00067534402 -0.03009133
-0.088020891 -0.00067534402 -0.037262835
-0.067492321 -0.00067534402 -0.032305676
-0.052638557 -0.00067534402 -0.037279349
-0.038946137 -0.00067534402 -0.039570343
-0.010077449 -0.00067534402 -0.037629887
-0.0076146293 -0.00067534402 -0.039027102
0.051039968 -0.00067534402 -0.035283521
0.16410741 -0.00067534402 -0.030183019
0.17257273 -0.00067534402 -0.035304196
0.20122607 -0.00067534402 -0.03287787
0.23542927 -0.00067534408 -0.0371681
0.27717322 -0.00067534402 -0.036903143
0.28450295 -0.00067534402 -0.037184589
-0.30081135 0.0048625655 -0.038291261
-0.22210805 0.007134723 -0.032695465
-0.2007578 0.0070534386 -0.032202579
-0.15681911 0.0068861577 -0.03360305
0.024048679 0.0061975652 -0.034798525
0.072453007 0.0060132816 -0.032392807
0.11856396 0.0058377292 -0.038533174
0.13216022 0.0057859663 -0.034691829
0.24024653 0.0053744647 -0.035195023
-0.33240011 0.016690241 -0.036930628
0.33406115 0.01733722 -0.036512226
0.35794121 0.018631829 -0.037437238
-0.37237114 0.027931815 -0.030755071
0.3634482 0.026126605 -0.038880493
-0.47271973 0.048550963 -0.033694409
-0.43278703 0.044923127 -0.035511911
0.43378758 0.047163665 -0.039643653
-0.21740457 -0.060045294 -0.020206163
-0.22893141 -0.054508079 -0.021414652
-0.21802169 -0.059954949 -0.021968095
0.20383933 -0.053991202 -0.026489343
0.22486207 -0.058200408 -0.028345499
0.23320839 -0.048394524 -0.028345499
-0.20454407 -0.031573899 -0.027899984
0.19731288 -0.030536178 -0.023883663
-0.2298926 -0.029745346 -0.027366458
0.19863322 -0.026990514 -0.024554674
0.22694476 -0.021443916 -0.027854467
-0.2266902 -0.01862276 -0.025053496
0.21302958 -0.012831952 -0.028345499
0.22970396 -0.019899609 -0.028345499
-0.27958095 -0.00067534402 -0.023733715
-0.24934773 -0.00067534402 -0.026047368
-0.227378 -0.0064175054 -0.021982653
-0.21825485 -0.0054741381 -0.028230108
-0.20820606 -0.00067534402 -0.024760848
-0.10054949 -0.00067534402 -0.026989229
-0.057186 -0.00067534402 -0.028396375
-0.036746938 -0.00067534402 -0.024411101
0.09381254 -0.00067534402 -0.025834031
0.10380675 -0.00067534402 -0.020495599
0.21687901 -0.00067534402 -0.029808076
0.229375 -0.0065147839 -0.026493965
-0.31316182 0.0036757647 -0.027415216
-0.30187947 0.002815661 -0.027864683
-0.25624663 0.0072646942 -0.023138924
-0.070795335 0.0065586506 -0.027430706
-0.029132251 0.0064000329 -0.021346414
0.1382308 0.0057628546 -0.020585394
0.14949349 0.005719976 -0.025984863
0.20682207 0.0055017164 -0.028810252
0.23792623 0.0053832983 -0.026915878
0.26152772 0.0052934433 -0.020907998
0.30792093 0.0036716703 -0.025455348
0.31375289 0.011263303 -0.023528192
-0.34445211 0.020079844 -0.027110662
0.37507981 0.026681695 -0.022872461
-0.44178426 0.039850455 -0.027178992
-0.39653778 0.0347284 -0.022070948
0.39298174 0.034959681 -0.027747128
-0.46163949 0.045434613 -0.026169799
-0.45436847 0.043389663 -0.024427926
-0.43746948 0.046240106 -0.025799338
0.4333134 0.043123573 -0.023041779
0.46972391 0.057912156 -0.0298995
-0.23536356 -0.043390937 -0.015964132
-0.23546 -0.021712013 -0.015305674
-0.19798809 -0.024345368 -0.01600299
0.19982697 -0.024572887 -0.018051147
0.229375 -0.023126297 -0.016707867
-0.21247415 -0.014289901 -0.016629726
-0.203188 -0.013788784 -0.015737914
-0.2370488 -0.00067534402 -0.013062133
-0.21605031 -0.00067534402 -0.019704919
-0.18866226 -0.00067534402 -0.016662657
-0.17512631 -0.00067534402 -0.01762322
-0.1462653 -0.00067534402 -0.019012541
-0.11904891 -0.00067534402 -0.011037425
0.24461514 -0.00067534402 -0.010439182
0.28112215 -0.00067534402 -0.01348117
-0.32258195 0.0063252179 -0.015974276
-0.21561009 0.0071099838 -0.019433407
-0.17743275 0.006964637 -0.019468565
-0.15660904 0.0068853572 -0.012360143
-0.043992102 0.006456607 -0.01627719
0.044929266 0.0061180685 -0.013242766
0.075778276 0.0060006212 -0.011729328
0.1270929 0.0058052591 -0.010511465
0.16748455 0.005651481 -0.010998726
0.22968066 0.0054146908 -0.019032586
0.23446168 0.0053964886 -0.011905268
0.26048774 0.0052974029 -0.01291538
0.293387 0.0034944853 -0.011132888
-0.34162563 0.015483112 -0.012080078
-0.33734909 0.018082127 -0.018773394
-0.32561681 0.014782451 -0.015453328
0.33671206 0.015206292 -0.016036263
-0.3969295 0.027235236 -0.015370653
-0.44368416 0.040384799 -0.018714469
-0.43349016 0.045120873 -0.01794653
0.42079133 0.043276653 -0.010808378
-0.4801169 0.0518483 -0.01483218
0.22510624 -0.058448974 -0.007626622
-0.217556 -0.032544214 -0.0014185803
-0.19476482 -0.033984803 -0.0074499026
0.1964038 -0.037000969 -0.0076718358
-0.217556 -0.02789811 -0.0042126169
0.22363049 -0.02434352 -0.00020341948
0.20715776 -0.016843164 -0.0039307531
-0.25973335 -0.00067534402 -0.0054874457
-0.16633318 -0.00067534402 -0.0057527665
-0.058737844 -0.00067534402 -0.0081553496
-0.010332406 -0.00067534402 -0.0051043304
0.0125264 -0.00067534402 -0.00016245712
0.035074905 -0.00067534402 -0.0056005782
0.097946554 -0.00067534402 -0.0019276253
0.17295888 -0.00067534402 -0.0042053116
0.20518398 -0.0015722919 -0.0094692903
-0.29476705 0.0074113477 -0.0077687949
-0.2783829 0.0073489705 -0.0036286563
-0.22393392 0.0071416744 -0.00560355
-0.17074418 0.0069391723 -0.0022289287
-0.086554475 0.0066186483 -0.0025400147
-0.049140491 0.0064762076 -0.0099081136
0.0022298396 0.0062806327 -0.0099466778
0.046608102 0.0061116773 -0.0079958336
0.10400482 0.0058931583 -0.0056915786
0.16092697 0.0056764465 -0.0083828606
0.19313033 0.0055538435 -0.0021294635
0.21664694 0.0054643122 -0.0017419932
0.30332005 0.0022956459 -0.0064513143
-0.3637079 0.017891882 -0.0023069046
-0.35550159 0.015583908 -0.0045713149
0.33486956 0.017579 -0.0059513552
-0.40151829 0.028525829 -0.001005996
-0.39246821 0.025980514 -0.004620593
-0.38073719 0.022681244 -0.0039155595
-0.37078279 0.027485106 -0.00058561191
-0.4273088 0.03577935 -0.0036691166
-0.41913325 0.033479989 -0.0051464662
0.38417733 0.032326523 -0.00064894976
0.40096596 0.031500041 -0.0013961866
0.41788656 0.036560595 -0.0030605495
0.42214656 0.037834652 -0.0088647753
-0.46907887 0.047526952 -0.0061347391
-0.42277622 0.042107552 -0.0026352443
0.44817156 0.045618422 -0.0073322929
0.45852461 0.05456239 -0.0050320681
0.46075717 0.055230159 -0.0067400415
-0.22737801 -0.033787336 0.0089842025
0.205184 -0.030578813 0.0032698596
-0.23546 -0.025737787 0.0015384248
0.22556308 -0.027527731 0.0049163066
-0.227378 -0.010354027 0.0026399847
-0.21302816 -0.017594064 0.0041298606
-0.21068893 -0.00067534402 0.0093396083
-0.203188 -0.0024410714 0.0082973102
-0.16358091 -0.00067534402 0.0055867429
-0.15800138 -0.00067534402 0.0050417176
-0.09433417 -0.00067534402 0.0088477507
-0.060728848 -0.00067534402 0.0076226033
0.205184 -0.0077163568 0.002216097
0.23408946 -0.00067534402 0.0073262765
-0.32950318 0.0082718311 0.0059752651
-0.30322158 0.0084838215 0.005358208
-0.29976165 0.0068741748 0.0086063072
-0.14740494 0.0068503162 0.0048867539
-0.087977536 0.0066240663 0.0081052333
-0.063495293 0.0065308586 0.008855477
0.026204489 0.006189357 0.0080437008
0.086668923 0.0059591592 0.0053634569
0.10179761 0.005901562 0.0056166761
0.12339838 0.0058193244 0.0048021451
0.1336914 0.0057801371 0.0045829471
0.16200541 0.0056723407 0.0091290325
0.19639914 0.0055413987 0.0023770267
0.23634934 0.005389302 0.0076775514
0.27092642 0.005257661 0.0091406964
0.3425625 0.014032234 0.0085530654
-0.38811356 0.024755791 0.0077304132
0.3463366 0.021008668 0.00035752356
0.35256064 0.022870224 0.0078586116
0.36594903 0.0268746 0.0048833396
-0.41317177 0.039406441 0.0014924631
0.37913588 0.030818667 0.003987778
-0.42086852 0.041571043 0.0071773995
0.47572652 0.059707187 0.0098302579
-0.22043622 -0.033808399 0.012126343
0.23783927 -0.035960812 0.014109829
-0.23545998 -0.017740097 0.01110518
-0.21180189 -0.014388338 0.018440252
0.20688026 -0.016971046 0.013065586
0.21769542 -0.014564713 0.0100183
-0.29499739 -0.00067534402 0.013444021
-0.24427918 -0.00067534402 0.012356172
-0.22737798 -0.0040744888 0.011811552
-0.20268163 -0.00067534402 0.013588896
-0.1716318 -0.00067534402 0.016403656
-0.094172493 -0.00067534402 0.012320616
0.034457028 -0.00067534402 0.01020553
0.067661539 -0.00067534402 0.013650957
0.074665472 -0.00067534402 0.015324092
0.10819539 -0.00067534402 0.013584952
0.16009583 -0.00067534402 0.013751269
0.19360182 -0.00067534402 0.014553376
-0.32720912 0.0076266234 0.012823846
-0.30033064 0.0057837432 0.012571679
-0.2987026 0.0074263304 0.017792875
-0.27085543 0.0073203119 0.018954484
-0.25799763 0.0072713601 0.012745384
-0.23844308 0.007196913 0.016060861
-0.18399933 0.0069896365 0.012620509
-0.12452067 0.0067631919 0.014005195
-0.11212657 0.0067160055 0.013460207
-0.096085876 0.0066549359 0.011064187
-0.023940625 0.0063802674 0.017505316
0.030580759 0.0061726961 0.019524798
0.17991567 0.005604154 0.010697242
0.18788069 0.0055738296 0.013272272
0.21857612 0.0054569673 0.018908085
0.22138046 0.0054462906 0.011621475
0.3221339 0.0079224724 0.010388978
-0.34132832 0.01159771 0.010527555
-0.32035401 0.013302295 0.016239837
-0.31904411 0.012933886 0.010333193
0.32939196 0.010093195 0.019601276
0.33020005 0.016182423 0.014628753
-0.40055209 0.028254081 0.01861345
-0.39233398 0.02594276 0.017049681
0.34613624 0.020948745 0.016109131
0.35222363 0.022769433 0.019113231
0.36371106 0.026205234 0.015898529
0.38508436 0.026750136 0.01503254
0.40772739 0.039369643 0.012187273
-0.46813798 0.047262326 0.012823738
-0.43433499 0.045358494 0.016839396
0.41502032 0.041550718 0.019830398
0.45380938 0.047304641 0.019301154
0.22028227 -0.058328964 0.028345499
0.22830993 -0.048288587 0.028519595
-0.23569074 -0.033051919 0.020445403
-0.19470958 -0.034451555 0.02619848
0.23547299 -0.02589299 0.02500248
-0.23545998 -0.013642809 0.023524694
-0.217556 -0.010148805 0.025255244
-0.2074815 -0.011322054 0.028345499
-0.26891157 -0.00067534402 0.023274792
-0.217556 -0.0024305142 0.020690542
-0.16388097 -0.00067534402 0.027872385
-0.064149186 -0.00067534402 0.022090528
-0.054430775 -0.00067534402 0.023295458
-0.04746826 -0.00067534402 0.027321495
0.027154285 -0.00067534402 0.029777795
0.070173137 -0.00067534402 0.029111195
0.12874609 -0.00067534402 0.020683376
0.13029957 -0.00067534402 0.028054882
0.14776888 -0.00067534402 0.02941067
0.17523164 -0.00067534402 0.026682334
0.20176972 -0.00067534402 0.027631762
0.27064162 -0.00067534402 0.028403794
-0.30316931 0.0084691178 0.022663064
-0.20941503 0.0070863981 0.027895734
-0.19769451 0.0070417766 0.027066125
-0.076845795 0.006581686 0.024336679
-0.069752157 0.006554679 0.025064539
0.015484318 0.0062301704 0.023062825
0.025347352 0.0061926199 0.027775522
0.062381133 0.0060516265 0.028587252
0.086296991 0.0059605753 0.021734204
0.10033347 0.005907136 0.022461008
0.15675738 0.0056923213 0.02576506
0.22977066 0.0054143476 0.02667528
0.26374003 0.0052850214 0.022273757
0.29887161 0.00096519018 0.020247839
-0.33449128 0.017278383 0.022752948
0.32636696 0.015035999 0.021114126
-0.35644078 0.023451552 0.023376605
0.37302297 0.023142669 0.020248912
0.37712806 0.030218141 0.023333594
0.38910723 0.033800945 0.020789772
0.39668477 0.036067143 0.021250868
0.4033637 0.032217152 0.025612149
0.42073798 0.037413374 0.02454902
-0.47658104 0.049636964 0.024109362
-0.45483667 0.043521345 0.02923419
-0.44015878 0.046996504 0.028045386
0.43075338 0.046256155 0.028512718
0.4539665 0.047351643 0.023078319
0.21165311 -0.048237853 0.031705208
-0.17101428 -0.00067534402 0.035715364
-0.15344436 -0.00067534402 0.034809545
-0.14106458 -0.00067534402 0.036037363
-0.10978641 -0.00067534402 0.030556388
-0.08323808 -0.00067534402 0.037099905
-0.024809532 -0.00067534402 0.03082379
-0.01670488 -0.00067534402 0.037289489
0.11816368 -0.00067534402 0.032546997
-0.31574288 0.0044016978 0.037137598
-0.30010861 0.0062092394 0.036153171
-0.29959744 0.0070846514 0.031044913
-0.25409365 0.0072564967 0.035548337
-0.23742408 0.0071930331 0.030097071
-0.22552052 0.0071477145 0.030178765
-0.16365676 0.0069121891 0.034178928
-0.12891227 0.0067799115 0.03550354
0.056649189 0.0060734488 0.037478987
0.061855312 0.0060536284 0.03407893
0.075770512 0.006000651 0.034288384
0.11605236 0.0058472916 0.033206493
0.14195214 0.0057486873 0.037197649
0.22536442 0.0054311235 0.031723395
0.24728574 0.0053476654 0.033780277
0.29724997 0.0063275136 0.030993782
0.31169972 0.010649228 0.032010391
0.35997164 0.019239116 0.030857734
-0.39923367 0.02788328 0.030857027
-0.38045719 0.022602495 0.037028227
-0.36232907 0.025107577 0.038710952
0.38054967 0.025393842 0.034344267
-0.42328614 0.034647983 0.032888018
-0.39871356 0.035340305 0.032247283
0.37983331 0.031027257 0.030673262
-0.47476703 0.04912677 0.030339563
0.44267493 0.049821813 0.039291173
0.45683479 0.054056965 0.031754851
0.47058305 0.054895096 0.035011213
-0.21637206 -0.04789187 0.041525766
0.21804678 -0.047938868 0.045110337
-0.20574316 -0.039551403 0.047423907
-0.20221263 -0.00067534402 0.044254608
-0.16482273 -0.00067534402 0.042231869
-0.056670927 -0.00067534402 0.044817779
0.022070937 -0.00067534402 0.043758359
0.048326664 -0.00067534402 0.047663916
0.076077893 -0.00067534402 0.045884319
0.15195233 -0.00067534402 0.040857069
0.1977355 -0.00067534402 0.044688907
0.21497381 -0.00067534402 0.048446011
0.27592328 -0.00067534402 0.042236693
0.29157579 -0.00067534402 0.042870712
-0.31789491 0.005006969 0.04659741
-0.25154358 0.0072467886 0.042667359
-0.23008856 0.007165106 0.044095665
-0.17042053 0.0069379397 0.045107357
-0.14192171 0.0068294406 0.044993546
-0.10966501 0.0067066345 0.049257327
-0.077152804 0.0065828552 0.049092498
-0.053589679 0.0064931465 0.043554332
0.022521004 0.0062033804 0.048525196
0.050343513 0.006097456 0.042268049
0.097837701 0.0059166378 0.046470463
0.2329834 0.0054021161 0.044905353
-0.34117445 0.01155443 0.048391081
0.32992429 0.016099937 0.048631396
-0.3640306 0.025586113 0.041168746
0.3945277 0.029574513 0.043846365
-0.40163124 0.03616086 0.044894587
0.38915765 0.033816021 0.041938178
-0.45337528 0.04311033 0.048410069
-0.44050336 0.047093417 0.04487095
0.2076032 -0.035831608 0.05419936
0.22677985 -0.034345351 0.052068125
-0.2117722 -0.027001582 0.059794612
-0.27589402 -0.00067534402 0.057526834
-0.2525878 -0.00067534402 0.056078922
-0.23267713 -0.00067534402 0.053357542
-0.16331711 -0.00067534402 0.055662207
-0.1119322 -0.00067534402 0.050007235
-0.10121404 -0.00067534402 0.058924563
-0.030181389 -0.00067534402 0.052725814
0.0061473548 -0.00067534402 0.050657596
0.032563344 -0.00067534402 0.050717697
0.043483943 -0.00067534402 0.059916675
0.13757944 -0.00067534402 0.058657993
0.17092657 -0.00067534402 0.050490487
0.26324773 -0.00067534402 0.058667831
0.28498054 -0.00067534402 0.052973337
-0.30588707 0.0092334934 0.05357828
-0.27248994 0.0073265349 0.050603427
-0.24842422 0.0072349124 0.055010755
-0.18090561 0.0069778585 0.057188708
-0.15828566 0.006891741 0.057932734
-0.074636929 0.0065732766 0.055762414
-0.036949135 0.0064297933 0.053814113
0.060071014 0.0060604215 0.052241798
0.18703514 0.0055770488 0.051197484
0.21033192 0.0054883547 0.054030139
-0.3368215 0.014131952 0.05539903
0.37865269 0.024826474 0.053518191
-0.42767265 0.035881672 0.050927773
-0.40554994 0.03726292 0.058327466
-0.38101712 0.030363405 0.056069247
0.41835561 0.036700867 0.051453851
0.41117269 0.04040001 0.056832753
0.43932796 0.042973347 0.058108274
0.20783436 -0.040077113 0.06118197
0.21128431 -0.028570442 0.061682366
0.22132505 -0.027248275 0.060475945
-0.21842852 -0.00067534402 0.065642148
-0.20986481 -0.00067534402 0.066517204
-0.095720537 -0.00067534402 0.06007421
-0.084143564 -0.00067534402 0.06106814
0.066204987 -0.00067534402 0.068734318
0.22534433 -0.00067534402 0.062936641
0.24326766 -0.00067534402 0.063061722
0.26883459 -0.00067534402 0.066273563
-0.32033646 0.0056936587 0.063761793
-0.30229664 0.0020161648 0.069066972
-0.26631188 0.0073030139 0.068799227
-0.24298798 0.007214216 0.069572784
-0.22895008 0.0071607716 0.062296331
0.0066170841 0.0062639294 0.061759293
0.010151148 0.0062504746 0.06402982
0.063101985 0.0060488824 0.064182512
0.09317597 0.0059343856 0.066430658
0.13226514 0.0057855672 0.060805757
0.26868403 0.005266198 0.068784252
0.3099333 0.0042735287 0.067884497
0.33560008 0.017797492 0.067075133
0.34451887 0.01461734 0.066511095
-0.373896 0.028360667 0.069672599
-0.43032449 0.036627501 0.066043399
-0.38688609 0.032014005 0.063448906
-0.42095357 0.041594967 0.06516932
-0.41744483 0.040608175 0.069256775
0.44122344 0.04354028 0.06330128
0.21787825 -0.04796353 0.073279426
-0.28307563 -0.00067534402 0.071654499
-0.24663207 -0.00067534402 0.078655258
-0.15609503 -0.00067534402 0.078237548
-0.1342127 -0.00067534402 0.074926816
-0.083611086 -0.00067534402 0.075444601
0.014715753 -0.00067534402 0.072369277
0.023648351 -0.00067534402 0.077157833
0.066183679 -0.00067534402 0.076296009
0.10517853 -0.00067534402 0.071450531
0.13577004 -0.00067534402 0.079849526
0.15450031 -0.00067534402 0.072040468
0.17927131 -0.00067534402 0.07164
0.20775363 -0.00067534402 0.074110411
0.21384487 -0.00067534402 0.078090914
-0.30083662 0.0048141233 0.07885769
-0.29175043 0.0073998626 0.074987605
-0.25114623 0.0072452752 0.075371504
-0.23095226 0.0071683936 0.070191242
-0.17048988 0.0069382042 0.07192906
-0.1310834 0.0067881774 0.079639718
-0.073966391 0.0065707238 0.075937197
0.030172929 0.0061742486 0.074597925
0.063684948 0.006046663 0.071723506
0.16144419 0.0056744777 0.072085604
0.20417394 0.0055117984 0.07768631
0.21854585 0.0054570828 0.073548049
0.30833662 0.0096433759 0.079600811
-0.35755795 0.016162246 0.075612843
-0.31383893 0.011469935 0.079032958
0.3331005 0.011202347 0.075001895
0.34886697 0.015917789 0.077744931
0.36163169 0.019735621 0.077401549
0.39399979 0.029416628 0.078510515
0.40325227 0.032183826 0.078274071
0.43697944 0.042270925 0.072549157
0.20770243 -0.055871136 0.089920402
-0.22559853 -0.042596396 0.086233467
0.20989048 -0.030021314 0.088998601
0.22682746 -0.034747608 0.08154887
-0.21990232 -0.02357544 0.089920402
0.21749051 -0.026290901 0.083241723
-0.20782129 -0.018151736 0.089920402
-0.2365074 -0.00067534402 0.085662752
-0.21074393 -0.00067534402 0.081055939
-0.18616131 -0.00067534402 0.087637275
-0.1355761 -0.00067534402 0.084500544
-0.12149724 -0.00067534402 0.0829807
-0.099262588 -0.00067534402 0.083761141
-0.071485959 -0.00067534402 0.08257959
-0.037296563 -0.00067534402 0.085258953
-0.012683243 -0.00067534402 0.081703275
0.023807593 -0.00067534402 0.084189266
0.16541079 -0.00067534402 0.08895795
0.18137473 -0.00067534402 0.088762812
0.22495872 -0.00067534402 0.080544963
-0.31138363 0.0031756428 0.087379247
-0.30312097 0.0008517442 0.082178369
-0.26437241 0.0072956299 0.087207541
-0.22245267 0.0071360348 0.089926012
-0.2107164 0.0070913527 0.080963209
-0.19430132 0.0070288582 0.08902166
-0.12019911 0.0067467391 0.084402487
-0.040303245 0.0064425627 0.084411621
0.046074126 0.0061137099 0.087302297
0.070594996 0.006020355 0.083283052
0.09830451 0.0059148604 0.081784219
0.13473034 0.0057761818 0.083041586
0.15438786 0.0057013417 0.081693426
0.16403034 0.0056646317 0.086046748
0.18693416 0.0055774339 0.081743754
0.2477397 0.0053459369 0.08356832
0.2980715 0.00072586676 0.086690649
0.31054395 0.0044561494 0.080019385
-0.33464843 0.017322576 0.089060657
0.3318148 0.016665367 0.082468577
-0.40489185 0.029474635 0.084452718
0.40339392 0.038073637 0.084713191
0.4153806 0.041335531 0.08262565
0.23034129 -0.053620048 0.091630906
-0.22152269 -0.045420263 0.096364066
0.23668873 -0.041182704 0.092101894
-0.2129676 -0.015328281 0.096920982
0.22959839 -0.019980472 0.092657767
-0.25289294 -0.00067534402 0.090166919
-0.19298598 -0.00067534402 0.097743452
-0.18260875 -0.00067534402 0.097379871
-0.1719573 -0.00067534402 0.09958972
-0.11903088 -0.00067534402 0.09993428
-0.10541388 -0.00067534402 0.098046973
-0.084775738 -0.00067534402 0.093374565
-0.077771083 -0.00067534402 0.097102009
-0.014740985 -0.00067534402 0.093271598
-0.00019289553 -0.00067534402 0.09254159
0.0034626722 -0.00067534402 0.095471993
0.068127289 -0.00067534402 0.092960618
0.10301162 -0.00067534402 0.099843927
0.16377729 -0.00067534402 0.098039478
0.24391979 -0.00067534402 0.095063254
0.26951042 -0.00067534402 0.095675044
0.27242279 -0.00067534402 0.092147022
0.28467959 -0.00067534402 0.092767872
-0.2756635 0.007338617 0.09583234
-0.26080453 0.0072820466 0.092865139
-0.21691111 0.0071149371 0.099977061
-0.067455158 0.0065459339 0.092705861
-0.049171798 0.0064763268 0.098532438
0.046012871 0.0061139436 0.098021373
0.053050727 0.006087149 0.099100009
0.096999489 0.005919829 0.099590212
0.25381365 0.0053228121 0.098184094
0.2959094 0.0019840053 0.094373167
-0.33110732 0.016326647 0.098451972
0.31128621 0.010525562 0.096369758
0.34195089 0.019696938 0.094043888
0.34633815 0.021009129 0.099419005
0.36466411 0.022591829 0.095107414
0.37526596 0.025911557 0.097655684
0.38014007 0.026787534 0.098670602
0.23134832 -0.052757856 0.10240187
0.22238632 -0.044400956 0.103352
0.23681128 -0.040147554 0.10269666
-0.20727593 -0.033928551 0.1058635
0.20384373 -0.035981696 0.108375
0.20170514 -0.023659281 0.10836401
0.21081313 -0.028972484 0.10120931
0.22185716 -0.027493514 0.10766818
-0.27820292 -0.00067534402 0.10740357
-0.21439193 -0.00067534402 0.1054338
-0.106121 -0.00067534402 0.10856798
-0.093421914 -0.00067534402 0.10723186
-0.041480478 -0.00067534402 0.10677
-0.012028059 -0.00067534402 0.10335334
-0.0084094703 -0.00067534402 0.10266934
0.037532926 -0.00067534402 0.10254756
0.075790718 -0.00067534402 0.10524786
0.10253765 -0.00067534402 0.10763341
0.15060417 -0.00067534402 0.10573012
0.23733732 -0.00067534402 0.1017365
0.24416222 -0.00067534402 0.10546768
-0.29425412 0.0074093947 0.10412122
-0.24840672 0.0072348458 0.10940968
-0.13646473 0.0068086646 0.10340745
0.024576843 0.0061955536 0.10500634
0.043934807 0.0061218548 0.10510845
0.098993026 0.0059122392 0.10885628
0.12953308 0.0057959687 0.10603802
0.20773166 0.0054982537 0.10252743
0.21370047 0.0054755295 0.10807931
-0.32762849 0.015348227 0.10976042
0.33212987 0.010912045 0.10595775
-0.12270112 -0.00046106597 0.111102
-0.071835235 -0.00046620672 0.111102
-0.069059037 -0.00030805089 0.111102
-0.19493353 0.0067561367 0.111102
-0.13314188 0.0024643883 0.111102
-0.070317812 0.0018277881 0.111102
-0.045210354 0.0064612445 0.11022146
0.14913759 0.0044354647 0.111102
-0.33172375 0.011130875 0.11004274
-0.31048322 0.010229712 0.11071551
