# .PCD v0.7 - Point Cloud Data file format
VERSION 0.7
FIELDS x y z
SIZE 4 4 4
TYPE F F F
COUNT 1 1 1
WIDTH 717
HEIGHT 1
VIEWPOINT 0 0 0 1 0 0 0
POINTS 717
DATA ascii
-0.29337686 -0.075235963 -0.14818555
-0.28674588 -0.074758887 -0.14839099
-0.2766065 -0.073915742 -0.14506905
0.34600747 -0.071033336 -0.14088589
0.35759759 -0.071454957 -0.14767951
0.38116279 -0.074286208 -0.14237858
-0.31233725 -0.06965892 -0.14190932
-0.27192441 -0.067028493 -0.14472024
-0.26712382 -0.065407388 -0.14505917
0.33529648 -0.064811051 -0.14013779
0.34313682 -0.066910073 -0.14818729
0.36337563 -0.066822067 -0.14233968
0.37581918 -0.068270683 -0.14424267
0.38377067 -0.06523326 -0.14331956
0.39351612 -0.069407515 -0.14423057
0.40128756 -0.060915418 -0.14794484
-0.31257421 -0.056568958 -0.14001465
-0.25133184 -0.054327182 -0.14515352
0.39178458 -0.059703287 -0.14167039
0.40829682 -0.057773039 -0.14350165
-0.32661492 -0.04224544 -0.14094791
-0.23735535 -0.042960986 -0.14696887
0.31872219 -0.044880733 -0.14253254
0.32605016 -0.044144493 -0.14404078
0.40574872 -0.049232289 -0.14368349
0.41257945 -0.040826153 -0.14538068
-0.32988131 -0.037569471 -0.14217445
-0.24489738 -0.037982054 -0.14203373
-0.23662192 -0.035887308 -0.14741883
0.32439119 -0.03239888 -0.14099212
0.41621485 -0.03071836 -0.14573054
0.31643611 -0.025766065 -0.14612973
0.41895813 -0.021464096 -0.14724037
0.42169511 -0.013600755 -0.14651673
-0.32700932 -0.0029794485 -0.1401978
-0.24550447 -0.0016825311 -0.14248456
-0.23706034 -0.0063541341 -0.14740348
0.32135928 -0.0095793279 -0.14403725
0.41683576 -0.0089313919 -0.14669198
-0.33348373 0.0067059621 -0.14839099
-0.23735556 0.00065141567 -0.14437342
0.41517723 0.0064972672 -0.14523412
-0.31750882 0.017887075 -0.14588878
-0.25412375 0.015407813 -0.14540884
-0.24436562 0.012382392 -0.1424253
0.33412427 0.014813672 -0.14551713
0.34232444 0.019246273 -0.14404388
-0.3131637 0.023177285 -0.14769793
-0.29234987 0.02661618 -0.14451373
-0.28343529 0.029748119 -0.14744118
-0.27294472 0.026859693 -0.14647068
-0.25467923 0.022465536 -0.14392647
0.33374745 0.021312479 -0.14025345
0.34273145 0.022174641 -0.14629656
0.36454314 0.028988713 -0.14661941
0.37427682 0.027491456 -0.14555702
0.39651656 0.02278438 -0.14727692
-0.29766905 0.032361005 -0.14150599
-0.28189594 0.033033717 -0.14448223
-0.27744281 0.031795483 -0.14839099
0.36783412 0.033731077 -0.14219388
-0.27232468 -0.073782749 -0.13486674
-0.26719272 -0.071760848 -0.13916531
0.34777489 -0.07176549 -0.13444497
0.35450235 -0.074295051 -0.13512857
-0.25433296 -0.064509906 -0.13442688
0.33297935 -0.063033246 -0.13579774
0.3403759 -0.068700477 -0.13668779
0.35705805 -0.061689228 -0.13808142
-0.32614726 -0.059830151 -0.13200966
-0.3026166 -0.052080594 -0.13096273
-0.29696026 -0.05884786 -0.13513687
-0.27911919 -0.055164728 -0.13127881
-0.26981035 -0.054614402 -0.13407534
-0.25490296 -0.050371982 -0.13992004
0.33815905 -0.05258093 -0.13946553
0.38149422 -0.058330394 -0.13608131
0.41278625 -0.051922821 -0.13896114
-0.3381432 -0.040442951 -0.13647641
-0.25793529 -0.041978348 -0.13241537
-0.23682573 -0.041682266 -0.13598646
0.31718376 -0.041166998 -0.13391408
0.33858103 -0.04636918 -0.13502604
0.34987092 -0.049818493 -0.13015756
0.39512867 -0.049761146 -0.13582665
-0.33922306 -0.037836179 -0.13376305
-0.32427585 -0.032073699 -0.1351161
-0.24971077 -0.038840201 -0.13792104
-0.23395552 -0.033444799 -0.13885327
0.31458148 -0.033861324 -0.13974559
0.32650977 -0.031673178 -0.13880004
0.33754143 -0.038197674 -0.13097835
0.40262491 -0.03737681 -0.13487896
0.3129102 -0.021145867 -0.13071911
-0.34074074 -0.010692027 -0.13360174
-0.24527356 -0.015094268 -0.13887706
-0.2334286 -0.012866271 -0.13076413
0.36855748 -0.014616393 -0.1304
0.42220432 -0.017467137 -0.13734955
0.33646733 -0.0062007857 -0.13117103
-0.31403065 0.0011572705 -0.13134854
-0.30783191 0.0057589859 -0.1303983
-0.26437509 0.0085758613 -0.13399661
-0.25871378 0.0099994093 -0.13856569
0.33865863 0.0067972871 -0.1366291
0.38466316 0.0097677335 -0.13152362
-0.31445751 0.01038881 -0.13809371
-0.27535674 0.012033571 -0.13170594
-0.24761896 0.016622182 -0.13714388
0.32522318 0.012755275 -0.13623773
0.33147651 0.019570015 -0.13473347
0.34926656 0.014394013 -0.13642943
0.35538644 0.015873099 -0.13576028
0.3785556 0.013766585 -0.13287897
0.38467205 0.012502586 -0.13407901
-0.31769401 0.024063412 -0.13296771
-0.2876536 0.020975646 -0.13831726
-0.26506832 0.028570985 -0.13719463
-0.25461978 0.02241992 -0.13937739
0.36927706 0.021545492 -0.13901861
0.38664696 0.029942986 -0.13143806
0.39604962 0.025546253 -0.13413817
-0.29922798 0.032155752 -0.13514882
-0.28259078 0.033125192 -0.13093162
0.35975799 0.032677077 -0.13251922
0.36293745 0.033095658 -0.13938802
-0.29440957 -0.075100005 -0.12277573
-0.27274403 -0.074060462 -0.12491283
0.34543261 -0.070795193 -0.12651242
0.36263084 -0.075365126 -0.12344809
0.37354526 -0.075289026 -0.12922962
-0.32501504 -0.060755838 -0.12938328
0.34058112 -0.068785489 -0.12063365
-0.29876295 -0.052353017 -0.12974143
-0.24395585 -0.054158457 -0.12951139
0.37247086 -0.051106237 -0.12681283
0.40931875 -0.056441419 -0.12699576
-0.29605481 -0.045240466 -0.12169448
-0.28568867 -0.045490641 -0.12328949
-0.27937716 -0.046893321 -0.12164546
0.34301999 -0.042119928 -0.12892634
0.37065327 -0.047806554 -0.12330909
0.38581696 -0.049288463 -0.12979183
0.41834229 -0.041341901 -0.12558112
-0.29722199 -0.037098959 -0.122471
-0.28670713 -0.034308635 -0.12268429
-0.27582565 -0.030111516 -0.122471
-0.26369721 -0.036013938 -0.12443981
0.3151851 -0.035271078 -0.12760833
0.34546483 -0.039473251 -0.12538059
0.35113883 -0.038447503 -0.122471
0.36936498 -0.032271996 -0.12369101
0.37505141 -0.034365851 -0.123081
0.389588 -0.036552101 -0.12317269
0.39478827 -0.038538843 -0.12850028
-0.34168792 -0.024422552 -0.12558544
-0.3129946 -0.025234718 -0.12234953
-0.2938816 -0.02702276 -0.12539047
-0.27454019 -0.024296982 -0.12239161
-0.26830858 -0.027775258 -0.12247099
-0.25990611 -0.02652633 -0.12430052
-0.23243754 -0.020391464 -0.12734848
0.31342033 -0.025039615 -0.12347432
0.33957985 -0.021373905 -0.12451746
0.34388494 -0.029051114 -0.122471
0.3572889 -0.026013047 -0.123691
0.36413008 -0.026250644 -0.12679973
0.37574765 -0.023519067 -0.12413248
0.39492631 -0.025456881 -0.12484862
0.42236111 -0.023071934 -0.12676674
-0.31683019 -0.015078884 -0.12496281
-0.30509633 -0.010429714 -0.122471
-0.29550415 -0.015371921 -0.122471
-0.27292964 -0.013898108 -0.12247099
-0.25642765 -0.014815902 -0.12787046
-0.2327238 -0.018217947 -0.1250519
0.31437641 -0.010006784 -0.12131003
0.33637291 -0.016378915 -0.12828645
0.3594082 -0.0150376 -0.121251
0.36568263 -0.014024399 -0.12911838
-0.30108482 -0.00018713938 -0.122471
-0.27707469 -0.0058710072 -0.122471
-0.26491684 -0.0052602589 -0.124063
0.34360912 -0.0095595345 -0.12329894
0.36098185 -0.0061337026 -0.12247099
0.37116563 -0.00038308487 -0.122471
0.38846755 -0.0050726165 -0.12224043
0.39153269 -0.0060526738 -0.12453421
0.41927284 -0.0032151537 -0.12942784
-0.3047981 0.003346239 -0.12664258
-0.2977314 0.0048193792 -0.12318096
-0.28724155 0.0033612393 -0.122471
-0.23994535 0.0066218292 -0.12022209
0.3179794 0.00077764574 -0.12777904
0.35883719 0.0034690611 -0.12224895
0.36203241 0.0029144976 -0.12287104
0.38159162 0.004467349 -0.12580445
-0.33110341 0.011060962 -0.12404702
0.32432312 0.011582182 -0.1237766
0.41100878 0.011929025 -0.12481616
-0.2654348 0.0287228 -0.1236413
0.34511727 0.028354732 -0.12513296
-0.28501081 0.033406422 -0.12797584
0.35595322 0.032176163 -0.12659764
0.36096525 0.032836013 -0.12708266
0.37444901 0.032860201 -0.12131107
0.38164628 0.031912658 -0.12049697
-0.274948 -0.074428886 -0.11134263
0.35728166 -0.074660927 -0.11866981
0.37642467 -0.074909955 -0.11453359
-0.26165739 -0.069467865 -0.11861467
0.33662406 -0.065829627 -0.11868519
0.34078223 -0.068846993 -0.11425528
0.40020391 -0.064886019 -0.11034411
-0.30219424 -0.051855959 -0.11434764
0.37730265 -0.053351056 -0.11488712
0.38662559 -0.054797165 -0.11015922
0.40713072 -0.059292644 -0.11396796
0.41089287 -0.054390132 -0.11576397
-0.28420305 -0.049539708 -0.11989468
0.31788069 -0.042849358 -0.11850411
0.32115778 -0.049766492 -0.11166959
0.3481673 -0.04890639 -0.11447127
0.35543945 -0.049821947 -0.11722033
0.41705644 -0.044446431 -0.11457184
-0.26097482 -0.03212953 -0.11997721
-0.2536515 -0.031832077 -0.11333435
0.34043443 -0.035018902 -0.11784723
0.40064493 -0.038659841 -0.11139889
0.42112768 -0.033018176 -0.11127861
-0.34138763 -0.02670374 -0.11317795
-0.28374597 -0.025686124 -0.11633852
-0.25613528 -0.020590223 -0.1175345
-0.23301154 -0.026276903 -0.11793171
0.33163196 -0.028490957 -0.1116277
0.36008877 -0.022060446 -0.11588083
0.37177435 -0.02469229 -0.11488094
0.42224982 -0.0244973 -0.11127701
-0.32371837 -0.013428533 -0.11125667
-0.281201 -0.018656945 -0.11454301
-0.25308102 -0.017738743 -0.11413895
-0.23335801 -0.013402471 -0.114352
0.31322294 -0.018769879 -0.11069065
0.33457497 -0.016662946 -0.11491222
0.36275047 -0.017377261 -0.114543
-0.33772594 -0.00085992168 -0.11665206
-0.31409341 -0.0052311397 -0.11727531
-0.26122844 -0.0073854639 -0.11914326
0.31460482 -0.008271683 -0.11052915
0.39836535 -0.0016216928 -0.11230109
-0.33607966 0.0031143201 -0.11153436
-0.30497372 0.0061461478 -0.11597432
-0.24209124 0.0094183926 -0.11037426
-0.23967618 0.0062545664 -0.11864854
0.35230112 0.0044188984 -0.11870922
0.36439809 0.0089933146 -0.11809973
0.37723583 0.0069897771 -0.11881933
-0.29292321 0.01115158 -0.11566384
-0.27091247 0.011785323 -0.11176639
0.32849202 0.017015751 -0.11486837
0.33203381 0.019997615 -0.11602614
0.35494372 0.011614905 -0.1132457
-0.32279849 0.020146456 -0.11661746
-0.26439247 0.028291019 -0.11645522
-0.25513658 0.022816449 -0.11058491
0.34843996 0.029731125 -0.11660799
0.39868391 0.023742506 -0.11332743
-0.29718572 0.03242464 -0.11091768
0.36863887 0.033625133 -0.11187358
-0.28732458 -0.076032788 -0.10466425
-0.27044356 -0.073107503 -0.10037803
0.34501532 -0.070622332 -0.10009495
0.36615059 -0.075828493 -0.10014851
0.38458419 -0.07310725 -0.10306087
-0.2960766 -0.066063702 -0.10271326
-0.26483336 -0.067305923 -0.10208163
0.35259989 -0.06163108 -0.10524026
0.36831188 -0.066849776 -0.10308397
0.39486644 -0.068735987 -0.10363671
-0.31114885 -0.053054169 -0.10857785
-0.26705927 -0.055338107 -0.10872612
-0.24667662 -0.057704341 -0.10830832
0.32623455 -0.051281355 -0.10078512
0.34149963 -0.056848273 -0.10412607
0.412637 -0.052117333 -0.10104953
-0.33614987 -0.045254726 -0.10174138
-0.3291114 -0.045653872 -0.10031595
-0.23958361 -0.04834092 -0.10188526
0.32104564 -0.049620304 -0.10834143
0.33522654 -0.048018068 -0.10625564
0.4035497 -0.041321248 -0.10770191
-0.32634056 -0.032413941 -0.10800397
-0.23386915 -0.032789063 -0.10732621
0.31585288 -0.037954334 -0.10102797
0.32470626 -0.035372533 -0.10320127
0.33023828 -0.037255056 -0.10758598
0.4208816 -0.033903133 -0.10240646
-0.3414984 -0.025862148 -0.10007458
0.31306696 -0.022354867 -0.10567416
-0.32729033 -0.016028482 -0.10805911
-0.33787191 -0.0012123077 -0.10003766
-0.24748734 -0.0012581637 -0.10412402
0.32378876 -0.0098408312 -0.10334362
0.41450512 -0.000962766 -0.10261223
-0.33645919 0.0021980605 -0.10500142
-0.32267338 0.0093341153 -0.1017752
-0.24205223 0.009367547 -0.10928364
0.32623088 0.000680567 -0.10169707
0.39416847 0.0070984061 -0.10997794
0.40494531 0.0023984248 -0.10464437
-0.31008276 0.016477302 -0.10468373
-0.2826001 0.01812936 -0.10889453
-0.26652813 0.015290127 -0.10685728
-0.24861124 0.017809642 -0.10604702
0.32670611 0.014688076 -0.10677882
0.33157492 0.019645523 -0.10231762
0.3941212 0.014151396 -0.10441887
-0.32252049 0.020359794 -0.10991766
-0.31901768 0.02304771 -0.10453469
-0.27523214 0.023333687 -0.10276279
-0.26926607 0.022908419 -0.10087511
-0.2561138 0.02356627 -0.10312051
0.33466223 0.022014365 -0.10350116
0.35869312 0.024459252 -0.10204378
0.38813236 0.029327706 -0.10233074
0.39757133 0.024596298 -0.10020633
0.40113366 0.021862518 -0.10804294
-0.30095175 0.031928793 -0.10569125
0.35869902 0.032537654 -0.10626014
0.37504184 0.032782156 -0.10172631
-0.28230339 -0.075397193 -0.098826103
-0.2792725 -0.070927456 -0.098076768
0.36503193 -0.074595109 -0.097462639
0.37553728 -0.070123099 -0.098901376
-0.30662376 -0.066137858 -0.099478737
-0.25554317 -0.06543842 -0.099029973
-0.24877118 -0.060242634 -0.098635092
0.33741689 -0.064051762 -0.096550196
0.38424835 -0.069000974 -0.097963154
0.39349499 -0.069416277 -0.097535096
-0.32031271 -0.059001595 -0.098295107
0.40873808 -0.054304294 -0.09658207
0.41158587 -0.051208213 -0.096550196
-0.33695626 -0.043308102 -0.099142589
0.31942925 -0.046587583 -0.098023459
-0.33553836 -0.038260341 -0.097283632
0.31413886 -0.030498479 -0.09844242
-0.33643222 -0.022241086 -0.099534981
-0.33940887 -0.013132304 -0.096550196
0.31317073 -0.019166684 -0.098730952
0.31985119 -0.0099515608 -0.099459484
0.41681802 -0.0016948683 -0.096550196
0.32264325 0.0033125666 -0.097381286
-0.32413572 0.015767377 -0.097380698
-0.31633398 0.017975688 -0.099696472
-0.25051296 0.019268805 -0.098468587
0.39748904 0.018891046 -0.098616518
-0.30103379 0.027651366 -0.098048128
-0.27608153 0.027244378 -0.099020444
0.33937901 0.025633492 -0.098434202
0.3457278 0.025568431 -0.09731213
0.37151736 0.028636111 -0.098610669
0.38321441 0.029352659 -0.096550196
0.39252445 0.023214482 -0.098007828
0.36824271 0.033677284 -0.099962838
-0.30325529 -0.073108122 0.10209694
-0.29446051 -0.073511638 0.101056
-0.28589132 -0.07586953 0.10543719
-0.27191734 -0.072477743 0.101056
-0.26386681 -0.070383102 0.10600068
0.36594933 -0.075801991 0.10872166
0.37462121 -0.073259547 0.10450478
-0.31976315 -0.064187802 0.10144049
-0.30912 -0.066682249 0.10252837
-0.28543922 -0.065079004 0.10917639
-0.26333058 -0.066306219 0.10210907
-0.25632736 -0.066040084 0.10523324
0.33575886 -0.061238863 0.1016635
0.35079825 -0.063340656 0.10748018
0.36463326 -0.065713137 0.10836911
0.39827174 -0.065296531 0.10105601
-0.32582793 -0.054184735 0.10520902
-0.31666464 -0.056813709 0.10675184
-0.26403496 -0.058975566 0.10883487
-0.25137317 -0.053744048 0.1046807
0.33423573 -0.053193673 0.10682992
0.39580917 -0.05712796 0.10737041
0.40735531 -0.05415 0.1059758
0.41146398 -0.051487684 0.101056
-0.33486828 -0.040614195 0.10150805
-0.32519907 -0.047857694 0.10658152
0.32015684 -0.043416895 0.10105599
0.33384144 -0.04999727 0.10846069
0.41505301 -0.045655932 0.10362511
-0.32908177 -0.036208849 0.10853015
0.31857413 -0.037785679 0.10112729
0.32309774 -0.030361382 0.1074398
0.42120412 -0.032437362 0.10348342
-0.34135738 -0.026459163 0.10687079
-0.33786252 -0.028283056 0.10183677
-0.24101228 -0.025580924 0.10656419
0.31342512 -0.02507592 0.10743809
-0.33902153 -0.013922232 0.101056
-0.24073145 -0.012663703 0.10575633
-0.23487347 -0.014557774 0.10607538
0.31331953 -0.018035989 0.10452583
0.32418564 -0.01814881 0.10932498
0.41693863 -0.016899128 0.10369159
-0.2431501 -0.0066058338 0.10665363
0.31602886 -0.0039311489 0.1066625
-0.33451703 0.0006814443 0.101056
-0.32670495 0.0044790022 0.10603821
-0.24550408 0.0069556581 0.10275333
0.32327542 0.0084227836 0.10353076
0.39995816 0.0097488239 0.10863286
0.41537121 0.0062053534 0.10700577
-0.32403669 0.013105694 0.10736486
-0.31403553 0.017994378 0.10558484
-0.30707443 0.019878916 0.10745555
-0.26641375 0.016859982 0.10987103
-0.25083101 0.016782006 0.101056
-0.24431109 0.012311333 0.1028351
0.34614226 0.017068388 0.10935669
0.38712198 0.018606095 0.10882992
0.39675254 0.016608518 0.10537845
0.40823615 0.015156347 0.10198338
-0.30651844 0.029759297 0.1090182
-0.2800273 0.028032525 0.10326015
-0.2570034 0.024248848 0.10668313
0.34472042 0.028190345 0.10916179
0.3575559 0.024862153 0.10600232
0.39709342 0.024963094 0.1021004
-0.30428752 0.030683357 0.10459907
-0.27110839 0.031073024 0.10305648
-0.2693623 0.03034972 0.10223745
0.37162679 0.033231758 0.10245767
0.38564131 0.030359522 0.10748806
-0.31005555 -0.070604011 0.11352991
0.3531782 -0.073843166 0.11231838
0.36878663 -0.075915486 0.11422212
-0.25157827 -0.062396362 0.11765318
0.3425262 -0.069591217 0.11829525
-0.33116323 -0.05329296 0.1125969
-0.32757878 -0.057964437 0.1123345
-0.30071664 -0.058575939 0.11321792
-0.2677449 -0.051407523 0.11708575
-0.24537882 -0.056012966 0.11987697
0.32275549 -0.051848948 0.11375766
0.35484329 -0.053929191 0.11770854
0.37721026 -0.0548122 0.11824846
0.38450354 -0.057894327 0.1126181
0.39376417 -0.054026373 0.11107072
-0.33756101 -0.041848056 0.11231227
-0.31731507 -0.041166332 0.11689513
-0.23693809 -0.041953281 0.11283733
-0.32243973 -0.036336269 0.1146093
-0.25153947 -0.038932018 0.11317801
-0.23601651 -0.039728165 0.11613478
0.32789928 -0.034731474 0.11081377
0.42086375 -0.035021622 0.11540462
-0.34139097 -0.02667819 0.1174467
-0.3292363 -0.027594574 0.11046676
-0.28506315 -0.026686881 0.119047
0.3132005 -0.023369227 0.11660439
0.32575154 -0.022365741 0.11110929
0.36522233 -0.020506818 0.119047
0.40740383 -0.026549226 0.11298302
0.4224309 -0.023122063 0.11348799
-0.32957661 -0.01555061 0.11023875
-0.28179008 -0.01736619 0.119047
-0.25145149 -0.013113266 0.1163822
-0.23303491 -0.015855698 0.11710736
0.32840019 -0.010166472 0.11234863
0.40899542 -0.018960714 0.11182432
0.42227316 -0.017989643 0.11843479
-0.33757439 -0.00049413636 0.11880644
-0.32449326 -0.0001167662 0.11047639
0.40004236 -0.0015853536 0.11545572
-0.33439049 0.006242278 0.11454666
-0.31340709 0.0023452407 0.11787023
-0.27282014 0.0091498755 0.11943217
-0.25047055 0.00024327985 0.11076831
0.32015574 0.0060314792 0.1117005
0.33817661 0.0051206471 0.11345532
0.38419035 0.0098275691 0.11804897
0.39321792 0.0095935874 0.11308444
-0.30401325 0.016020058 0.11218525
-0.27387619 0.016359475 0.11318443
-0.26222244 0.01303444 0.11060978
-0.245876 0.014330219 0.1186775
0.32879394 0.017409306 0.11227562
0.37496138 0.015000694 0.11616707
0.38729608 0.014782645 0.11229081
0.40693358 0.017239258 0.110586
-0.31763154 0.024111357 0.11457568
-0.29207101 0.02127545 0.11025715
-0.25923592 0.025961827 0.111763
0.33632061 0.023286829 0.11510823
0.34246701 0.027256891 0.11896625
0.38773444 0.029492527 0.11115998
0.40040976 0.022418048 0.11094691
-0.3074798 -0.071670935 0.12690321
-0.29998854 -0.074365497 0.12310418
-0.26892018 -0.072476439 0.12230831
0.3513343 -0.073239952 0.1229278
-0.32456842 -0.061098553 0.12054694
-0.31209493 -0.069759279 0.12551638
0.33299565 -0.063045777 0.12751001
-0.33324128 -0.050584741 0.12704311
-0.32687038 -0.058887679 0.12235565
-0.29681098 -0.05171793 0.12103746
-0.27995127 -0.050545771 0.12284954
0.32463294 -0.054296065 0.12452491
0.40742174 -0.058913413 0.12414574
0.41368765 -0.050748195 0.12788025
-0.33373207 -0.049945049 0.12248892
-0.29828709 -0.048834793 0.1231332
-0.28399146 -0.046925269 0.12699144
-0.27527666 -0.048138637 0.1232452
0.35366315 -0.043248557 0.12713596
0.36677039 -0.047104634 0.12653869
0.37259567 -0.045537643 0.12646407
0.3834585 -0.045307275 0.12383586
0.4167732 -0.045130048 0.12223557
-0.29108077 -0.033103354 0.126976
-0.27273691 -0.034027107 0.126976
-0.26101208 -0.031127131 0.12489969
0.31440282 -0.032503493 0.12682192
0.33985189 -0.031195765 0.12327616
0.34530789 -0.036376081 0.12812722
0.36021438 -0.031752836 0.12814355
0.42097992 -0.034139857 0.122975
-0.28824884 -0.0282855 0.12971614
-0.27553159 -0.023798853 0.128196
-0.26294857 -0.023323456 0.12747371
0.35700321 -0.023378752 0.12799528
0.3615801 -0.025896812 0.12556624
0.3771553 -0.025251713 0.12619686
0.38255882 -0.026139494 0.12713757
0.39284307 -0.020632133 0.126976
-0.31191912 -0.010367292 0.12795769
-0.30093369 -0.018139172 0.126976
-0.29600605 -0.014470209 0.12758601
-0.28144571 -0.014780211 0.1258065
-0.26363379 -0.014345327 0.126976
0.33793408 -0.016089989 0.12266855
0.36239547 -0.015523847 0.12474164
0.37649083 -0.016488884 0.126976
0.39385426 -0.01466037 0.125521
0.42123318 -0.010093316 0.12848321
-0.30608582 -0.005590687 0.12760715
-0.27452004 -0.0088960445 0.126976
-0.26601595 -0.0099110948 0.126976
-0.23459566 -0.006012409 0.12240148
0.31566527 -0.0054600853 0.12456442
0.35246295 -0.0094903167 0.126976
0.36797562 -0.0032660253 0.126976
0.37491894 -0.0045910012 0.12714799
0.39140481 -0.0056969556 0.12693943
-0.33486998 0.0051020025 0.12573549
-0.30033934 0.0015643351 0.12702663
-0.27401835 0.0042455606 0.12648018
0.36728707 0.0001424104 0.126976
0.37408674 0.00093889027 0.126976
0.38804325 0.0021448864 0.12213105
0.39216739 0.00021514832 0.12060013
0.41447687 0.0072704637 0.12453854
-0.33163124 0.010373013 0.1263839
-0.25054392 0.019292574 0.12529325
0.32545042 0.013051462 0.1258013
0.36081511 0.010306118 0.12083814
0.33288568 0.020651259 0.12363463
0.38825238 0.029277999 0.12225261
0.39919132 0.02335307 0.12638438
-0.29395446 0.032850076 0.12522252
-0.27580029 0.032102413 0.12259409
0.35808283 0.032456536 0.12071595
0.37454575 0.032847472 0.12180854
-0.29273251 -0.075320795 0.13282415
0.34788308 -0.071810298 0.13064791
0.3605558 -0.075091958 0.13184547
0.37138939 -0.075572841 0.1317071
0.38916427 -0.071210138 0.13252956
-0.31668761 -0.067145571 0.13281131
0.33596879 -0.065326869 0.13330057
-0.33221215 -0.05192598 0.13662192
-0.29915318 -0.054371499 0.13625808
-0.27606809 -0.05442642 0.13609535
-0.24454722 -0.054929145 0.13153172
0.34604818 -0.052640833 0.13922259
0.35659069 -0.056570701 0.13826406
0.36116067 -0.053266324 0.13371296
0.37659544 -0.053383328 0.13415064
0.38500234 -0.054648556 0.13853049
0.40932763 -0.056429852 0.13614725
-0.31216082 -0.040674232 0.13267455
-0.23948079 -0.048091769 0.1335084
0.31894132 -0.045409542 0.13371319
0.34157443 -0.042996813 0.13510992
0.41823101 -0.041610241 0.13502784
-0.23549736 -0.038474612 0.13227315
0.31648308 -0.039475285 0.13154881
0.33473665 -0.034414232 0.1366519
0.39723453 -0.036324613 0.13400942
0.35961851 -0.021245874 0.13057595
0.37587193 -0.020875931 0.13408449
-0.25033188 -0.017844511 0.13801618
-0.23309049 -0.015433661 0.13683961
0.42197636 -0.015736096 0.13218577
-0.33995178 -0.006233328 0.13188143
-0.31627688 -0.0095006172 0.13230932
-0.2631118 -0.0014733394 0.13212559
-0.25487301 -0.0054468485 0.13690831
0.3152512 -0.0066617629 0.1340013
0.4184283 -0.0011760085 0.13268673
0.42106116 -0.0087869344 0.13455756
-0.33525822 0.0050972616 0.1335285
-0.30274731 0.0097442828 0.13549356
-0.29464859 0.0075413757 0.13043371
0.32171011 0.0081764599 0.13857487
0.34438854 0.0073348144 0.13785808
0.35795057 0.0079555847 0.13167615
0.39947882 0.0015702222 0.1399685
-0.32943988 0.013228818 0.13364601
-0.24598067 0.014487125 0.13328129
0.38061157 0.012722091 0.13720636
0.40639493 0.017577037 0.13472909
-0.32012287 0.022199612 0.1388443
-0.25589922 0.023401638 0.13054089
-0.30352914 0.030997479 0.13317825
-0.29388708 0.032858949 0.13235714
-0.2855835 0.033519197 0.13749708
-0.30615824 -0.072218344 0.14657913
-0.26785052 -0.072033331 0.1477854
0.36217833 -0.075305551 0.14927319
0.39022475 -0.07077086 0.14589313
-0.31794381 -0.066181675 0.14368784
-0.30237603 -0.06462346 0.1469481
-0.26404899 -0.064396895 0.14980781
-0.25845715 -0.06767416 0.14091188
0.3322072 -0.062440798 0.14357159
0.34174943 -0.069269449 0.14332744
0.35119915 -0.06256485 0.14560361
0.36825109 -0.06692411 0.14656442
0.37789407 -0.067823701 0.14857641
0.3939732 -0.069218203 0.14062589
-0.32943407 -0.055546522 0.14110196
-0.26547882 -0.0593803 0.14463311
-0.24675846 -0.057810999 0.14588816
0.34213758 -0.055669386 0.14399931
0.39016026 -0.05445686 0.14103214
-0.31959391 -0.048097745 0.14307635
-0.25389302 -0.047781445 0.1436511
0.33208698 -0.049590375 0.14663458
-0.23609881 -0.039926842 0.1478439
0.31450528 -0.033281781 0.14583784
0.40956354 -0.038190797 0.14609702
0.41914505 -0.039403349 0.14081699
-0.34169677 -0.024355017 0.14363588
0.31300598 -0.020417985 0.14327808
0.32403487 -0.02344485 0.14468364
-0.23263684 -0.018878197 0.14618865
0.41426003 -0.014970152 0.14786071
0.42180395 -0.014427172 0.14300422
0.32394278 -0.0066557582 0.147058
-0.23936453 0.0053790552 0.14279571
-0.32001504 0.012605219 0.14773372
-0.30457926 0.015246496 0.14126991
-0.26353922 0.01987426 0.14796117
-0.25944963 0.01826888 0.14917544
-0.24318244 0.010840469 0.14235707
0.35143346 0.017300004 0.14278783
0.40691024 0.01726969 0.14387012
-0.31638366 0.025068924 0.14510101
-0.29491687 0.022113375 0.14493689
-0.28192347 0.023633227 0.14609
-0.26267141 0.027578095 0.14705151
-0.25342095 0.021500066 0.14561266
0.3441875 0.027969582 0.14973754
0.35945565 0.026474779 0.14929949
0.37757292 0.023508972 0.1465496
0.39630058 0.025571512 0.14923388
-0.29330394 0.032935727 0.14550269
-0.2863324 0.033617791 0.14971513
-0.27112293 0.031079045 0.14047635
0.35955203 0.032649957 0.1470672
0.36222675 0.033002097 0.14133401
0.37227017 0.033147059 0.14472988
0.38308749 0.031417333 0.14457087
0.37412184 -0.072115958 0.15233439
-0.32136253 -0.062497243 0.152897
-0.2613506 -0.06696856 0.152897
0.34297237 -0.06409695 0.15016848
0.40183961 -0.063630842 0.15258634
0.32139805 -0.050079647 0.15268299
0.33093309 -0.059851281 0.152897
-0.23631918 -0.040458947 0.15281625
0.31679893 -0.040237807 0.15238105
0.41739821 -0.043621071 0.15267438
0.32017583 -0.03750933 0.15124232
0.31301144 -0.020376842 0.15012905
-0.34105664 -0.015530396 0.15164584
-0.24065399 -0.0012802689 0.15161912
0.31689695 -0.0018355376 0.15229341
0.32110816 0.0073919557 0.15266325
0.4099147 0.0054532848 0.1505968
0.41321278 0.0042701438 0.15249698
-0.32355076 0.017596299 0.152897
-0.31832308 0.018665455 0.15150616
0.33696154 0.018365437 0.15111189
0.405092 0.01514376 0.152897
-0.29598746 0.02865833 0.15151562
0.35517877 0.029855819 0.152897
0.38398603 0.025987921 0.15073502
0.39715871 0.02187966 0.15125179
-0.27723977 0.031583309 0.15278861
-0.2693812 0.030357551 0.15110184
