# .PCD v0.7 - Point Cloud Data file format
VERSION 0.7
FIELDS x y z
SIZE 4 4 4
TYPE F F F
COUNT 1 1 1
WIDTH 901
HEIGHT 1
VIEWPOINT 0 0 0 1 0 0 0
POINTS 901
DATA ascii
0.23242158 0.037332669 -0.15088741
0.12539677 0.049427245 -0.15051067
0.16221751 0.049801558 -0.1517511
0.18881005 0.048818361 -0.15305465
0.19568616 0.04880812 -0.15294898
0.23579662 0.044600409 -0.15104899
-0.0061227367 0.035658628 -0.14073852
0.040579055 0.035338208 -0.14420673
0.072738916 0.036590829 -0.1468406
0.095749728 0.036524393 -0.14820512
0.20981669 0.03503307 -0.14295736
0.22627868 0.036166281 -0.1470173
0.061929144 0.043681972 -0.14600675
0.092216074 0.048671078 -0.1480016
0.10507697 0.040465485 -0.14932987
0.11461352 0.048839364 -0.1485614
0.13141835 0.048002366 -0.14578125
0.15527722 0.048299488 -0.14676726
0.16657406 0.048841774 -0.14856586
0.22313473 0.048901983 -0.14876726
0.24173298 0.048257157 -0.14662859
0.25251266 0.047356032 -0.14342812
-0.1309118 0.036413938 -0.13026935
-0.10056269 0.032681499 -0.13305108
-0.074808665 0.032735683 -0.13355334
-0.066233963 0.036360513 -0.13599421
-0.03927986 0.036933713 -0.13815811
-0.024077687 0.035495363 -0.13934287
0.0015932024 0.032370694 -0.13205843
0.016576406 0.032263629 -0.13161977
0.045856364 0.032587618 -0.1329473
0.089516751 0.032706089 -0.13343142
0.11714104 0.033431098 -0.13640064
0.29361904 0.031869132 -0.13000607
-0.087114483 0.043539956 -0.13312605
0.038207311 0.044190511 -0.13046914
0.099555187 0.045978475 -0.13778704
0.11345211 0.044166856 -0.13037311
0.16501287 0.046413127 -0.13956709
0.28299725 0.044658188 -0.13238354
0.048931405 0.029819142 -0.12161411
0.14410986 0.02987726 -0.12185273
0.35374117 0.029590797 -0.12067993
-0.15476333 0.038680527 -0.12796451
-0.14421219 0.034877148 -0.12868457
-0.13451234 0.030444339 -0.12417259
-0.074725829 0.030807436 -0.12566009
-0.040221453 0.030233312 -0.12330942
-0.017260704 0.030123476 -0.12285983
0.082868144 0.03099815 -0.1264396
0.12437556 0.030055432 -0.12258214
0.20141104 0.031743355 -0.12949148
0.23418799 0.030954966 -0.12626395
0.34824249 0.030839954 -0.12579298
0.35059458 0.038579859 -0.12730119
-0.19579865 0.042447906 -0.12333452
-0.088200018 0.043548279 -0.12783933
-0.061981261 0.042152926 -0.12212575
-0.055219121 0.041765623 -0.12053989
0.070750512 0.042508524 -0.12358253
0.16346489 0.042672496 -0.12425383
0.21123008 0.041831136 -0.12080891
0.26091483 0.043056142 -0.12582313
0.30773643 0.043601729 -0.1280576
-0.31704825 0.028788479 -0.11165798
-0.30572104 0.027818969 -0.1126259
-0.14773467 0.027730241 -0.11215517
-0.076036222 0.027573125 -0.11132159
-0.021935508 0.028378112 -0.11559244
0.14036494 0.028520782 -0.11629906
0.1703518 0.028365709 -0.11552663
0.23406969 0.028820712 -0.1175275
0.24424101 0.028133417 -0.11429419
-0.31246772 0.031695619 -0.11643664
0.010580559 0.039827812 -0.11156525
0.26211816 0.03985551 -0.1117118
0.27147052 0.039602749 -0.11037029
0.36949825 0.03080439 -0.11936715
0.37078905 0.030346187 -0.11875635
-0.37246841 0.048062369 -0.11760642
-0.36665177 0.046939407 -0.11742134
-0.35618967 0.04408332 -0.11528172
-0.34835663 0.043538999 -0.11691715
-0.32066578 0.041108917 -0.11645357
-0.31599799 0.040885534 -0.11234699
-0.19987136 0.040242471 -0.11376938
-0.17607783 0.040647727 -0.11591309
-0.16035751 0.041028202 -0.11752328
0.015843961 0.040909253 -0.1170342
0.037648045 0.040086467 -0.11293668
0.1654142 0.040729787 -0.11629888
0.35974649 0.041537292 -0.11960593
-0.37831244 0.053535677 -0.11780551
-0.34784782 0.050863612 -0.11314321
-0.38908094 0.064098783 -0.1146886
-0.41466653 0.071264163 -0.11034617
-0.28907669 0.025840227 -0.10212773
-0.25879955 0.02615908 -0.1038194
-0.22965895 0.025879288 -0.10233498
-0.18124774 0.025792081 -0.1018723
-0.17099214 0.025517743 -0.10041681
-0.028443381 0.025872409 -0.10229848
0.048404086 0.025616441 -0.10094043
0.070138454 0.026947636 -0.10800306
0.14167637 0.026533529 -0.10580604
0.1673736 0.025482655 -0.10023063
0.24293837 0.026816189 -0.10730569
0.25855666 0.026948214 -0.10800613
-0.33994615 0.035489291 -0.1096582
-0.2356395 0.03868521 -0.10550942
-0.16267167 0.038195729 -0.1029107
-0.13685046 0.038848191 -0.106371
-0.092556722 0.039426818 -0.10943909
-0.067526743 0.037767477 -0.10063725
-0.011476698 0.038797755 -0.10610372
0.034741953 0.03859023 -0.10500339
0.15245143 0.038423404 -0.10411633
0.17373915 0.038351938 -0.10373645
0.18344055 0.037958052 -0.10164668
0.22852328 0.037790753 -0.10075934
0.28263113 0.03808549 -0.10232261
0.33937252 0.039268989 -0.10859978
0.3609682 0.038884856 -0.10656238
-0.41069081 0.057034362 -0.10641985
-0.35243693 0.051005308 -0.10657607
-0.42470643 0.060709111 -0.10277729
-0.27656239 0.024210023 -0.093478717
-0.26852715 0.024774235 -0.096472129
-0.25385541 0.02408953 -0.092839442
-0.1339858 0.023596002 -0.09022104
-0.076979205 0.024886221 -0.097066268
-0.068946913 0.023646079 -0.09048672
-0.054424889 0.024083678 -0.092808396
-0.0079025626 0.023647159 -0.090492457
0.0076603703 0.02381321 -0.091373436
0.22102799 0.024698036 -0.096067868
0.39221635 0.024686199 -0.09600506
-0.33610237 0.031458944 -0.095360592
-0.32166532 0.038210649 -0.090660013
-0.24322273 0.036816277 -0.095591515
-0.17943595 0.036764178 -0.095316552
-0.026042888 0.035884555 -0.090650611
-0.010234986 0.037064619 -0.096912153
-0.0060215406 0.036812503 -0.095574118
0.10139054 0.036382489 -0.093290024
0.11823113 0.036850326 -0.095771402
0.22332549 0.036475208 -0.093781799
0.35477805 0.03700589 -0.096596502
-0.3671163 0.040283963 -0.090803087
-0.33789182 0.043815192 -0.093270853
-0.40063569 0.051491868 -0.094328247
-0.40964919 0.066824347 -0.09583725
-0.43627986 0.075348541 -0.096713543
-0.42909074 0.073008925 -0.096280493
-0.30431917 0.022475323 -0.083006412
-0.28478408 0.023249742 -0.088383973
-0.23920402 0.022976093 -0.086745769
-0.16590786 0.022267355 -0.08145345
-0.06923078 0.023052452 -0.087315962
-0.051124159 0.022736805 -0.084958956
-0.042009547 0.023321556 -0.088764973
-0.030911133 0.02306563 -0.087407172
-0.023952268 0.022543222 -0.083513424
0.15800714 0.022321692 -0.081859216
0.18767843 0.023465332 -0.089527786
0.1993898 0.022174003 -0.080756389
0.31621101 0.022332057 -0.081936613
0.34273759 0.022670489 -0.084463753
0.3598181 0.022648409 -0.084298901
0.41407067 0.022780851 -0.085116677
0.43011388 0.029687753 -0.080184311
-0.3625474 0.037176218 -0.080258101
-0.35717547 0.036117937 -0.084721543
-0.31609213 0.03634315 -0.08865805
-0.17278333 0.034468196 -0.081404492
-0.089151375 0.034321181 -0.08030428
0.030336052 0.035497971 -0.088598631
0.15149719 0.0353848 -0.087998383
0.21719663 0.035730839 -0.089833744
0.32883942 0.035446998 -0.088328265
0.33734241 0.034411315 -0.080977328
0.34722254 0.035477392 -0.08848948
0.35074556 0.035240456 -0.08716891
0.37985921 0.035368636 -0.087912634
0.38736188 0.034745764 -0.083474785
0.42497808 0.03446538 -0.081384316
-0.45528823 0.069213673 -0.082570553
-0.42918962 0.070827432 -0.084139019
-0.33474866 0.028273135 -0.078934118
-0.32362908 0.024082799 -0.073921055
-0.2469109 0.021068906 -0.072504379
-0.20131306 0.022023374 -0.079631604
-0.18614426 0.02116747 -0.073240377
-0.015046641 0.02160807 -0.076530427
0.097277589 0.021611948 -0.076559402
0.11945998 0.020990727 -0.071920596
0.21634637 0.021994721 -0.079417661
0.37032413 0.021512903 -0.075819805
-0.37230089 0.038884312 -0.070633397
-0.35819131 0.034923099 -0.073935702
-0.28822088 0.033232383 -0.072173744
-0.25447839 0.033429611 -0.073646545
-0.21999004 0.033573721 -0.074720718
-0.1853787 0.033034265 -0.070692003
-0.13947888 0.034183096 -0.079273477
-0.12818128 0.034140743 -0.078956865
-0.10891245 0.034176644 -0.079224952
-0.053917814 0.032969635 -0.070211694
-0.011466003 0.034014139 -0.078012452
0.025198471 0.033101171 -0.071194425
0.083864011 0.033549037 -0.07453879
0.13509013 0.03339104 -0.073358722
0.1954712 0.033504799 -0.074207984
0.21750116 0.033898495 -0.07714799
0.25568715 0.034109112 -0.078720719
0.2682133 0.033909027 -0.07722652
0.34307152 0.034123763 -0.078830063
0.38963956 0.033914063 -0.077264138
0.43512535 0.033643115 -0.07524547
-0.43907246 0.05981889 -0.070602208
-0.41142905 0.051759932 -0.074950948
-0.27025971 0.01982357 -0.063205183
-0.21349031 0.019764189 -0.062761761
-0.044310965 0.019817483 -0.063159712
0.0024735462 0.019424163 -0.060222715
0.053549662 0.01958113 -0.061394818
0.29688275 0.019949047 -0.064142138
0.30248031 0.019619182 -0.061678953
0.33782613 0.019902572 -0.063795097
-0.33804888 0.02720201 -0.063924678
-0.2647633 0.020106677 -0.065319203
-0.24671081 0.020259807 -0.066462666
-0.23504275 0.020145612 -0.065609924
-0.20108342 0.02016747 -0.065773159
-0.10843129 0.020403851 -0.067538261
-0.0063187778 0.020646002 -0.069346458
0.24148794 0.020647068 -0.069354415
0.2689783 0.020069068 -0.065038361
0.29831547 0.020282527 -0.066632316
0.38845715 0.020043066 -0.064844191
0.39240327 0.020405708 -0.067552127
-0.27625078 0.031997029 -0.062948853
-0.19937113 0.032578543 -0.067288339
-0.15885875 0.032492705 -0.066647522
-0.12119777 0.032540884 -0.067009054
-0.090764321 0.032782104 -0.06881237
-0.045563579 0.031613611 -0.060085267
-0.035246417 0.032874748 -0.069503143
0.0094920909 0.031825326 -0.061666686
0.36632255 0.032436583 -0.066231191
-0.43817276 0.058073428 -0.060171805
-0.44342536 0.073160179 -0.068954237
-0.30223045 0.018948488 -0.055508256
-0.26707351 0.019176763 -0.058360044
-0.2513842 0.018708427 -0.052509211
-0.1722483 0.018876687 -0.054611243
-0.089459181 0.018905479 -0.054970976
-0.075661749 0.019361369 -0.059753802
-0.038730532 0.018687334 -0.052245729
-0.018534109 0.019173956 -0.05832497
0.038142703 0.018810466 -0.053783998
0.07492432 0.018598117 -0.051131152
0.1043096 0.019053461 -0.056819662
0.12470039 0.018944204 -0.055454746
0.20433572 0.018803891 -0.053701852
0.23388678 0.019011104 -0.056290515
0.3183037 0.018535452 -0.050346766
0.36047697 0.018642277 -0.05168194
0.39207593 0.018765008 -0.053215627
0.44750643 0.018989395 -0.056018583
-0.36297864 0.033621728 -0.050978884
-0.25213012 0.031014819 -0.053740963
-0.14373699 0.031122152 -0.055080764
-0.13323382 0.0307907 -0.050938714
0.12219609 0.031578984 -0.059827149
0.14769055 0.03096474 -0.053115055
0.16005211 0.030821472 -0.051325187
0.26870829 0.031106526 -0.054886457
0.3316066 0.031097177 -0.054769646
0.37698606 0.030770386 -0.05068671
0.42567706 0.031403407 -0.058516022
0.44409722 0.031132985 -0.055219058
-0.35994518 0.044831175 -0.050419971
-0.40616825 0.059911333 -0.057394221
-0.38931519 0.054130618 -0.051485538
-0.45378834 0.062834248 -0.05920279
-0.30939353 0.018173562 -0.045364931
-0.26779288 0.018244272 -0.046710655
-0.14736475 0.017853776 -0.041832268
-0.09927173 0.017921014 -0.04267225
-0.037414625 0.018022429 -0.043939196
0.031607211 0.017874684 -0.042089321
0.067026004 0.018454522 -0.049337246
0.10079411 0.018444981 -0.049218047
0.11180215 0.017842738 -0.04168994
0.12556854 0.018351108 -0.048045307
0.33249283 0.018027835 -0.044006251
-0.23227912 0.029994616 -0.040991101
0.066217601 0.029977662 -0.040781308
0.3955119 0.029974725 -0.040746398
-0.32457855 0.033242837 -0.044487197
-0.26981184 0.030575095 -0.048247639
-0.13755453 0.030052286 -0.041708622
-0.1152809 0.030494234 -0.047233552
-0.10281587 0.030411614 -0.046201441
-0.05451918 0.030197594 -0.043526921
-0.045208961 0.030063726 -0.041854016
-0.022550084 0.030353958 -0.045480937
0.0091248155 0.030356901 -0.045521162
0.12242213 0.030559443 -0.048051607
0.14730334 0.0300272 -0.041398332
0.15174322 0.030226119 -0.043885116
0.19683553 0.030623276 -0.048849024
0.20894837 0.0300905 -0.042189281
0.35109332 0.030601986 -0.048582472
0.43409973 0.030472102 -0.046957333
-0.41094023 0.048123345 -0.044563748
-0.37899244 0.050090279 -0.041913152
-0.46350402 0.067410588 -0.049195603
-0.2371226 0.017400682 -0.036171854
-0.19511414 0.017122824 -0.032697678
-0.16351038 0.017368605 -0.03577112
-0.01549308 0.017495066 -0.037344664
0.032278605 0.017219525 -0.033903729
0.065090328 0.017196964 -0.033622548
0.083527833 0.017416716 -0.036367852
0.095050491 0.017424479 -0.036465049
0.10176934 0.016926497 -0.030244768
0.12004296 0.017317867 -0.035133824
0.13007592 0.017126944 -0.032749161
0.22472799 0.017403193 -0.036201656
0.24392793 0.017363401 -0.035704955
0.28471473 0.017505143 -0.037476268
0.29286447 0.017046619 -0.031748753
0.32528055 0.017666981 -0.039498605
0.36909735 0.017129814 -0.03278761
0.37523195 0.01734953 -0.035532176
0.38619158 0.017456908 -0.036874484
0.45362031 0.017083082 -0.032196037
-0.26873663 0.029659752 -0.036808051
-0.19220391 0.029169178 -0.03067974
-0.137237 0.029405557 -0.033635855
-0.093996018 0.029184014 -0.030865751
0.0044128411 0.029697085 -0.03727521
0.026726892 0.029872313 -0.039465323
0.052887894 0.029481253 -0.034575455
0.097346537 0.029570684 -0.035693012
0.10507896 0.029902365 -0.03983881
0.2136458 0.02971998 -0.037561476
0.25306398 0.029272515 -0.031973694
0.26840195 0.029380826 -0.033327028
0.3344202 0.029633326 -0.036476422
0.40960878 0.029914388 -0.03998778
0.41218069 0.029610947 -0.036195762
0.42885897 0.029212553 -0.031217188
0.46241692 0.024156777 -0.035966914
-0.31741291 0.030257462 -0.032105334
-0.42084044 0.050552662 -0.036508277
-0.45471472 0.073253527 -0.034962393
-0.3143912 0.017215913 -0.023031987
-0.21580411 0.017035706 -0.024203029
-0.19428855 0.016639395 -0.021468831
-0.095198676 0.016660633 -0.022295626
-0.089270554 0.016763933 -0.02617812
-0.047161687 0.016746247 -0.025511337
0.093010627 0.016743425 -0.025391595
0.1219545 0.016793992 -0.027300067
0.16410169 0.016669614 -0.022622807
0.17913504 0.01677607 -0.026633637
0.26255271 0.016845079 -0.029184103
0.27321547 0.016790578 -0.027019169
0.320342 0.016730169 -0.024904661
0.41215038 0.016795054 -0.027332231
0.43858346 0.016687611 -0.023285883
0.44757563 0.016728595 -0.024819775
-0.24726844 0.028952692 -0.025424007
-0.22415218 0.028911933 -0.023900138
-0.21705508 0.021206111 -0.027217876
-0.17741963 0.028852567 -0.021669572
-0.1323425 0.028967744 -0.02598777
-0.0908444 0.028967546 -0.025980366
-0.080363162 0.028949965 -0.025320221
-0.071926974 0.028837614 -0.021102604
-0.030676588 0.028857781 -0.021859702
-0.024576895 0.029026093 -0.028178154
0.030792048 0.028853869 -0.02173309
0.040839106 0.029054239 -0.029234793
0.10500389 0.029048249 -0.028602032
0.12078156 0.029043458 -0.02883118
0.14546065 0.028912896 -0.023938878
0.15796672 0.028915048 -0.024018195
0.16621451 0.028968092 -0.026009602
0.18496969 0.02884081 -0.021224637
0.23119962 0.029065607 -0.029381845
0.30565307 0.029049698 -0.029079571
0.31190124 0.028839231 -0.021171901
0.35693771 0.029039789 -0.028190352
0.37347034 0.029041722 -0.028794713
0.39907783 0.028883042 -0.022801198
0.42075932 0.029004237 -0.027353484
-0.40934688 0.046324201 -0.028740628
-0.36454624 0.044456732 -0.027796641
-0.43023705 0.052757856 -0.0245363
-0.39398122 0.053687394 -0.027799305
-0.45284626 0.071937688 -0.02028542
-0.26706836 0.016477216 -0.015387573
-0.25168628 0.016506951 -0.016504861
-0.17693946 0.016491411 -0.015921006
-0.097022921 0.016462609 -0.014836462
-0.053523671 0.016420305 -0.013249233
-0.047470525 0.016409189 -0.012831564
-0.014277548 0.016398214 -0.012419226
0.0773964 0.016445141 -0.014174567
0.14697278 0.016404539 -0.01266062
0.2363016 0.016550094 -0.018130258
0.3038508 0.016526205 -0.017229728
0.39627677 0.016391752 -0.012182803
-0.30748141 0.028574482 -0.011224984
-0.29975379 0.028657518 -0.014350343
-0.25530335 0.028590111 -0.011818271
-0.23728055 0.028606124 -0.012414942
-0.21509387 0.02866542 -0.014642232
-0.16461141 0.028632313 -0.013407279
-0.12948784 0.028638694 -0.013640885
-0.033756614 0.028770451 -0.018581286
0.014598751 0.028724147 -0.016860306
0.061829459 0.028715922 -0.016545452
0.11434222 0.028631387 -0.013361796
0.13272989 0.028711129 -0.016356731
0.14257415 0.028800134 -0.019700928
0.17441697 0.028597364 -0.012090713
0.18217731 0.02856249 -0.010780808
0.26602599 0.028631348 -0.013367292
0.31460693 0.028705306 -0.016145246
0.40824363 0.028584842 -0.011617839
-0.33025208 0.03321157 -0.010203948
-0.36357188 0.043744169 -0.01320618
-0.42613551 0.051313777 -0.018863775
-0.39417699 0.0533216 -0.012472634
-0.2662884 0.016248362 -0.0067888107
-0.2399226 0.016069613 -7.2614028e-05
-0.19415987 0.016155263 -0.0032907836
-0.18214148 0.01627164 -0.0076634577
-0.037252739 0.016166391 -0.0037089095
0.019694537 0.016137231 -0.0026132811
0.071998134 0.016294077 -0.0085064927
0.1673024 0.016205609 -0.0051824925
0.30004352 0.0161567 -0.0033447924
0.3340646 0.016328843 -0.0098155802
0.3503091 0.016192086 -0.004677447
0.46748802 0.016128214 -0.0022732168
-0.31467918 0.028892014 -0.0044296216
-0.28061831 0.02847416 -0.0074628382
-0.15705374 0.02844259 -0.0062788087
-0.028935343 0.028512247 -0.008888334
0.052480131 0.028450934 -0.0065866541
0.068705186 0.028426103 -0.0056577818
0.1007615 0.028490987 -0.0080922926
0.12631319 0.028318638 -0.0016211184
0.15470923 0.028459005 -0.0068936739
0.20459649 0.028314358 -0.0014603849
0.25373322 0.028406525 -0.004922383
0.33309045 0.028344778 -0.0026030405
0.37765026 0.028480873 -0.0077150352
0.46933424 0.023969419 -0.00028768746
-0.37668657 0.035442784 -0.0058139553
-0.32809982 0.03244577 -0.006946668
-0.44366097 0.056539278 -0.0091939839
-0.4173156 0.060236312 -0.00024242724
-0.24687974 0.016307453 0.0090081198
-0.23368306 0.016246475 0.0067168674
-0.067883059 0.016151814 0.0031598234
-0.059755426 0.016080495 0.00047995389
0.020490855 0.016274914 0.0077854162
0.061027944 0.016206371 0.0052098823
0.085923254 0.016125593 0.002174593
0.10333063 0.016260782 0.0072544091
0.18323717 0.016271973 0.0076749064
0.21375906 0.016086632 0.00071063091
0.28117085 0.016280413 0.007997768
0.31819957 0.016167507 0.003749511
0.35292786 0.01611005 0.001590521
0.38823649 0.016090248 0.00084649381
0.40881759 0.016242281 0.0065595652
-0.33899558 0.02360237 0.0050667142
-0.14517818 0.028332848 0.0021504052
-0.13413855 0.02831934 0.0016437307
0.21949419 0.028308555 0.0012468187
0.24795979 0.028441966 0.0062566958
0.26826489 0.02831251 0.0013941021
0.29465151 0.028405322 0.0048792381
0.39057827 0.028295442 0.00075001217
0.4171426 0.028361809 0.0032419385
0.46908942 0.025410097 0.0047806557
-0.36323223 0.03124636 0.0066233031
-0.34316269 0.037240412 0.0094912043
-0.40204453 0.043291762 0.0021176203
-0.39420214 0.053121898 0.0050468976
-0.44758835 0.069810562 0.0031589705
-0.31586349 0.017176868 0.015992887
-0.18599617 0.016398922 0.012445174
-0.023293272 0.016511627 0.016684068
0.049642898 0.01648435 0.015647281
0.13791132 0.016362317 0.011064589
0.17438036 0.0164904 0.015890202
0.21304952 0.016537141 0.01764421
0.23144659 0.016472384 0.015210955
0.28696734 0.01654866 0.018073434
0.33845454 0.016496066 0.016095551
0.34013271 0.016359203 0.010954581
0.41928583 0.016368279 0.011290807
-0.23458262 0.028599905 0.012174261
-0.22572924 0.028756686 0.018067047
-0.1502004 0.02866113 0.014466704
-0.094226032 0.028768504 0.018506741
-0.0461425 0.028577283 0.011328238
0.076448336 0.028675497 0.015028216
0.12188368 0.028574549 0.011237192
0.1919646 0.028624102 0.013098733
0.23506662 0.028566144 0.010920839
0.28393361 0.028579993 0.011439761
0.29940099 0.028617999 0.012866765
0.34267604 0.028766003 0.018407531
0.35636443 0.028663706 0.014584311
0.39958465 0.028732948 0.01717815
0.45673919 0.028627014 0.013194978
-0.39938122 0.042891078 0.017698985
-0.44235045 0.056369871 0.017820731
-0.39293224 0.053015925 0.015519575
-0.42660344 0.063665703 0.018754637
-0.41726786 0.060698375 0.017331429
-0.29614985 0.017124834 0.023311397
-0.26420152 0.01683839 0.028950229
-0.15609071 0.016608242 0.020298135
-0.1234114 0.016739756 0.025270224
-0.073377334 0.016656123 0.022126546
-0.014719918 0.016642731 0.021620784
0.11853901 0.016895141 0.029847611
0.14771983 0.016637767 0.021426857
0.1605809 0.016704172 0.023920683
0.21490058 0.016855024 0.02934543
0.33380127 0.016646435 0.021758631
0.36544475 0.016806059 0.027722422
0.37719914 0.016721139 0.024556592
0.38660806 0.016802397 0.027608562
0.40194035 0.016801378 0.027573477
-0.29519078 0.023605723 0.023279294
-0.28679532 0.028952572 0.025436215
-0.23071851 0.02897873 0.026391994
-0.18534954 0.029001396 0.027248636
-0.15874824 0.029021943 0.028020941
-0.091662541 0.028973291 0.026194513
-0.087471664 0.029012542 0.027667988
-0.046656966 0.028884942 0.022877844
0.014696759 0.028958181 0.025638139
0.17627984 0.028859412 0.021926159
0.2168498 0.028966093 0.025929449
0.28391296 0.021760114 0.024144752
0.3050274 0.028863966 0.022099717
0.37152329 0.028329033 0.029294886
0.43985665 0.028985342 0.02664499
0.46078444 0.029000632 0.027227813
-0.38910291 0.03974225 0.020363793
-0.37172055 0.034538392 0.029220711
-0.3658762 0.0325168 0.022450611
-0.35829112 0.030182078 0.024023443
-0.32007453 0.03055126 0.026449757
-0.36488593 0.044579729 0.028385263
-0.46271211 0.06288638 0.022525238
-0.46669352 0.072153397 0.028486047
-0.2680788 0.01760071 0.038669258
-0.22265466 0.017527625 0.037756238
-0.2094021 0.01761049 0.038791444
-0.19300224 0.017342506 0.035443574
-0.17543477 0.017084798 0.032224298
-0.16826209 0.017063858 0.031956781
-0.14724588 0.01747036 0.037040818
-0.12779598 0.017013928 0.031331003
-0.021007918 0.016927812 0.030257374
0.015267825 0.017040707 0.031668253
0.022948883 0.017276537 0.034614194
0.039779391 0.017255532 0.034352146
0.085131824 0.017123867 0.032708351
0.20113385 0.017486917 0.037245516
0.21655598 0.017305337 0.034977667
0.2766028 0.017462663 0.036944002
0.31036764 0.017639192 0.039149702
0.33680415 0.017150393 0.033039004
-0.33665454 0.024129318 0.036231488
-0.22243622 0.029342109 0.032837439
-0.19611973 0.029583529 0.035850205
-0.17832674 0.029465204 0.03437129
-0.13475567 0.029524252 0.035109606
0.068251707 0.029189808 0.030933283
0.073984526 0.029597169 0.036023054
0.1282621 0.029637001 0.036520809
0.14887781 0.029682877 0.037094485
0.20160109 0.029878264 0.039536644
0.22849454 0.029905375 0.039876126
0.31851342 0.029621717 0.036335967
0.36329401 0.029352935 0.032976829
0.40003359 0.029613415 0.03622511
-0.32002604 0.030804902 0.031534102
-0.40493771 0.045660585 0.037641421
-0.43317226 0.054537266 0.037907828
-0.45326054 0.060453236 0.033334468
-0.41347831 0.060592033 0.038182162
-0.29434434 0.017821683 0.04142981
-0.21253756 0.018249517 0.046774663
-0.094945081 0.017880989 0.042170748
-0.06859085 0.018138608 0.045389105
0.061098605 0.018371781 0.048302099
0.084351927 0.018374626 0.048337616
0.13893199 0.018428052 0.049005061
0.20015563 0.01821037 0.046282314
0.23812091 0.017994277 0.043583784
0.32738584 0.018466679 0.049486376
0.4068161 0.018346954 0.047990434
-0.33968085 0.025601882 0.042470165
-0.085828267 0.029967761 0.040653136
0.34313124 0.029917859 0.040031932
-0.3707608 0.035463337 0.04384201
-0.22518235 0.030638197 0.049034458
-0.21698852 0.030614233 0.048732258
-0.1655951 0.030478094 0.047028735
-0.15549445 0.030115459 0.042497277
-0.080862187 0.030109271 0.042421669
0.058234937 0.030657472 0.049277399
0.071160391 0.030282587 0.04459523
0.10619174 0.030526895 0.047646541
0.19515252 0.030502345 0.047337987
0.33740723 0.03029678 0.044768386
0.36658078 0.030541617 0.047827449
0.41207904 0.03029195 0.044704538
-0.39420256 0.042977307 0.045783013
-0.46488279 0.066672251 0.040992983
-0.45274079 0.061295506 0.045319557
-0.3078329 0.019073823 0.057031237
-0.23341167 0.01917408 0.058325022
-0.076298445 0.018735025 0.052840006
0.0035185367 0.01880274 0.053685948
0.12967543 0.018866755 0.05448569
0.23645541 0.018769354 0.053268861
0.26890707 0.018824287 0.053955141
0.29864883 0.019247157 0.058899492
0.30984992 0.018728156 0.052753098
0.39582109 0.018943992 0.055449907
0.42386422 0.01882969 0.054022674
0.44193488 0.018954039 0.05557609
-0.35420841 0.030882148 0.051104426
-0.33030319 0.035799447 0.053559616
-0.26560977 0.031091191 0.054693542
-0.24593142 0.031525709 0.059427798
-0.20725492 0.030767281 0.050644975
-0.18291876 0.030880019 0.052051812
-0.090872742 0.031384572 0.058358666
-0.076205879 0.030716361 0.05000826
-0.069140866 0.030767562 0.050648071
-0.035834633 0.031084491 0.054608636
-0.019689716 0.031387113 0.058390409
0.00066677481 0.031159297 0.055545054
0.06309627 0.031171797 0.055701159
0.076394551 0.030993026 0.053468391
0.1264217 0.031046703 0.054138791
0.15427706 0.031027403 0.053897753
0.2072147 0.030724958 0.050120305
0.21404205 0.03102822 0.053907931
0.32510599 0.031313736 0.057473935
0.34539858 0.031185685 0.055874631
-0.39896351 0.04544878 0.057443049
-0.3646614 0.046441935 0.051989298
-0.38514802 0.052767668 0.050814409
-0.45368177 0.074805275 0.05732654
-0.24562836 0.019803366 0.06305287
-0.043130707 0.019553639 0.061188072
-0.018168315 0.019928493 0.06398724
0.12261163 0.019936513 0.064047128
0.34326646 0.019726127 0.062476128
-0.32413867 0.022666024 0.062683508
-0.30112731 0.020215124 0.066127621
-0.28781754 0.020179652 0.065862745
-0.038550004 0.020232206 0.066255182
0.09270516 0.020379942 0.067358382
0.12181204 0.020535836 0.068522498
0.13301969 0.020123489 0.065443352
0.2674346 0.020004429 0.064554304
0.44304848 0.024222158 0.067976058
-0.34699273 0.030219244 0.065438107
-0.25465822 0.032143787 0.064043343
-0.19875288 0.032648217 0.067810185
-0.12480011 0.032125883 0.063909635
-0.1017507 0.031822011 0.061640475
-0.095775485 0.032541804 0.067017049
-0.073519409 0.032479376 0.066551127
-0.062934652 0.032495182 0.066667393
-0.057174012 0.031759538 0.061174206
0.033419207 0.032491401 0.06664145
0.19503413 0.03224973 0.064834476
0.21095955 0.032400098 0.065957353
0.31574604 0.032874789 0.06950213
0.35275614 0.031837001 0.061752416
-0.35510695 0.044898205 0.064916134
-0.42863885 0.067277558 0.060079068
-0.33242783 0.027079888 0.075615466
-0.24632932 0.021514738 0.075832315
-0.16669457 0.020993687 0.071941443
-0.047393069 0.021371331 0.074761435
-0.0067531206 0.021775909 0.077782564
0.016583906 0.021289445 0.074149974
0.12543659 0.020834805 0.07075502
0.1845358 0.021314371 0.074336104
0.26969621 0.021365464 0.074717619
0.29566094 0.021298232 0.074215584
0.38121295 0.02158951 0.076390639
0.42493796 0.020756945 0.070173599
0.43985486 0.027953722 0.071246937
-0.21946439 0.03326986 0.072452337
-0.20193206 0.033241395 0.072240502
-0.11939612 0.033285223 0.072569974
0.028618054 0.034049135 0.07827802
0.16404234 0.033044405 0.070768744
0.31377631 0.033778973 0.076254189
0.34647861 0.033302814 0.072698422
0.36703908 0.033418268 0.073560603
0.42884332 0.033152401 0.071576983
-0.37661195 0.041307211 0.078265294
-0.43251175 0.07080733 0.076572835
-0.322227 0.025054425 0.083978266
-0.24476048 0.023103561 0.087607421
-0.21215652 0.022219973 0.081098542
-0.15068799 0.022923393 0.086351238
0.0035852045 0.022886835 0.086055033
0.090913489 0.023210922 0.08817704
0.11297673 0.02254216 0.083504423
0.1325444 0.022612728 0.084031388
0.17996857 0.023342976 0.088877678
0.41152593 0.022430962 0.082674064
0.42501983 0.022102453 0.080220997
-0.35723624 0.035991952 0.083686829
-0.25095612 0.034562524 0.08210668
-0.21697071 0.035558723 0.088919975
-0.091342315 0.035082605 0.085989088
-0.061009709 0.034808181 0.083939843
0.12666178 0.035759099 0.089982711
0.14256214 0.035011984 0.085463732
0.15535587 0.034806695 0.083932355
0.20652154 0.034747794 0.083492585
0.23244037 0.035113022 0.086217478
0.26900563 0.035335999 0.087738559
0.27566531 0.035175003 0.086679846
0.38050649 0.034645416 0.082724385
-0.35250926 0.046970665 0.085490011
-0.42754897 0.057599582 0.080536336
-0.45488805 0.07471285 0.08357159
-0.32292187 0.026348162 0.090411916
-0.30453894 0.023767343 0.091129214
-0.19841035 0.023797132 0.091287278
-0.17297889 0.023633378 0.090418443
-0.1451163 0.024878489 0.09702459
-0.13393557 0.024358654 0.094266519
0.013201576 0.024086066 0.092820249
0.079012036 0.025437448 0.099990249
0.13676365 0.02494025 0.097352266
0.22333877 0.024288606 0.093894869
0.25053871 0.023779329 0.091192819
0.29625714 0.024567131 0.095372617
0.3164413 0.024093509 0.092859752
0.3838318 0.024462111 0.094815433
0.39853069 0.023846241 0.091547824
-0.27432638 0.036276218 0.092725843
-0.20081131 0.036695112 0.09494853
-0.076773003 0.037508391 0.099262252
-0.016923429 0.036379728 0.093276501
0.055148154 0.036917266 0.096126691
0.16583648 0.03581674 0.09028846
0.24947372 0.036346626 0.093099028
0.2912122 0.036924891 0.096166208
0.31097764 0.036371812 0.093232617
-0.41765702 0.057424299 0.097338215
-0.449599 0.071690455 0.094846129
-0.20904085 0.026425609 0.10523307
-0.18614751 0.026556302 0.10592651
-0.14464834 0.026430715 0.10526018
-0.079313375 0.025460903 0.10011467
-0.044364005 0.026833739 0.1073985
-0.02112031 0.025991626 0.10293052
0.0053411126 0.026143605 0.10373686
0.077510945 0.026197959 0.10402525
0.10845745 0.026953679 0.10803484
0.12820265 0.027130729 0.10897423
0.13246076 0.026968107 0.1081114
0.21549284 0.026266607 0.10438947
0.23526466 0.026604488 0.10618217
0.38610566 0.026484458 0.10554533
-0.33616507 0.03357942 0.10599267
-0.1992657 0.039257102 0.10853963
-0.096342936 0.039513115 0.10989592
-0.015430024 0.038708027 0.10562676
0.0073552579 0.038642641 0.10528004
0.040051907 0.038879994 0.10653866
0.052074447 0.039163426 0.10804163
0.102554 0.037709676 0.10032997
0.17042735 0.038662072 0.10538156
0.24254163 0.038719706 0.10568607
0.30795649 0.03791206 0.10140223
0.33965731 0.038803514 0.1061306
0.38878369 0.0387129 0.10948938
-0.37050086 0.044237077 0.10543871
-0.35459733 0.05195136 0.10793507
-0.43977213 0.065069832 0.10092971
-0.42298958 0.072345078 0.10260559
-0.30209243 0.028524883 0.11631596
-0.28801411 0.027353836 0.11015795
-0.24677664 0.027922451 0.11317483
-0.21478891 0.028092377 0.11407639
-0.17876919 0.027764199 0.11233519
-0.14784929 0.027893996 0.11302385
-0.11734843 0.027831212 0.11269074
-0.081213161 0.029294323 0.11946531
-0.07309065 0.028865671 0.11771046
-0.066886991 0.028549315 0.11641535
-0.018589377 0.028333867 0.11535766
0.10890045 0.02810129 0.11412368
0.1123559 0.028841738 0.11761367
0.23194656 0.028464744 0.11605204
0.30555791 0.027482528 0.11084075
0.3311685 0.027327342 0.11001737
-0.316854 0.034673188 0.1164415
-0.25204891 0.039978549 0.11236951
-0.15820116 0.039900608 0.11195187
-0.11668188 0.03973195 0.11105667
0.31016582 0.039733171 0.11106158
0.3732422 0.039966099 0.11229999
-0.22559607 0.040055595 0.11277838
-0.18712664 0.041312389 0.11868562
-0.035772093 0.040172666 0.1133934
0.048635531 0.04013237 0.11317972
0.062355626 0.041104794 0.11783403
0.24747556 0.041193526 0.11819761
0.2929832 0.040083632 0.11292101
0.35987273 0.040367145 0.11442974
-0.40397951 0.056454156 0.11413781
-0.41514522 0.072188646 0.11426607
0.24398401 0.029722538 0.12121919
-0.14790629 0.033655372 0.12863664
-0.11867172 0.030150242 0.12296668
-0.070422381 0.031119369 0.12693703
-0.036226258 0.031859666 0.12996465
-0.006390553 0.031012131 0.12649781
0.099351853 0.030630127 0.12493309
0.23784432 0.031394534 0.12806335
-0.14666742 0.041148823 0.12875731
0.074590772 0.042826541 0.12488592
0.1307475 0.042295314 0.12271049
0.24525213 0.04368436 0.12839435
0.25370258 0.0437705 0.1287479
0.27511466 0.043748096 0.12865508
0.32985136 0.042130895 0.12203524
0.33361155 0.043496449 0.12762845
0.36343822 0.041598313 0.12207545
-0.12010203 0.034156632 0.13127781
-0.067722075 0.037136383 0.13587226
-0.015615365 0.036767147 0.13999955
-0.0026724981 0.033279974 0.13578063
0.034264602 0.033104464 0.13506153
0.093781404 0.033276327 0.13576539
0.10977772 0.032822944 0.13391016
0.1929805 0.033566449 0.13695388
0.20628484 0.03395804 0.13855684
0.24993791 0.03207197 0.13083637
0.2767522 0.032767706 0.13368431
0.30803168 0.032162603 0.13120738
0.31133074 0.03406015 0.13897419
0.33260044 0.03686465 0.13357978
-0.05196118 0.043670774 0.13715398
0.0045217839 0.044801883 0.13297132
0.11114267 0.04495373 0.13359213
0.16043191 0.044737827 0.13270763
0.21150935 0.045486607 0.13577467
0.31984794 0.041277293 0.13731496
-0.0097515024 0.038048044 0.14045519
0.026625406 0.034588262 0.14113462
0.059618205 0.03449443 0.14075229
0.11766785 0.036715087 0.1488381
0.16361347 0.036110766 0.14683257
0.17622539 0.035292611 0.14401978
0.18102655 0.036257491 0.14732027
0.29618916 0.03684463 0.14278328
0.073174626 0.046138249 0.146874
0.099158555 0.047293618 0.14317076
0.13768889 0.048702251 0.14810312
0.14202474 0.047510602 0.14406128
0.21989048 0.047274239 0.14309449
0.23772371 0.049182147 0.14969674
0.25431716 0.048172265 0.14634724
0.26704031 0.045347467 0.14770284
0.29779232 0.042284295 0.14246656
0.15774012 0.038849011 0.15268594
0.17197444 0.038748667 0.15303126
0.14899898 0.044419326 0.15233985
0.23118174 0.049436487 0.15054113
