# .PCD v0.7 - Point Cloud Data file format
VERSION 0.7
FIELDS x y z
SIZE 4 4 4
TYPE F F F
COUNT 1 1 1
WIDTH 924
HEIGHT 1
VIEWPOINT 0 0 0 1 0 0 0
POINTS 924
DATA ascii
-0.031423628 0.045164578 -0.15154335
0.0087595796 0.047262415 -0.15326457
0.07906241 0.049632356 -0.15649936
0.088566847 0.045979295 -0.15475796
0.14153075 0.045918085 -0.15451722
0.17151937 0.046660297 -0.15744752
0.23205692 0.047860265 -0.1557595
0.045663454 0.057180874 -0.15188169
0.088262692 0.057958066 -0.15495077
0.097839594 0.057042748 -0.15133652
0.11303438 0.053092722 -0.1574728
0.12157595 0.057785287 -0.15426847
0.26527992 0.055216234 -0.1521703
0.27628598 0.051288024 -0.15058374
-0.14704807 0.048569351 -0.14588988
-0.11047243 0.044166546 -0.14760157
-0.071452625 0.044669714 -0.14959116
-0.023794267 0.044300091 -0.14812994
-0.0093882829 0.043400221 -0.14457662
0.003260985 0.042706896 -0.14183961
0.075642608 0.044657275 -0.14953893
0.10983622 0.043428786 -0.14468965
0.21705148 0.044157811 -0.14756656
0.29157144 0.047473274 -0.14789806
-0.19305345 0.054932855 -0.14328873
-0.13392964 0.050808363 -0.1465154
-0.10099705 0.055509962 -0.14528376
-0.083350025 0.055245809 -0.14424273
0.0081111006 0.055470124 -0.14512913
0.041560922 0.055970572 -0.1471041
0.086360388 0.055329695 -0.14457479
0.11263815 0.05549648 -0.14523283
0.14345095 0.055969909 -0.14710119
-0.28138769 -0.061560042 -0.13723055
-0.27020735 -0.068833321 -0.13634814
-0.24837717 -0.055728275 -0.13727909
-0.2997033 -0.044191778 -0.13676752
0.30536392 -0.048740417 -0.1338753
-0.2464963 -0.022623844 -0.13495357
-0.29358235 -0.019886607 -0.13728929
-0.26798931 -0.014144149 -0.13125582
0.36892417 -0.015368221 -0.13120826
-0.24975508 -0.0018542761 -0.13281757
0.34682024 -0.00065288518 -0.13688061
0.3262046 0.00072727993 -0.13592078
-0.34437284 0.04431482 -0.13224563
-0.31625396 0.040976852 -0.13308981
-0.24301104 0.044882957 -0.13841084
-0.16920325 0.041898645 -0.13780491
-0.11340979 0.041101739 -0.13373598
-0.0816608 0.040496301 -0.13064152
-0.077281803 0.040694606 -0.13165787
-0.040696405 0.041274417 -0.13461421
0.037654929 0.040535081 -0.13084002
0.085713655 0.042236049 -0.13952671
0.19941109 0.042258345 -0.13964224
0.23153818 0.041841544 -0.13751432
0.24668282 0.041482486 -0.13568099
0.25623727 0.040628564 -0.13132052
0.26660487 0.041507069 -0.13580678
-0.27040067 0.053347558 -0.1368999
-0.23406409 0.05250331 -0.1310256
-0.21311849 0.053862024 -0.13796839
0.11349241 0.053735174 -0.13732123
0.12342916 0.054155905 -0.1394711
0.15622133 0.053732205 -0.13730578
0.30187246 0.052653648 -0.13179184
0.31136537 0.051247608 -0.13885489
0.32607332 0.054047398 -0.13891701
-0.28134251 -0.066314287 -0.12661241
-0.27828035 -0.067466304 -0.12659279
0.31037664 -0.056502417 -0.12869881
-0.29918987 -0.049613424 -0.12112646
-0.23203082 -0.040774487 -0.12423354
0.33353537 -0.048144154 -0.12905478
0.30248621 -0.039906457 -0.12041746
0.32149726 -0.037047412 -0.12972239
-0.29895502 -0.016496241 -0.12905732
0.31323215 -0.0070618601 -0.12350032
0.33332101 0.0023755685 -0.12860665
-0.31332439 0.039935846 -0.12776771
-0.29097891 0.038475648 -0.12030906
-0.0039380342 0.038786914 -0.12191503
0.14550045 0.03964996 -0.12632175
0.28325477 0.038546644 -0.12068967
-0.33969551 0.04158242 -0.12559681
-0.25079849 0.045128535 -0.12967871
0.093820296 0.040109999 -0.12867014
0.3062911 0.043951035 -0.12685578
-0.30700478 0.050935596 -0.12301598
-0.23659344 0.050563138 -0.12111396
-0.096798979 0.051729664 -0.12707251
-0.071608007 0.050894037 -0.12280268
-0.023647474 0.050776437 -0.12219964
0.10386543 0.051027004 -0.12348268
0.20947492 0.051954925 -0.12822416
0.2457988 0.052220367 -0.12957828
0.34352672 0.05065909 -0.12160146
0.36909974 0.050521255 -0.1208966
-0.37703991 0.060607437 -0.12653725
-0.26302147 -0.06897606 -0.1128281
0.30759674 -0.013813304 -0.11250956
-0.24448022 -0.0054237559 -0.1192411
0.33776468 0.0026595904 -0.11157319
-0.14657632 0.037952356 -0.11764183
-0.063574389 0.037113801 -0.11336142
0.10286894 0.038174398 -0.11879121
0.13128074 0.038268231 -0.11926843
0.15007856 0.036714979 -0.11133599
0.21989852 0.038226284 -0.11905323
0.24433726 0.037218258 -0.11390681
0.34256756 0.037697956 -0.11634913
0.39587596 0.037653439 -0.11005589
-0.25232458 0.048944596 -0.11284178
-0.10782444 0.049825113 -0.11734074
-0.090277001 0.049232654 -0.11431344
-0.078369051 0.048572198 -0.11093868
-0.015962563 0.049631469 -0.11635071
0.062411711 0.048926629 -0.11274997
0.22671047 0.049197666 -0.11413309
0.36653036 0.048968203 -0.11295994
-0.042064551 0.050250828 -0.11951604
-0.42609635 0.067594081 -0.11584297
-0.26416478 -0.069096401 -0.10813214
0.31574035 -0.061647795 -0.10504439
0.30246633 -0.03980653 -0.10641333
0.32721466 -0.024430986 -0.10158789
-0.29768977 -0.014294794 -0.10049424
-0.25158459 0.035616718 -0.10539024
-0.18916029 0.035374403 -0.10364572
-0.1443757 0.03515736 -0.10208673
-0.10273288 0.0355765 -0.10510866
0.012199409 0.035099894 -0.10168672
0.17734596 0.036405519 -0.10975616
0.4061563 0.038523223 -0.10317606
-0.38439813 0.046353009 -0.10799162
-0.27604899 0.047340989 -0.10391089
-0.17565051 0.046832226 -0.10025115
-0.14177985 0.047065988 -0.10193266
-0.060045198 0.048322484 -0.10966274
-0.04349272 0.048326828 -0.10968491
0.013664513 0.048097134 -0.10851113
0.15533653 0.047017001 -0.10157946
0.18812631 0.047056872 -0.10186615
0.19509129 0.04727868 -0.10346135
0.2047728 0.047451973 -0.10438836
0.24956731 0.048282467 -0.10945832
0.30517194 0.047300342 -0.10361717
0.35276476 0.04824359 -0.10925944
-0.34788346 0.051410239 -0.10755096
-0.43000814 0.066634029 -0.10736704
0.33486295 -0.069100909 -0.094221041
0.35563385 -0.064481065 -0.099808075
-0.26688883 -0.051611193 -0.099210098
-0.25541592 -0.051513854 -0.096549153
-0.24338724 -0.057065047 -0.092974812
0.30986035 -0.055870175 -0.098501012
0.3110019 -0.051573917 -0.092763186
0.33712715 -0.057113878 -0.094211057
0.34316313 -0.052996613 -0.097659446
-0.29474622 -0.047777552 -0.092626065
-0.28039578 -0.047652613 -0.098368481
-0.23604174 -0.049060322 -0.093297973
0.32351038 -0.049071141 -0.096913718
-0.29925936 -0.033879086 -0.092710108
0.35772371 -0.031433724 -0.098004557
0.36120531 -0.036645189 -0.094530314
0.35752678 -0.029344935 -0.097921439
0.3067866 -0.015133245 -0.097992837
0.32023025 -0.016983684 -0.094132513
-0.26033089 -4.8272195e-06 -0.093047373
-0.27647376 4.3860826e-05 -0.093213052
-0.24141032 0.033827536 -0.09252502
-0.21042536 0.034134161 -0.094729215
-0.18705359 0.033827689 -0.092526138
-0.17995851 0.034182943 -0.095079869
-0.11145601 0.033968125 -0.093535654
-0.095279522 0.034789376 -0.0994412
-0.02661619 0.033720553 -0.091755964
-0.017297268 0.03416957 -0.094985843
0.046458576 0.033641074 -0.091184765
0.089158729 0.034222547 -0.095375761
0.17610919 0.034692734 -0.098769248
0.19698992 0.033496004 -0.090153396
0.25224859 0.034304373 -0.0959794
0.40220952 0.033664495 -0.091362409
0.41246763 0.039934583 -0.098481804
-0.38845876 0.045873716 -0.09989436
-0.33605492 0.047059685 -0.091455556
-0.32513252 0.046592921 -0.096289881
-0.3127054 0.0461956 -0.095673427
-0.27952898 0.045681961 -0.091978833
-0.23774756 0.045450322 -0.090315938
0.094370633 0.046792503 -0.09996891
0.24803953 0.046588689 -0.098500252
0.29277655 0.046463273 -0.097597748
0.38395226 0.04575929 -0.09253367
-0.37498811 0.05482816 -0.096550509
-0.3063392 0.033133332 -0.087534711
-0.29503292 0.032637201 -0.083968297
-0.10199817 0.03291747 -0.085983001
-0.097422197 0.033078589 -0.087141216
0.019625828 0.033430092 -0.089668013
0.13821754 0.032720696 -0.084568486
0.19746514 0.033126909 -0.08749558
0.21561524 0.033351574 -0.089115009
0.37347102 0.033007652 -0.086652368
-0.4106617 0.048407953 -0.088644579
-0.39923352 0.045355063 -0.082075477
-0.38866228 0.043346427 -0.081763163
-0.35345614 0.049199428 -0.085044444
-0.29378378 0.045180943 -0.08837717
-0.23053916 0.044568826 -0.083978809
0.049641803 0.045049459 -0.087431967
0.085205376 0.044123925 -0.080777451
0.14440361 0.044970505 -0.086863324
0.17308614 0.044895988 -0.086327292
0.22765362 0.044547789 -0.083824605
0.33058926 0.045354046 -0.089621782
0.36037174 0.04463619 -0.084458008
0.40420568 0.044668868 -0.084694892
0.41986963 0.045004215 -0.087105542
-0.36913359 0.051827788 -0.083029211
-0.44024318 0.065417111 -0.085689411
-0.43543127 0.064278454 -0.083961412
-0.27692786 0.031783249 -0.077829644
-0.25831258 0.031174477 -0.073453464
-0.24529678 0.031779695 -0.077804089
-0.18207072 0.031313088 -0.074449874
-0.027916387 0.031295173 -0.074321106
0.17345162 0.031382248 -0.074947037
0.2280848 0.031239405 -0.073920205
0.35479662 0.030934032 -0.071725026
0.36285532 0.031332809 -0.074591972
0.37948087 0.031255614 -0.074037448
-0.40273127 0.045543518 -0.078813739
-0.22902998 0.042949595 -0.072332822
0.090751924 0.04384198 -0.078749776
0.18084873 0.043009344 -0.072761104
0.23632134 0.042855475 -0.071655557
0.36288649 0.043243691 -0.074423805
0.37770799 0.042715535 -0.070335262
0.39106441 0.043716118 -0.077843815
0.40180814 0.043468967 -0.076066598
-0.460412 0.055675752 -0.074677154
-0.44934016 0.053714469 -0.075352862
-0.37709862 0.052117061 -0.074610732
0.33578026 0.029977232 -0.060630757
0.42611036 0.029945523 -0.060249519
-0.21334988 0.030372044 -0.065377943
-0.18543467 0.030517628 -0.067128427
-0.17854451 0.03068091 -0.0690917
-0.10156947 0.030512733 -0.06706956
-0.072050586 0.030503208 -0.06695506
-0.035658013 0.030613752 -0.068284228
0.073452428 0.030652409 -0.068749025
0.095874988 0.030703761 -0.069366463
0.27309003 0.03004962 -0.06150116
0.30993924 0.030118592 -0.062330492
0.39256361 0.030276405 -0.064227998
-0.39205697 0.042309657 -0.069206364
-0.35779303 0.047874726 -0.069215611
-0.34838793 0.045458086 -0.061308332
-0.33619002 0.043698225 -0.064803995
-0.25677711 0.0421305 -0.063301705
-0.20772937 0.042460803 -0.06727308
-0.17321517 0.042441387 -0.067039661
-0.16470537 0.042383656 -0.066347852
-0.12809269 0.042531494 -0.068124965
0.027222058 0.042583954 -0.068752967
0.14890924 0.042534091 -0.06815546
0.15452674 0.042303443 -0.065381296
0.2123065 0.042254329 -0.064790875
0.32878381 0.04210034 -0.062939659
0.37309405 0.042239361 -0.064609751
0.41097867 0.042181615 -0.063921794
0.44460097 0.042164147 -0.063706495
-0.43956521 0.051173698 -0.069635138
-0.37683013 0.050875992 -0.062879361
-0.45533231 0.065543838 -0.06383796
-0.44961733 0.064477652 -0.063791499
-0.30491996 0.029256234 -0.051961601
-0.26960754 0.029866617 -0.059300762
-0.16840035 0.029535785 -0.055322878
-0.15072022 0.029121516 -0.050341763
-0.12872915 0.029110275 -0.050206602
-0.11760462 0.029688887 -0.057163745
-0.10677031 0.029835925 -0.058931727
-0.073872074 0.029131178 -0.050457925
0.0043662935 0.029684383 -0.057109598
0.085492939 0.029274276 -0.052178521
0.19639163 0.029306933 -0.052571204
0.31049785 0.029684944 -0.057116345
0.33937436 0.029783307 -0.058299057
0.38117465 0.029187463 -0.051134694
0.42219281 0.029298179 -0.052465912
0.44691554 0.029842149 -0.059006572
-0.33844835 0.043584637 -0.059691221
-0.13705423 0.04181651 -0.059529617
-0.08104749 0.041174926 -0.051814474
-0.061008904 0.041401342 -0.054536406
-0.0010859447 0.041198023 -0.05209383
0.0074487273 0.041332107 -0.053704094
0.076838955 0.041383129 -0.05431743
0.13334948 0.041691013 -0.058024183
0.17244884 0.04105296 -0.050348192
0.1857404 0.041074492 -0.0506071
0.26562992 0.041471131 -0.055375397
-0.39692113 0.053865343 -0.054087061
-0.44516405 0.063075304 -0.056990758
-0.29877865 0.028478179 -0.042606357
-0.24114822 0.028957322 -0.048367523
-0.20125331 0.028947469 -0.048249058
-0.19284752 0.028817222 -0.046682961
-0.15905322 0.02907883 -0.049828496
-0.11067146 0.029008821 -0.048986733
-0.039391037 0.028609041 -0.044179857
-0.021079361 0.028432019 -0.042051323
0.11238322 0.028354935 -0.041124482
0.145872 0.028812949 -0.04663159
0.23922966 0.028382372 -0.041454386
0.27140614 0.028459342 -0.042379867
0.32274097 0.028512139 -0.043014694
0.38137916 0.028880425 -0.047442913
0.40652511 0.028954279 -0.048330933
-0.42550689 0.046082955 -0.040339805
-0.36520898 0.046857983 -0.040906914
-0.35761845 0.045435086 -0.040759049
-0.34581667 0.043214705 -0.040442273
-0.33542901 0.042012326 -0.045965344
-0.15807457 0.04069034 -0.045984551
-0.13067296 0.040684134 -0.045912199
-0.05381427 0.040205397 -0.040158961
-0.030789891 0.040657062 -0.045588806
-0.0022751321 0.040210389 -0.04021896
0.032521829 0.04081466 -0.047482837
0.082291402 0.040407456 -0.042588063
0.13538231 0.040482722 -0.043492921
0.14385922 0.040617354 -0.045111444
0.16298635 0.040473204 -0.043378219
0.20489654 0.04055842 -0.044402942
0.2194349 0.040659364 -0.0456165
0.2696088 0.040715612 -0.046292666
0.29089707 0.040859215 -0.048018385
0.31383073 0.040213231 -0.040252872
0.33324999 0.040633377 -0.045303497
0.34275448 0.040357672 -0.041988946
0.37054288 0.040971287 -0.049366169
0.4123995 0.040789556 -0.04718348
-0.42940363 0.059107807 -0.044709712
-0.38401163 0.050617851 -0.044054426
-0.44954842 0.0625958 -0.041691732
-0.2276831 0.027923217 -0.035933577
-0.18987007 0.027817758 -0.032805517
-0.16154163 0.027859148 -0.034307342
-0.070225038 0.027853157 -0.034089863
0.042834654 0.028162016 -0.038804859
0.051049709 0.028132785 -0.038453389
0.12712656 0.02790851 -0.03575673
0.28537476 0.027769387 -0.031055121
0.41305107 0.028128663 -0.038403843
0.42805448 0.027905975 -0.035726253
-0.26108611 0.039768416 -0.033525832
-0.2331862 0.039971352 -0.03734532
-0.21527371 0.039979137 -0.037438881
-0.20217229 0.039809089 -0.034991886
-0.10757247 0.039911024 -0.036620073
-0.067470923 0.039702624 -0.031143004
-0.018275414 0.039861955 -0.036030177
0.01560449 0.039678939 -0.030293893
0.14142177 0.039825205 -0.035576481
0.15559486 0.039804026 -0.034811724
0.17884855 0.039790273 -0.034313783
0.30224526 0.039706338 -0.031279609
0.3617126 0.039844673 -0.035822406
0.4623552 0.03426946 -0.031997785
-0.44575024 0.049391579 -0.033763982
-0.14918873 0.0400717 -0.038553573
-0.40217364 0.053172022 -0.031867504
-0.3865836 0.050248556 -0.030927684
-0.34002769 0.029529905 -0.02345774
-0.33401 0.028794572 -0.02659291
-0.26966557 0.02765679 -0.026975904
-0.24828753 0.027647616 -0.026642393
-0.23927833 0.027587634 -0.024471354
-0.20281021 0.027521379 -0.022077242
-0.17609087 0.027682567 -0.027926629
-0.078399479 0.027569458 -0.023835482
-0.04714682 0.0276889 -0.028151045
-0.023187764 0.02761247 -0.025388043
0.007586237 0.027680308 -0.027838927
0.071754418 0.027516842 -0.02192907
0.18733545 0.027606849 -0.025178697
0.19292553 0.027586013 -0.024425553
0.25903833 0.027567908 -0.023769328
0.33555037 0.027634723 -0.026181873
0.39742297 0.02755134 -0.023164542
-0.35589188 0.032468908 -0.025751803
-0.30196622 0.039468057 -0.022666387
-0.22209258 0.039525576 -0.024745159
-0.1488786 0.039486218 -0.023320654
-0.0055947085 0.039405867 -0.020418433
0.081578583 0.039410856 -0.020598594
0.095189981 0.039643548 -0.02901464
0.18795687 0.039416179 -0.020791121
0.30249894 0.039505914 -0.024034858
0.32108867 0.039430227 -0.021298969
0.41297638 0.039606258 -0.027670059
0.44550008 0.039523892 -0.024684848
-0.43532139 0.047226086 -0.025665836
-0.38040859 0.048909772 -0.02414153
-0.43781814 0.059643686 -0.026486704
-0.26606521 0.027407076 -0.017946975
-0.2141844 0.027329881 -0.015157577
-0.079140097 0.027280476 -0.013372354
-0.0374921 0.027254857 -0.01244653
-0.0097841322 0.027308211 -0.014374455
0.034113139 0.027394814 -0.017507438
0.055873066 0.027232192 -0.011627643
0.11560442 0.027294684 -0.013890123
0.27032426 0.027375448 -0.016813155
0.31345046 0.027427055 -0.018676952
0.35313967 0.027328912 -0.015128841
0.38303542 0.027429722 -0.018771453
0.41877973 0.027206268 -0.010694399
-0.2581228 0.039220475 -0.013716859
-0.22660838 0.039176978 -0.012144431
-0.14045951 0.039390814 -0.019877683
-0.10194633 0.03927552 -0.01568931
0.03256226 0.039174184 -0.012043627
0.17795274 0.039130192 -0.010453544
0.18577772 0.039350439 -0.018414754
0.27991784 0.039298628 -0.01652091
0.35640445 0.03922268 -0.013796539
0.4069171 0.039354462 -0.018560076
-0.43127632 0.046043109 -0.010347305
-0.4219656 0.044354804 -0.011835342
-0.41456077 0.043196026 -0.019541647
-0.45472705 0.050567012 -0.016255319
-0.42720813 0.057370115 -0.015771531
-0.20374535 0.026982026 -0.0025879559
-0.1351252 0.027102247 -0.0069321222
-3.4600496e-05 0.027063346 -0.0055263997
0.023919404 0.02709021 -0.0064971168
0.054855019 0.026925724 -0.00055354339
0.11525999 0.026935136 -0.00089361041
0.18706365 0.02707768 -0.006044405
0.20553787 0.026934553 -0.00087254791
0.26468974 0.027143253 -0.008414045
-0.21684463 0.038842641 -5.9120102e-05
-0.063620873 0.038945537 -0.0037751643
-0.032152075 0.038983878 -0.0051572034
0.090763263 0.038903262 -0.0022503736
0.10664057 0.039082564 -0.0087324101
0.15080181 0.038899899 -0.0021289857
0.31847748 0.038905106 -0.0023170968
0.3923943 0.038897883 -0.0020559849
0.41637528 0.039061472 -0.0079697939
-0.42326504 0.044396032 -0.0047218818
-0.38031796 0.048324879 -0.0039353138
-0.42009163 0.055802416 -0.0070468676
-0.40222716 0.0523035 -0.00066182076
-0.44265071 0.060001977 -0.0073153689
-0.29539466 0.027005021 0.0034481101
-0.25340381 0.026926728 0.00061915326
-0.11236048 0.027038356 0.0046526073
-0.105542 0.027138811 0.00828245
-0.096890122 0.027090456 0.0065351557
-0.042883616 0.026942868 0.0012023319
0.01469402 0.026918396 0.0003181668
0.098039582 0.026941407 0.0011495706
0.10047461 0.027019186 0.0039599533
0.1385489 0.026962562 0.0019139381
0.16103588 0.027147818 0.0086078783
0.20194963 0.027117228 0.007502567
0.22221933 0.027084842 0.0063323025
0.32780808 0.026930351 0.00075001596
0.37134343 0.027142899 0.0084348759
-0.32414523 0.039228719 0.0057433466
-0.20462105 0.038883556 0.0015697749
-0.17171267 0.038968112 0.0046240143
-0.12884521 0.039002344 0.0058573144
-0.006828058 0.039109688 0.0097417291
0.17555712 0.038895249 0.0019922913
0.22931477 0.038956765 0.0042187548
0.30441308 0.039083466 0.0087812506
0.34071398 0.038898379 0.0021011671
0.44302261 0.038980961 0.005085994
-0.40976211 0.041793339 0.0014273571
-0.34799057 0.042479567 0.0097146239
-0.4633162 0.06369634 0.0021822518
-0.25506502 0.027364694 0.016444243
-0.22250937 0.027352937 0.016019521
-0.20219538 0.027284898 0.013560938
-0.070697874 0.027227428 0.0114845
0.028623953 0.027318746 0.014784107
0.12011477 0.027436338 0.019047199
0.23463678 0.027341705 0.015623878
0.28146213 0.027361529 0.016339069
0.34512359 0.027365837 0.016493119
0.37074393 0.027394075 0.017513013
0.46628672 0.029623745 0.019904954
-0.32789239 0.039624985 0.010135232
-0.29901683 0.039130971 0.010500538
-0.23226014 0.03926231 0.01525872
-0.16425163 0.039387353 0.019777862
-0.14131898 0.039211091 0.013411341
-0.085984156 0.03931395 0.01712892
-0.064551771 0.03919626 0.012869157
-0.049727947 0.039249286 0.014796384
-0.018496204 0.039358757 0.018752918
0.12454734 0.039319187 0.017314859
0.1608018 0.039289519 0.016242297
0.28568697 0.039173476 0.012061724
0.32629108 0.039303295 0.016740233
0.37025148 0.039312594 0.017073665
0.38671553 0.039149377 0.011176124
-0.44494149 0.048698701 0.01450662
-0.41894084 0.043888576 0.015263103
-0.3732838 0.047277857 0.013224599
-0.36440623 0.045697458 0.015674071
-0.44048285 0.059760615 0.01307893
-0.40696701 0.053557504 0.013960453
-0.30790105 0.027532395 0.022503935
-0.23586856 0.02748136 0.02065989
-0.21677801 0.027540039 0.022780061
-0.19320309 0.027478021 0.020539211
-0.18316242 0.027575929 0.024083156
-0.17489542 0.027624099 0.025824107
-0.14435634 0.027645014 0.026597142
-0.13213331 0.027505165 0.021519955
-0.096837148 0.027648494 0.026721479
0.13250712 0.027599761 0.024953382
0.14602524 0.027622774 0.025784675
0.21400078 0.027549293 0.023127154
0.32029405 0.027686734 0.028091718
0.3325561 0.027547034 0.023042338
0.40549767 0.027490158 0.020983182
0.41177797 0.0276215 0.025743715
0.46297488 0.027480628 0.020644072
-0.38942355 0.038730856 0.026890423
-0.028934034 0.039653212 0.02939228
0.0061152959 0.039511643 0.024271533
0.041709043 0.039410867 0.020633351
0.059851371 0.039587788 0.02702675
0.075679779 0.039544672 0.025468677
0.10184786 0.039616961 0.028079331
0.21821521 0.039544392 0.025451018
0.2764031 0.039417535 0.020878559
0.37869948 0.039669052 0.029964389
0.43389821 0.039423846 0.021097975
-0.4661707 0.064845145 0.024138782
-0.4548122 0.062841117 0.027934581
-0.23519498 0.027855862 0.034217842
-0.10908055 0.02781833 0.032835856
-0.075369023 0.027809873 0.032535832
0.0042820424 0.027876984 0.034977537
0.16949832 0.027873484 0.034851812
0.21452799 0.028093867 0.038015291
0.28137147 0.028163813 0.038856298
-0.37332997 0.035866193 0.031359598
-0.29449472 0.039794654 0.03450175
-0.10023001 0.039782152 0.034058265
-0.041572228 0.039756887 0.033148073
-0.03052748 0.039696492 0.030956343
0.22938922 0.039762612 0.033333022
0.23038256 0.039712891 0.031535942
0.34333581 0.039965052 0.037298989
0.38281804 0.039727665 0.032082096
-0.33743429 0.041346207 0.033199806
-0.31325811 0.040030017 0.038080432
0.15846474 0.040164508 0.039696854
0.18185507 0.040101137 0.038935278
-0.45161414 0.050472792 0.033495475
-0.4152112 0.055622421 0.032897718
-0.39092252 0.051439878 0.038624145
-0.44032738 0.0605065 0.036301821
-0.18678077 0.028360546 0.041221701
-0.16776972 0.028402831 0.041730125
-0.11245342 0.028661042 0.044834722
0.018178239 0.028758779 0.046009868
0.046274334 0.028906807 0.047789674
0.11394152 0.028955217 0.048371762
0.19560874 0.028343786 0.041020207
0.23929651 0.028478906 0.042644832
0.25074992 0.028783292 0.04630458
0.26280662 0.028844606 0.047041804
0.33175498 0.028324181 0.040784497
0.39957628 0.028898859 0.047694132
0.44078082 0.028720073 0.045544509
-0.34953108 0.032578781 0.047618411
-0.44293427 0.049352333 0.040738598
-0.19939038 0.040298231 0.041304789
-0.17900237 0.040939275 0.049011037
-0.16427252 0.040848054 0.047914412
-0.10681871 0.04086569 0.048121806
-0.075592957 0.040376619 0.042248216
-0.0076589719 0.040706828 0.046218887
0.0094256215 0.040912427 0.048693784
0.035484504 0.040489551 0.043604609
0.18751259 0.040655792 0.045604452
0.21959224 0.040542036 0.044235621
0.26833358 0.040886007 0.048373431
0.28344706 0.040584192 0.044744454
0.29678237 0.040219951 0.040364809
0.37222505 0.040426634 0.042847939
0.40966183 0.04077702 0.047062434
-0.42132962 0.057721034 0.046081796
-0.41499695 0.056133375 0.04122455
-0.31738192 0.029715445 0.05751235
-0.21510428 0.029715803 0.057516661
-0.16212852 0.029787406 0.058377594
-0.066368178 0.029883733 0.059535779
0.17136145 0.02974095 0.057819046
0.25142014 0.029391661 0.053619355
0.26546517 0.029799486 0.05852282
0.38161486 0.029243881 0.051842503
0.40352744 0.029716088 0.057520106
0.41064739 0.029405622 0.053787202
-0.38210201 0.03919575 0.054293964
-0.37589544 0.03810766 0.055064432
-0.33479828 0.030464441 0.051526424
-0.41595817 0.045625299 0.055930618
-0.38799626 0.040110186 0.052156873
-0.17528796 0.041269299 0.052978437
-0.14506564 0.041348778 0.053929437
0.076558515 0.04162398 0.057241905
0.19754219 0.041322477 0.05361744
0.29276621 0.041479714 0.055507898
0.30772418 0.041619621 0.05718983
0.41129392 0.041733712 0.058562763
-0.46419683 0.059627023 0.059104875
-0.38668272 0.051998988 0.054547288
-0.43234918 0.060320467 0.052602988
-0.21244386 0.029923379 0.060012475
-0.32091516 0.030497609 0.066167317
-0.26942563 0.030190246 0.063221157
-0.15649232 0.030329594 0.064896628
-0.053186059 0.030640684 0.068636984
0.017352238 0.030135494 0.062562816
0.063374579 0.030024618 0.061229717
0.072544798 0.030283168 0.064338416
0.13586958 0.030665465 0.068934932
0.28772122 0.030043235 0.061453585
0.38004395 0.030152075 0.062762193
0.41898882 0.030447345 0.066312395
-0.40384185 0.04441018 0.068179913
-0.34391519 0.044898927 0.064522691
-0.32778925 0.042943053 0.066995732
-0.26304653 0.042516768 0.067975804
-0.23061016 0.042491309 0.06767194
0.127809 0.042508695 0.067877807
0.1324321 0.042339116 0.065839179
0.16914025 0.041941714 0.061062921
0.17927548 0.042608865 0.069080263
0.19132045 0.042141683 0.063464478
0.26526061 0.041931909 0.060950026
0.35686797 0.042363636 0.066133969
0.36672896 0.042494077 0.067702115
-0.38590223 0.053065605 0.068868198
-0.45332682 0.065568194 0.068561189
-0.11045425 0.030816134 0.070746541
-0.016219214 0.030934148 0.071754813
0.13155031 0.031270076 0.074169949
0.19591098 0.031411335 0.075185515
0.21416774 0.030872367 0.071108624
0.23927447 0.031322952 0.074550107
0.24560872 0.031138157 0.073221542
0.25809094 0.032023575 0.079587176
0.35467657 0.031389154 0.075026065
0.44039166 0.038426112 0.071144491
-0.27202302 0.043434463 0.075847901
-0.2641623 0.042742111 0.070683934
-0.23230606 0.042932313 0.072235793
-0.22758907 0.043536454 0.076580532
-0.17721768 0.043349553 0.075237945
-0.10377453 0.043110326 0.073517777
-0.088460982 0.043350384 0.075242318
-0.066105902 0.043228664 0.074368626
0.33001781 0.042700905 0.070188418
-0.42377076 0.061104029 0.076866321
-0.33952734 0.034602851 0.084084503
-0.19205613 0.03272631 0.084639437
-0.1490227 0.032946214 0.086220413
-0.011698715 0.033104755 0.087360248
0.031129114 0.032939404 0.086171463
0.061437681 0.032236367 0.081117049
0.097191066 0.032935686 0.086144745
0.13603756 0.032482266 0.082884915
0.14242713 0.033095554 0.087295473
0.28257689 0.032144174 0.080455586
0.36895442 0.033460516 0.089945234
0.38935539 0.032892086 0.085852392
-0.42234454 0.049765855 0.082928047
-0.28087291 0.044154651 0.081026755
-0.19405007 0.044628315 0.084432296
-0.14193492 0.044165373 0.081106663
-0.021650728 0.044518355 0.08363992
-0.013311919 0.045257729 0.088958405
0.030229546 0.045159161 0.088248119
0.24594548 0.04501535 0.087216824
0.27280092 0.044404816 0.082824923
0.31177527 0.04535114 0.089629985
0.42519349 0.044739943 0.086755261
-0.44199592 0.053935513 0.086588807
-0.39487675 0.057389759 0.088561825
-0.3759034 0.053374156 0.085103095
0.3681761 -0.052503608 0.099583
-0.29416367 -0.040523954 0.092780441
-0.23799716 -0.049650159 0.092966475
0.3096787 -0.041453391 0.092650145
-0.29076707 -0.034565113 0.094577797
0.3625204 -0.020714335 0.09281221
-0.24287051 -0.019835679 0.092803806
0.31534398 -0.010958496 0.09270107
0.35074052 -0.013070857 0.094132274
-0.24718456 -0.0034238235 0.097747356
-0.27542132 0.0016947701 0.096671268
-0.34933031 0.037322551 0.09087038
-0.29799783 0.033887941 0.092989668
-0.086417809 0.033473976 0.090014726
-0.01392425 0.034157868 0.094929911
0.20982355 0.033916049 0.093210444
0.23677304 0.033849455 0.092733458
0.38141456 0.033669345 0.091441177
0.3968001 0.033707257 0.091703273
0.4076041 0.034258302 0.095654383
0.41852435 0.033698935 0.091632374
-0.40617901 0.048575245 0.095744878
-0.32041609 0.045468658 0.090158105
-0.23475142 0.046215951 0.095849097
-0.18650433 0.046604298 0.098641813
-0.11477164 0.045436345 0.090244077
-0.065602258 0.045793384 0.092811719
-0.014764349 0.045893729 0.093531825
0.076925635 0.045609597 0.091488972
0.13873832 0.045718752 0.092273436
0.15464419 0.046199381 0.095730126
0.16940038 0.045406863 0.090031579
0.31860757 0.046665747 0.09908317
0.4049533 0.046234511 0.095980763
0.41770738 0.044903912 0.093053117
-0.44694498 0.056095861 0.095364042
-0.36438227 0.052483059 0.093932301
-0.43626571 0.066285089 0.097079426
0.3209337 -0.065011635 0.1003556
0.34880432 -0.067499578 0.10637842
0.36425555 -0.057618506 0.10393588
-0.3005763 -0.046544783 0.10758183
-0.29966569 -0.048649654 0.10291734
0.32654634 -0.042239569 0.10136925
0.37287101 -0.041168228 0.10052738
-0.23123561 -0.033309698 0.10221782
0.30292088 -0.024665911 0.1060023
-0.23505509 -0.017176043 0.10898894
0.30715743 -0.014523614 0.10390957
0.31426027 -0.0061374931 0.10894741
0.35785344 -0.0034596378 0.10969557
-0.2767576 0.001354631 0.10274728
-0.26261744 0.0023672776 0.10976171
-0.25578472 0.00079800695 0.10429531
-0.3411662 0.038015734 0.1063787
-0.32453218 0.036453262 0.1085957
-0.315038 0.036052983 0.10795499
-0.2384942 0.035068758 0.10148028
-0.22839992 0.034978729 0.10083305
-0.15627222 0.03632063 0.10933425
-0.122307 0.036139652 0.10841153
-0.088910326 0.035440266 0.10405453
-0.045413412 0.03519417 0.10239083
0.086456388 0.035939954 0.10740399
0.17954218 0.035068773 0.10151002
0.18865287 0.035469897 0.10440006
0.20715165 0.035424341 0.10407374
0.22079849 0.035267022 0.10294202
0.27118444 0.03569312 0.10559613
0.31784859 0.035606802 0.10539895
0.3795903 0.035381388 0.10374046
-0.4029153 0.049465157 0.10632236
-0.29765391 0.048360102 0.10988399
-0.24875316 0.047311932 0.10373048
0.0088078845 0.047038145 0.10176104
0.12100561 0.047581352 0.10566726
0.15710902 0.047127336 0.10240344
0.17624502 0.048353769 0.10985063
0.28097856 0.046978544 0.10133246
0.3259522 0.047685932 0.10641926
0.38025868 0.047997791 0.10803237
0.39327288 0.0470233 0.10165446
0.40380305 0.047022752 0.1016465
-0.40728974 0.062643453 0.10855749
0.32531229 -0.066979334 0.1110888
0.34548938 -0.06839183 0.11023448
-0.27610305 0.0015278314 0.11256891
-0.26444855 0.0025504727 0.11210156
-0.3217268 0.037007097 0.11227889
-0.27871627 0.036674786 0.11113246
-0.23009157 0.037416775 0.11493129
-0.18357895 0.03821484 0.11901253
-0.12108277 0.037459612 0.11515698
0.01476554 0.037759364 0.11669704
0.022999283 0.037333399 0.11452077
0.037114542 0.038374458 0.1198414
0.29971656 0.038235538 0.11913322
0.30701607 0.036856525 0.11204989
0.32692415 0.039071403 0.11761412
-0.36432189 0.044525757 0.11758299
-0.35850987 0.043680679 0.11876151
-0.34256715 0.040963393 0.11998186
-0.27725762 0.049559645 0.11601293
-0.17143483 0.048880283 0.11254263
-0.16668618 0.048595294 0.11108623
-0.15784995 0.049831465 0.11740346
-0.13439149 0.049260851 0.11448747
-0.060239479 0.049099017 0.11365953
0.0026706445 0.049645647 0.11645237
0.02594661 0.048833784 0.11230467
0.033910226 0.04914169 0.11387846
0.0556463 0.048821799 0.11224341
0.10923866 0.049014963 0.11323052
0.11123887 0.04887918 0.11253667
0.21356183 0.04959552 0.11619719
0.33510143 0.048929233 0.11279236
0.37519819 0.048859492 0.11243489
0.3856715 0.049402766 0.11521117
0.39095998 0.040569782 0.11306202
-0.39419228 0.050537989 0.11990339
-0.36953431 0.057546545 0.11819534
-0.34143057 0.051488202 0.11394171
-0.15792288 0.050249834 0.11954147
-0.13617519 0.050173566 0.11915173
-0.11758824 0.050042778 0.11848311
-0.00065930816 0.050062321 0.11858303
0.011852203 0.050166141 0.11911304
0.069699869 0.05011712 0.11886261
-0.30012614 -0.047625281 0.12732798
-0.30303216 -0.035676196 0.12311518
0.35477912 -0.031029023 0.12996262
-0.30283266 -0.028845094 0.12432052
-0.23217875 -0.02513181 0.12952732
0.30209389 -0.029298909 0.12043604
-0.27098757 -0.017165594 0.12965213
0.3308534 -0.018278014 0.12963742
0.31573397 -0.0050830394 0.12701121
0.33326307 0.0023692036 0.12236661
-0.21051943 0.039464049 0.12539423
-0.18752261 0.038706839 0.12152638
-0.12537837 0.038434058 0.12013623
-0.048498064 0.03999842 0.12813444
0.010411844 0.039867021 0.12746182
0.10371774 0.038887657 0.12246353
0.20669287 0.038462721 0.12029386
0.29125911 0.038484 0.12040116
-0.25361556 0.045606151 0.12868449
0.06819313 0.040244393 0.12938699
0.17342931 0.040196378 0.12914124
0.31318188 0.044487067 0.12484811
0.33495492 0.040329754 0.12950327
-0.39606455 0.053124152 0.12549955
-0.37086475 0.05847539 0.12162074
-0.36973268 0.059335936 0.12700152
-0.33085427 0.052953489 0.1289974
-0.26034704 0.050884109 0.12278248
-0.22601119 0.050625093 0.12145823
-0.091477536 0.051981043 0.12838618
-0.086249277 0.051390864 0.12537049
0.053738698 0.050705664 0.12187009
0.092183463 0.050402865 0.12032278
0.26021343 0.051496096 0.1259087
0.36108759 0.05098252 0.12789562
0.37678847 0.050041832 0.12072514
-0.25735039 -0.067846552 0.13138467
0.31855452 -0.063632414 0.13433371
0.33861738 -0.069207124 0.13041739
0.35312945 -0.063607417 0.13688231
-0.26357484 -0.056941275 0.13575599
-0.23190029 -0.040118024 0.13501154
-0.24533531 -0.035393447 0.13369967
0.37140438 -0.03849997 0.13687724
-0.27093226 -0.015653729 0.13052051
-0.26702705 -0.01346147 0.1322372
0.3153736 -0.015202075 0.13728693
-0.27683353 -0.0076140733 0.13710192
0.35603279 -0.0063313972 0.13715416
-0.27312118 0.0021601373 0.13159341
-0.30900031 0.044986576 0.13472456
-0.14805055 0.040434897 0.13035882
0.021709353 0.042247795 0.13961269
0.26351303 0.040431932 0.1303435
-0.32057101 0.052884974 0.13409677
-0.18619478 0.053859152 0.13798445
-0.16327673 0.053111572 0.13416427
-0.074741527 0.053096376 0.13408503
-0.053092215 0.053595349 0.13663363
0.058385134 0.052916035 0.13316523
0.088537157 0.05314761 0.1343486
0.15684883 0.052919276 0.1331818
0.21560645 0.052778658 0.13246325
0.24668032 0.053253539 0.13488908
-0.14399078 0.047019735 0.14606448
-0.094743744 0.043408554 0.14463978
-0.029346 0.043107122 0.1434494
0.052998737 0.043754604 0.14600578
0.096706972 0.042856004 0.14245716
0.12805299 0.044615172 0.14940207
0.13152733 0.04355038 0.14519896
0.18726958 0.042832606 0.14236391
0.22149117 0.044602435 0.14935206
-0.055521168 0.055587277 0.14562148
-0.014339134 0.055229723 0.14421022
0.043979295 0.056196801 0.14802665
0.11382218 0.054300021 0.14023751
0.16203146 0.054846346 0.14269577
0.2076319 0.056290593 0.14839727
0.24236225 0.05592173 0.1469408
0.2674517 0.054578152 0.14163746
0.29058585 0.05469767 0.14210886
0.31713709 0.053743802 0.14216352
0.0094172657 0.044925503 0.15062772
0.029416326 0.05686307 0.1506566
0.09032315 0.054161653 0.15690605
0.11655143 0.05855678 0.15734383
0.14582303 0.054546949 0.15796772
0.15591587 0.057666082 0.1580037
