# .PCD v0.7 - Point Cloud Data file format
VERSION 0.7
FIELDS x y z
SIZE 4 4 4
TYPE F F F
COUNT 1 1 1
WIDTH 884
HEIGHT 1
VIEWPOINT 0 0 0 1 0 0 0
POINTS 884
DATA ascii
-0.34995934 0.019403636 -0.10105063
0.32363147 0.019517628 -0.106952
-0.37556028 0.023279905 -0.10263205
-0.35076711 0.022557341 -0.10822588
-0.31155559 0.024171304 -0.10863255
-0.29358101 0.022175593 -0.10262603
-0.26284954 0.025883179 -0.10774301
-0.18994907 0.023071386 -0.10666566
-0.16452624 0.026958954 -0.106952
-0.14332882 0.026875051 -0.10780745
-0.13317022 0.022906452 -0.10555223
-0.10208973 0.023733251 -0.106952
-0.081998758 0.022277035 -0.10129119
-0.051422466 0.025150295 -0.106952
-0.011112422 0.027229954 -0.10883053
0.023819476 0.022156337 -0.1004039
0.048307296 0.022685748 -0.10406233
0.057065442 0.025960661 -0.106952
0.064276136 0.027096732 -0.106952
0.071389258 0.022523133 -0.10296414
0.096361279 0.022176551 -0.10055251
0.10435345 0.022655381 -0.10385667
0.11557223 0.022631206 -0.10369352
0.14599052 0.023147037 -0.106952
0.15497518 0.023612095 -0.1065243
0.17422289 0.027473368 -0.10887271
0.23555692 0.029088106 -0.10899726
0.2470964 0.024740119 -0.106952
0.25837082 0.029744908 -0.106952
0.27133405 0.028027603 -0.10895477
0.2883912 0.029625647 -0.10896685
0.30038944 0.021997951 -0.10561985
0.31580776 0.022692511 -0.106952
0.33314294 0.029195342 -0.106952
0.34610215 0.028491963 -0.10856544
0.35016692 0.026804533 -0.106952
0.39383578 0.029593144 -0.10567127
-0.36799198 0.030108921 -0.106952
-0.17435122 0.034552813 -0.10709134
-0.15217176 0.030160561 -0.10891307
-0.065504618 0.032274254 -0.10835593
-0.038241006 0.030821413 -0.106952
-0.023983913 0.033902641 -0.10526326
-0.018128838 0.034608677 -0.10244647
-0.0012333447 0.03472551 -0.10609386
0.02515395 0.033252627 -0.10654359
0.050117463 0.034622051 -0.10286395
0.10581135 0.034666754 -0.10425952
0.12229356 0.030448396 -0.106952
0.20744623 0.030341046 -0.106952
0.21382746 0.034623995 -0.1070418
0.2256384 0.034626633 -0.10300711
0.33591402 0.030145571 -0.10695199
0.35875022 0.030358437 -0.106952
0.40146223 0.034152564 -0.10536768
-0.33532813 0.016688175 -0.090347566
-0.3270894 0.017407365 -0.096315086
-0.3116965 0.019593896 -0.09981557
0.32633811 0.017116793 -0.093786135
0.35583833 0.0194805 -0.096588105
-0.38189894 0.023349263 -0.093782492
-0.27315551 0.021844536 -0.098111473
-0.24784145 0.02134295 -0.094282679
-0.18395123 0.021183096 -0.092994452
-0.063520335 0.021114537 -0.092441954
0.044559382 0.021491624 -0.095480785
0.053885043 0.021826411 -0.097978443
0.066170171 0.02107401 -0.092115372
0.070584223 0.020846458 -0.090276301
0.092135161 0.021821987 -0.097946301
-0.42301428 0.034499682 -0.091421448
-0.32223088 0.030571075 -0.098152772
-0.29533994 0.033634763 -0.092692733
-0.28900591 0.033979997 -0.092202336
-0.19706129 0.033843853 -0.090547152
-0.18328081 0.034376651 -0.097793646
-0.1414243 0.0339595 -0.091953158
-0.12164605 0.034391798 -0.098059162
-0.11937252 0.034198903 -0.094863653
-0.080589838 0.03447631 -0.099540532
-0.071993835 0.034281224 -0.096120864
-0.044047903 0.034392782 -0.098076373
0.018949255 0.034480475 -0.099613614
0.055774122 0.033862732 -0.090776689
0.15015176 0.034021862 -0.092711337
0.23427752 0.034142576 -0.094178878
0.30477715 0.033083305 -0.098199487
0.33995056 0.030624535 -0.097957961
0.34257826 0.030978169 -0.099918157
0.41240802 0.034064982 -0.099284627
-0.42145652 0.045171823 -0.094480343
-0.41496366 0.041266937 -0.097436987
-0.40349385 0.041935161 -0.094907224
-0.32648748 0.016049799 -0.084702194
-0.30658692 0.01887976 -0.088055104
-0.09173771 0.019891024 -0.081416428
0.18922694 0.019920927 -0.081714049
0.29339781 0.019598477 -0.081429489
0.34195513 0.016104946 -0.080187239
-0.38523877 0.02333759 -0.087716296
-0.21161699 0.020341156 -0.085775539
0.064493492 0.020814501 -0.089991659
0.26879406 0.020811986 -0.089969262
0.37488943 0.021261947 -0.088246047
-0.42685467 0.034682289 -0.082739711
-0.2990796 0.032008566 -0.080619566
-0.15095325 0.03281768 -0.081327394
-0.1333877 0.033242121 -0.084702924
-0.040788516 0.032661986 -0.08015994
0.10815172 0.03325412 -0.084814467
0.11045144 0.033210658 -0.084410489
0.1345735 0.032863103 -0.081667967
0.16401537 0.033705097 -0.089005984
0.23967098 0.033673119 -0.088708803
0.2830351 0.033607204 -0.088096157
0.3666051 0.032152534 -0.080021873
-0.40403658 0.041400783 -0.082976431
-0.37493497 0.01953321 -0.070268236
-0.34328291 0.015421564 -0.07098037
-0.31818175 0.015442304 -0.070805676
-0.23960531 0.019635879 -0.078842953
-0.11595096 0.019242221 -0.07441508
-0.054745454 0.01913817 -0.073203534
-0.028326519 0.019633399 -0.078815058
0.015906174 0.019739809 -0.079911411
0.021423256 0.01922214 -0.074189082
0.06540896 0.01968516 -0.079367511
0.080900647 0.019418241 -0.076394871
0.14751762 0.018921876 -0.070400044
0.24873504 0.019221306 -0.074179798
0.32668975 0.014934948 -0.072891541
0.33379418 0.015022889 -0.074207686
0.32378161 0.027462725 -0.072202466
0.37496674 0.020072736 -0.076592319
-0.44404769 0.039666526 -0.074083768
-0.42479166 0.033010256 -0.072504923
-0.38292873 0.034920562 -0.076725557
-0.21289295 0.031746816 -0.074059628
-0.19315457 0.032283686 -0.077428415
-0.14406154 0.031825505 -0.074553378
0.070139781 0.032504089 -0.078975931
0.08688654 0.032321267 -0.077664234
0.11045749 0.032010667 -0.075715229
0.13588096 0.032502472 -0.078963846
0.16132872 0.032281198 -0.077412814
0.19479388 0.03165542 -0.07348612
0.23947659 0.032404959 -0.078232646
0.38360363 0.034690544 -0.074186862
0.42575276 0.03378382 -0.077496275
0.41815734 0.04500632 -0.075891927
0.44734794 0.044347391 -0.075247154
-0.45188004 0.053684872 -0.070186645
-0.44021398 0.051567897 -0.075464956
-0.31523785 0.01519428 -0.061634105
-0.24701232 0.018714759 -0.067632586
-0.22822985 0.018646955 -0.066655703
-0.19773765 0.018411579 -0.0630733
-0.12233959 0.018723797 -0.067825213
-0.009589415 0.018607376 -0.066053331
0.066054054 0.018331302 -0.061771952
0.088391587 0.018355984 -0.062227115
0.12652677 0.018621635 -0.066270322
0.20163456 0.018674891 -0.0670809
0.32431316 0.014567605 -0.066433266
0.37749207 0.019931994 -0.069129892
-0.047227971 0.029906329 -0.06106073
0.076943032 0.029877674 -0.060775533
0.2616246 0.029862786 -0.060627352
0.3644439 0.029940335 -0.068092644
0.38505825 0.021385428 -0.067254201
0.4038797 0.026100224 -0.064884186
-0.28964689 0.030464951 -0.065897748
-0.26603806 0.030830786 -0.068308279
-0.19171627 0.030842405 -0.068386622
-0.10114983 0.030480105 -0.06582655
0.05488991 0.030313762 -0.064568847
0.18859866 0.03032269 -0.064532846
0.42034015 0.031008311 -0.065182209
0.44156864 0.038086597 -0.067082494
-0.4572612 0.043791965 -0.066019103
-0.4110533 0.041783214 -0.066884927
0.45781404 0.046811249 -0.068210237
-0.44516754 0.052683406 -0.064134426
-0.35035282 0.015012095 -0.051829591
-0.34248766 0.014354473 -0.054900836
-0.31774884 0.014521202 -0.055115368
-0.30507588 0.016391926 -0.053887829
-0.27386352 0.017815839 -0.051093157
-0.26518944 0.017816927 -0.051118601
-0.25495431 0.018063119 -0.05681571
-0.24833386 0.017880924 -0.052617528
-0.23235191 0.017935023 -0.053775225
-0.20775139 0.018055022 -0.056666408
-0.17037779 0.017978176 -0.054895334
-0.091151983 0.017828967 -0.051400647
-0.034062184 0.017968819 -0.05467616
-0.0041760565 0.018083198 -0.057187088
0.056517661 0.018190607 -0.059171956
0.09816882 0.018203549 -0.059411123
0.11072879 0.017986458 -0.055089269
0.13000244 0.018145807 -0.058340706
0.15274537 0.01785272 -0.051956929
0.36418369 0.016986765 -0.056560867
0.37767804 0.019150883 -0.05540403
-0.41109356 0.027413696 -0.05126892
-0.36054084 0.027724084 -0.05183287
-0.35059896 0.02638055 -0.050159112
-0.26224449 0.029366717 -0.054931886
-0.24299724 0.029115712 -0.050752316
-0.21151806 0.02948815 -0.056559954
-0.20436472 0.029357109 -0.054793663
-0.16426428 0.029670436 -0.058704205
0.035242744 0.029525829 -0.0570032
0.059429936 0.029310241 -0.054119535
0.070642091 0.029791959 -0.059922446
0.080132514 0.029630044 -0.058229055
0.11104446 0.029086359 -0.050076954
0.1452617 0.029495602 -0.05655925
0.19839141 0.029510889 -0.056827433
0.21017358 0.029773388 -0.059737623
0.2233841 0.029584903 -0.057698049
0.25909066 0.029318962 -0.054244984
0.30539635 0.028234348 -0.05880183
0.32774246 0.025159758 -0.054976348
-0.44421405 0.03784211 -0.051215988
0.39703968 0.035871554 -0.055599932
0.40196165 0.037324261 -0.055277847
0.44485819 0.038161896 -0.052554145
-0.46068534 0.05576526 -0.058801245
0.45217687 0.054455988 -0.053002775
0.46630967 0.053608749 -0.054040063
0.47002319 0.052262664 -0.050263304
-0.30394241 0.016327316 -0.048136227
-0.26487324 0.01754939 -0.041194312
-0.25348932 0.017654706 -0.04602091
-0.24050857 0.017570332 -0.042247366
-0.22733268 0.017582072 -0.042837419
-0.21798769 0.017694991 -0.047307819
-0.19155288 0.017663505 -0.046301998
-0.16945337 0.017660011 -0.046190325
-0.13759932 0.017747311 -0.048979245
-0.11746714 0.017590001 -0.043235991
-0.10389979 0.017663166 -0.045949683
-0.042823985 0.017699271 -0.047444597
-0.034084141 0.017549483 -0.041199524
0.011299278 0.017704898 -0.047624364
0.032646984 0.017527187 -0.040078931
0.071621932 0.017625259 -0.045008007
0.14725164 0.017682098 -0.04689597
0.24617392 0.017632226 -0.044782288
0.35606369 0.015425551 -0.044650361
0.368366 0.017156865 -0.045217875
-0.40189433 0.024574351 -0.042911053
-0.3973968 0.023543591 -0.049771771
-0.36287129 0.02783422 -0.046533067
-0.34371141 0.025471665 -0.043186307
-0.22842802 0.028964685 -0.046353444
-0.20084731 0.028925378 -0.040605862
-0.18417223 0.02905369 -0.04923138
-0.16583577 0.028935757 -0.04510466
-0.13499354 0.028919181 -0.043111768
-0.12180101 0.02896704 -0.046455089
-0.11736806 0.028923992 -0.040788341
-0.098335162 0.028992791 -0.047566772
-0.039449535 0.028924204 -0.040760353
0.0087103406 0.028964344 -0.046338733
0.055163443 0.028922295 -0.043513127
0.077862076 0.028936295 -0.045127824
0.2569415 0.028948626 -0.045660209
0.26870823 0.028921513 -0.04341206
0.30722746 0.027362788 -0.04932804
0.32696044 0.024765933 -0.043551438
0.34240434 0.025498271 -0.0495346
-0.40366364 0.036953185 -0.042323977
-0.39886886 0.03558661 -0.042003203
-0.38018414 0.03102986 -0.048540749
0.39208302 0.033792667 -0.043818265
0.40647 0.037742041 -0.041817889
0.41340232 0.039798632 -0.04107064
-0.46970031 0.047416128 -0.049648199
-0.41630453 0.041088045 -0.045844093
-0.46680319 0.058596149 -0.044785187
-0.4573203 0.05572436 -0.040967122
0.46872622 0.057639569 -0.046310145
-0.37505013 0.018177113 -0.035974838
-0.34206218 0.013850575 -0.036503755
-0.31389773 0.014586443 -0.038048565
-0.23931229 0.017516101 -0.030225715
-0.10798489 0.017516101 -0.037694599
0.10696122 0.017516101 -0.030728135
0.13700187 0.017516101 -0.03597746
0.15281466 0.017516101 -0.038555499
0.1694333 0.017516101 -0.038685605
0.21466456 0.017522426 -0.039839648
0.23124307 0.017522544 -0.039845519
0.29958606 0.016641211 -0.036964156
0.30857113 0.01545684 -0.030828163
0.32275525 0.013553757 -0.036718886
-0.3919082 0.021825576 -0.034049179
-0.29798737 0.028300643 -0.030653184
-0.22773358 0.0289336 -0.032379124
-0.21576889 0.0289336 -0.031671431
-0.20624125 0.0289336 -0.034698483
-0.16196848 0.0289336 -0.035563797
-0.096761502 0.0289336 -0.038892917
-0.079601534 0.0289336 -0.034318201
-0.037187617 0.028933598 -0.03479328
0.10834639 0.0289336 -0.038629111
0.15496093 0.0289336 -0.03417448
0.16747722 0.0289336 -0.030974831
0.21551767 0.028933601 -0.035715446
0.32945481 0.024681114 -0.036782686
0.37420884 0.029724024 -0.030018099
0.39093718 0.021572702 -0.034111738
0.41040602 0.026858829 -0.039927229
-0.4083277 0.038148049 -0.038222503
-0.38632298 0.032311223 -0.031853683
-0.46691149 0.045398057 -0.037970852
-0.42169315 0.041983142 -0.031785712
0.46668568 0.058498807 -0.037310965
0.47381133 0.050247453 -0.03838839
-0.34744582 0.014350687 -0.02558139
-0.32616568 0.013354287 -0.020978523
-0.30900937 0.01538713 -0.022419939
-0.25736797 0.017516101 -0.026491206
-0.22511765 0.017516101 -0.024033543
-0.14020123 0.017516101 -0.026137499
-0.13209794 0.017516101 -0.028496085
-0.062079743 0.017516101 -0.024515642
-0.043936122 0.017516101 -0.023031127
-0.012617331 0.017516103 -0.029743114
-0.0031673599 0.017516101 -0.021024119
0.029066607 0.017516101 -0.020858865
0.076209344 0.017516101 -0.028864248
0.094690517 0.017516101 -0.027156061
0.11328344 0.017516101 -0.023927422
0.1918436 0.017516101 -0.020017628
0.2241458 0.017516101 -0.022552317
0.25371534 0.017516101 -0.021483198
0.27870512 0.017516101 -0.021845974
0.30013549 0.016582092 -0.026272187
0.31614941 0.014250339 -0.021910926
0.32708842 0.013319258 -0.02426873
0.33151352 0.01324692 -0.026659558
0.34841663 0.014460159 -0.028391447
0.35987654 0.015833549 -0.024105351
0.36676666 0.016792934 -0.02681794
-0.40804094 0.026036365 -0.02483125
-0.35490364 0.026725233 -0.026796835
-0.21598561 0.0289336 -0.027718831
-0.20075001 0.0289336 -0.022333734
-0.18395244 0.0289336 -0.02012183
-0.017069137 0.0289336 -0.028788008
0.056947205 0.0289336 -0.023440188
0.081158496 0.0289336 -0.022878807
0.097916104 0.0289336 -0.023807805
0.16336311 0.0289336 -0.022132641
0.17669441 0.0289336 -0.026175916
0.18707128 0.0289336 -0.020183209
0.32591528 0.024792491 -0.027626786
0.35591513 0.026860809 -0.025504222
0.39412996 0.022404157 -0.027496327
0.41197303 0.027108001 -0.028933076
-0.42303279 0.030107452 -0.023253921
-0.40984851 0.03840296 -0.029830409
0.45084774 0.038943388 -0.026258662
-0.44274664 0.049447481 -0.022910725
0.4573338 0.04125854 -0.026934978
-0.48020875 0.051603515 -0.020932984
-0.45835108 0.055675387 -0.027881991
-0.32814443 0.01327917 -0.011572233
-0.27719718 0.017516101 -0.012120623
-0.18157825 0.017516101 -0.019355156
-0.17836532 0.017516101 -0.015079048
-0.16122966 0.017516101 -0.014674221
-0.1543339 0.017516101 -0.016155656
-0.13880439 0.017516101 -0.018337224
-0.096821032 0.017516103 -0.016898431
-0.078440994 0.017516101 -0.010151745
-0.020100672 0.017516101 -0.01442254
0.016060501 0.017516099 -0.015626572
0.035444558 0.017516101 -0.010428303
0.071066841 0.017516101 -0.018815491
0.10719024 0.017516099 -0.019717129
0.11321741 0.017516101 -0.016812205
0.23595721 0.017516101 -0.014145639
0.2423012 0.017516101 -0.018309515
0.31538799 0.014348503 -0.012354253
0.34940085 0.01457114 -0.019966934
-0.35682422 0.026982667 -0.017496839
-0.24570711 0.0289336 -0.018786293
-0.23065591 0.0289336 -0.012360112
-0.19027747 0.0289336 -0.017281776
-0.013056312 0.0289336 -0.013145948
0.066551842 0.0289336 -0.015367705
0.10672479 0.0289336 -0.011734534
0.11108602 0.0289336 -0.012322131
0.21529354 0.0289336 -0.013214123
0.32319665 0.024977647 -0.010149091
0.33825111 0.024984663 -0.014519302
-0.45156908 0.038865473 -0.010900423
-0.44514817 0.036707461 -0.011889492
-0.43434203 0.033281639 -0.010458851
0.40632543 0.037532069 -0.013679853
0.4367888 0.046704888 -0.017810294
-0.4789634 0.05937402 -0.013349308
-0.4583464 0.055341039 -0.011689574
0.45444173 0.053975552 -0.017075343
0.47806185 0.059696652 -0.017193826
-0.38083425 0.019311305 -0.0071711987
-0.36043584 0.015908437 -0.0035517493
-0.30374885 0.016145326 -0.007586617
-0.29446071 0.017104309 -0.0031312346
-0.28472555 0.017516101 -0.0041081607
-0.27993128 0.017516101 -0.0063125901
-0.26487857 0.017516101 -0.00062572025
-0.25375012 0.017516101 -0.0046087373
-0.21330257 0.017516101 -0.0066520777
-0.20790634 0.017516101 -0.0037458215
-0.19167292 0.017516101 -0.0061206021
-0.14842661 0.017516101 -0.0071831215
0.011993408 0.017516101 -0.0097969659
0.08318451 0.017516101 -0.0091517018
0.12414818 0.017516101 -0.00024768233
0.25478196 0.017516101 -0.0084505761
0.27560413 0.017516101 -0.001497495
0.30235714 0.016323287 -0.0014187321
0.33748582 0.013455551 -0.0035826508
0.35296836 0.014973415 -0.0025676722
-0.32214209 0.025079634 -0.0083868671
-0.30317056 0.02775391 -0.0067201401
-0.27409872 0.0289336 -0.0075715897
-0.19346187 0.0289336 -0.0073006912
-0.17973709 0.0289336 -0.0005930434
-0.14645216 0.0289336 -0.0072327526
-0.10676644 0.0289336 -0.002705914
-0.093466446 0.0289336 -0.0028242241
-0.088503875 0.0289336 -0.0092235208
-0.078891583 0.0289336 -0.00076637883
0.049176645 0.0289336 -0.00095950067
0.074520871 0.0289336 -0.0093406029
0.12117912 0.0289336 -0.0046869488
0.15255192 0.0289336 -0.0095541412
0.19339278 0.0289336 -9.9566765e-05
0.22379422 0.0289336 -0.00618354
0.33679268 0.024858303 -0.0071958122
0.39684361 0.02311084 -0.0051219757
0.40050149 0.024064787 -0.0037551364
-0.41379032 0.039484173 -0.0030915798
-0.40635642 0.037540164 -0.00057939393
-0.47873068 0.049024019 -0.0024572515
-0.45552972 0.040118791 -5.9588347e-06
0.43801838 0.046926837 -0.0061773723
-0.4796665 0.059626527 -0.0076443651
-0.46429473 0.057354189 -0.0046136617
0.45063761 0.052138221 -0.00064232567
0.46361947 0.057093054 -0.0015406748
-0.47853085 0.060516752 -0.003873972
-0.34734362 0.014339166 0.0067127338
-0.25763601 0.017516101 0.002805314
-0.23246486 0.017516101 0.0048792288
-0.15707274 0.017516101 0.0044362377
-0.1448237 0.017516101 0.0083483523
-0.088265315 0.017516101 0.0074726362
-0.031062257 0.017516101 0.003212871
-0.011512726 0.017516101 0.0086341528
0.026497986 0.017516101 0.0096573886
0.17853773 0.017516101 0.0039666416
0.2221799 0.017516101 0.0015782907
0.30745938 0.015625503 0.00923099
0.31679028 0.014167854 0.0053928723
-0.33674905 0.024856033 0.0083004786
-0.2974683 0.028341301 0.0042131958
-0.27386141 0.0289336 0.0077637294
-0.26796126 0.0289336 0.008022448
-0.2570366 0.0289336 0.0034221737
-0.2477172 0.0289336 0.00045036245
-0.23373261 0.0289336 0.0017364603
-0.13675335 0.0289336 0.005935323
-0.10612395 0.0289336 0.0081085246
-0.077148549 0.0289336 0.0037687938
-0.059615828 0.0289336 0.0020530694
-0.0051141568 0.0289336 0.0076828143
0.036487326 0.0289336 0.0067577232
0.0770749 0.0289336 0.0066787601
0.12460401 0.0289336 0.0058212075
0.21897162 0.0289336 0.0092768278
0.24053316 0.0289336 0.00055654114
0.27363706 0.0289336 0.0035677478
0.38454258 0.020089857 0.0052461354
0.40550977 0.025374461 0.0084794294
-0.44075114 0.035227641 0.0044120792
-0.42928526 0.031774554 0.0087347142
-0.43446818 0.045542594 0.0022007956
-0.42664748 0.042986639 0.0097549381
-0.41628742 0.040109307 0.0025931972
0.4359988 0.046125837 0.0036976407
-0.36760819 0.016921796 0.013709392
-0.34020466 0.013680125 0.016960107
-0.24483797 0.017516101 0.015989631
-0.23356076 0.017516101 0.014743955
-0.18226629 0.017516101 0.018753089
-0.11704917 0.017516101 0.01162023
-0.057374895 0.017516101 0.014426987
-0.01410875 0.017516101 0.014131797
0.054494023 0.017516101 0.018057736
0.082318269 0.017516101 0.016587127
0.10858415 0.017516101 0.014993807
0.11586475 0.017516101 0.01562836
0.14292887 0.017516101 0.018162245
0.17886266 0.017516101 0.017601458
0.25449672 0.017516101 0.012212047
0.26097673 0.017516101 0.018509351
0.29466531 0.017113324 0.017933039
0.31423798 0.014532119 0.011012174
0.32443342 0.013439517 0.018511649
0.38129979 0.019404849 0.018194407
-0.38794643 0.020826392 0.013228185
-0.32643086 0.024772953 0.016062362
-0.25539291 0.0289336 0.019260045
-0.21903358 0.0289336 0.011319561
-0.13963063 0.0289336 0.010615958
-0.10945318 0.0289336 0.013743624
-0.050677232 0.0289336 0.017300464
-0.012666501 0.0289336 0.016516637
0.025972752 0.0289336 0.014031829
0.087454967 0.0289336 0.010828508
0.13862084 0.0289336 0.018134594
0.15066035 0.0289336 0.018947871
0.21299836 0.0289336 0.015065713
0.29772109 0.028324589 0.01255535
0.33775404 0.024939047 0.018251713
0.39480728 0.022580542 0.016730281
-0.38959771 0.033164173 0.016416259
0.43173155 0.032516789 0.013005819
-0.48001322 0.04972332 0.010561206
-0.42118543 0.041434973 0.017344313
0.43902141 0.047603615 0.018312808
0.44137713 0.048424952 0.013234116
0.45125484 0.052581228 0.01040506
0.47681451 0.059304319 0.018792648
0.48062861 0.056805678 0.012993406
0.47395927 0.060430661 0.015279801
-0.38303983 0.019764693 0.02654364
-0.36249888 0.016184948 0.028432729
-0.35459316 0.015156529 0.02623683
-0.25421467 0.017516101 0.023573881
-0.17287408 0.017516101 0.02131586
-0.070762865 0.017516101 0.023558384
-0.047003962 0.017516101 0.025786925
-0.027296573 0.017516101 0.025400013
-0.010227817 0.017516101 0.028446278
0.065112926 0.017516101 0.025524454
0.095371343 0.017516101 0.022543542
0.14615825 0.017516101 0.022539442
0.18537223 0.017516101 0.021076225
0.37105861 0.017450145 0.024763491
-0.3640596 0.027978819 0.02913961
-0.31530586 0.025978548 0.028175022
-0.27428949 0.0289336 0.025620554
-0.22549781 0.0289336 0.028190244
-0.041582488 0.0289336 0.028374132
0.0098711485 0.0289336 0.026795048
0.084155738 0.0289336 0.023961123
0.095014706 0.0289336 0.027848929
0.11073724 0.0289336 0.020624738
0.15945044 0.0289336 0.021051373
0.21811801 0.0289336 0.020046946
0.2458249 0.0289336 0.029795298
-0.38466644 0.031888966 0.028134258
0.38642859 0.032338731 0.023939576
-0.33119386 0.013249457 0.032741379
-0.31745189 0.014082702 0.031638689
-0.2908622 0.017390639 0.034881201
-0.28584215 0.017516101 0.039329864
-0.23958427 0.017516101 0.034909226
-0.17571732 0.017516101 0.034542151
-0.0030641267 0.017516101 0.034159292
0.013385972 0.017516101 0.031155877
0.05979431 0.017516101 0.036359735
0.094240472 0.017516101 0.035843562
0.10893629 0.017516101 0.034912318
0.16922089 0.017516101 0.038725723
0.25524926 0.017516101 0.030530766
0.33358145 0.013290195 0.03804341
0.36882591 0.017108262 0.030004524
-0.40733743 0.025889939 0.032192595
-0.3864826 0.020509643 0.032916229
-0.37471038 0.029823586 0.034468759
-0.31462386 0.026097942 0.032330599
-0.24505658 0.0289336 0.035914544
-0.17437306 0.0289336 0.039328869
-0.11874328 0.0289336 0.032975011
-0.025172375 0.0289336 0.039331183
-0.0024907077 0.0289336 0.03497744
0.00056521822 0.0289336 0.039549295
0.17555653 0.0289336 0.033713564
0.23414083 0.0289336 0.032990962
0.29841971 0.028258462 0.030709252
0.31457591 0.026103575 0.035459578
0.3339532 0.024719369 0.030656932
-0.4326638 0.033356369 0.037868612
-0.39455876 0.034456324 0.031885166
-0.37701869 0.030269496 0.0398513
-0.46632928 0.044890299 0.032835782
0.4746924 0.048321057 0.034691587
-0.32074291 0.013907985 0.047492132
-0.2933045 0.017412614 0.047787461
-0.25202873 0.01756341 0.041953817
-0.23560627 0.017579606 0.042767853
-0.18205532 0.017773159 0.049859643
-0.16768464 0.0175563 0.041596442
-0.1559408 0.017720588 0.048180137
-0.13149746 0.017636234 0.045485374
-0.084129661 0.017545136 0.041035216
-0.015274788 0.01755169 0.041364722
-0.0071393456 0.017557289 0.041646153
0.0079896804 0.017650114 0.045928817
0.01787561 0.017622516 0.044924639
0.22039689 0.017664669 0.046393789
0.30427155 0.016335038 0.049770169
0.31138065 0.015052166 0.042276561
0.38183585 0.019707896 0.047373019
-0.38409385 0.020128163 0.045292176
-0.26018631 0.028927127 0.040429614
-0.20125401 0.028979957 0.047067296
-0.16991018 0.028947277 0.045656558
-0.13821678 0.02895104 0.045818951
-0.12103429 0.028927296 0.040406942
-0.036115434 0.028914405 0.042551488
-0.0037970359 0.028923906 0.040854126
0.02329943 0.028927598 0.044250101
0.031273544 0.028975651 0.046881374
0.11610029 0.028918657 0.043098979
0.25766975 0.028938485 0.045276973
0.36606064 0.028270841 0.041327223
0.40652698 0.026009876 0.048766028
0.4188281 0.029283121 0.041154899
-0.44554242 0.037625354 0.040201578
-0.42561358 0.031544186 0.04754677
0.45616144 0.041539095 0.043289021
0.46611875 0.045551021 0.046493456
-0.374156 0.018327668 0.052420426
-0.32259718 0.013832615 0.050185174
-0.28375489 0.018001411 0.055494126
-0.24391022 0.018083375 0.05724496
-0.16756728 0.017960191 0.054528788
-0.0023517788 0.017779969 0.050077163
0.061652403 0.018222552 0.05981683
0.14176303 0.017915174 0.053474367
0.20682456 0.018208236 0.059552275
0.26656005 0.017881151 0.052677479
0.28793162 0.018224597 0.05985463
0.29727948 0.017224483 0.052210838
0.34368068 0.014310855 0.051392909
-0.38903552 0.021792253 0.059054974
-0.34923804 0.026242532 0.050604187
-0.306517 0.02768001 0.053418398
-0.2904681 0.029216906 0.053888708
-0.24381033 0.029290713 0.053893145
-0.20295675 0.029746931 0.059529282
-0.18921384 0.029670332 0.05875805
-0.12618025 0.029587917 0.057788249
-0.10874255 0.029591996 0.057836257
-0.069647737 0.02943386 0.055951823
-0.046240535 0.029117526 0.050786417
0.016671911 0.029266011 0.053283352
0.078403786 0.02919225 0.052226704
0.11232192 0.029402655 0.055503003
0.15335368 0.029115953 0.050811328
0.18055622 0.029470986 0.056412295
0.19293174 0.029297657 0.053626321
0.22075228 0.029336827 0.054556299
0.25854436 0.029246585 0.053234681
0.26819196 0.029367382 0.054995753
0.28756323 0.029491482 0.056653492
0.39006662 0.021652211 0.050857425
-0.39136431 0.033957172 0.052483797
0.38605821 0.032857358 0.05618142
0.43334055 0.03459328 0.057762537
-0.41542718 0.042236403 0.058537591
0.41610709 0.042140685 0.05593957
0.44940716 0.04005494 0.056603447
0.4613727 0.054460011 0.058563542
-0.35586667 0.01657556 0.068618104
-0.30635816 0.01680265 0.065090492
-0.27374643 0.018249277 0.06031071
-0.20860448 0.018496636 0.064422369
-0.18617329 0.018482791 0.064211622
-0.17756894 0.018263159 0.060567226
-0.16721892 0.018687425 0.067198098
-0.14076 0.018840358 0.069398008
-0.075899556 0.018878758 0.069895729
-0.064040758 0.018670008 0.066900238
-0.047861777 0.018591817 0.065871
-0.036682095 0.018262973 0.060563777
0.011924995 0.018331947 0.061838351
0.081359863 0.018452242 0.063746683
0.10983176 0.018412657 0.063144207
0.13687772 0.018241666 0.060170062
0.255961 0.018334426 0.061884165
0.26783544 0.018268621 0.060668137
0.33793944 0.014432663 0.063435346
0.3460269 0.015301061 0.065943994
-0.40301532 0.026025282 0.067613333
-0.34450638 0.027036119 0.065293133
-0.1380593 0.02982438 0.060299966
0.044385914 0.029899998 0.061052416
0.15525717 0.029922599 0.061277322
0.32533512 0.025748471 0.060525529
0.36849374 0.029991789 0.063943632
-0.41997617 0.031206874 0.069607936
-0.37855387 0.032658499 0.068775564
-0.19756027 0.030102819 0.062861368
-0.097373828 0.030141221 0.063191183
-0.046031248 0.03105022 0.069823936
-0.034740072 0.03066065 0.067114517
0.067887381 0.030406738 0.065326363
0.085917577 0.030443182 0.065601915
0.11092133 0.03104905 0.069816828
0.128157 0.030854709 0.068524122
0.21752979 0.030454982 0.065691128
0.36997861 0.030033626 0.062342424
0.44284657 0.038183879 0.062903762
-0.45909792 0.046463456 0.066433318
-0.3092826 0.017521214 0.07913065
-0.20542456 0.019335352 0.075517207
-0.1484876 0.019459782 0.076916814
-0.11587835 0.01947042 0.077036463
-0.09839911 0.019570306 0.078159995
-0.038667042 0.019720716 0.079775952
-0.014880539 0.01940091 0.076254591
0.0027713845 0.019229796 0.074329883
0.031707752 0.019240685 0.074452415
0.18992525 0.019649539 0.079051197
0.2641283 0.019386593 0.076093584
0.30073982 0.018471532 0.076868236
0.31458417 0.016192671 0.07401783
-0.35071129 0.029534103 0.076975033
-0.32296422 0.027820939 0.074051842
-0.31604791 0.028758321 0.074285358
0.34642023 0.029475305 0.079929881
-0.44090652 0.038527727 0.073600248
-0.4218246 0.032340225 0.076056629
-0.36406606 0.030388139 0.071326308
-0.28019804 0.03240037 0.07825283
-0.080391929 0.031781245 0.074369654
-0.073102891 0.032278784 0.07745225
-0.067409389 0.032603189 0.079773635
-0.03745541 0.03146182 0.072326042
-0.012845322 0.031108931 0.070180833
0.026598774 0.032140289 0.076583214
0.10755955 0.032372884 0.078046732
0.1352497 0.032011669 0.07577613
0.15391833 0.032159045 0.076700889
0.17294154 0.032530159 0.079226047
0.19194357 0.032514699 0.079110108
0.21466419 0.031340197 0.071586713
0.25997344 0.032553077 0.079397887
0.30375901 0.030766424 0.075616002
0.36472133 0.030977897 0.074303381
0.37914285 0.033388067 0.072423354
-0.42126346 0.045892075 0.074508727
0.45291972 0.050395817 0.073403738
-0.35262308 0.017514747 0.083295822
-0.31437898 0.016791947 0.080162302
-0.29814923 0.019574687 0.085270658
-0.20997468 0.019780973 0.080375627
0.20547435 0.019767707 0.080243602
0.29170346 0.019753734 0.081836462
0.31282574 0.018057615 0.089541681
0.32505667 0.016005501 0.083712563
0.36237511 0.019345593 0.088588543
-0.37518242 0.020973012 0.085120209
-0.3488979 0.029807162 0.080320269
-0.26448932 0.020669311 0.088752568
-0.025186274 0.020403579 0.086385667
0.020905383 0.020732528 0.089315616
0.074306197 0.020650877 0.088588342
0.14285183 0.020202044 0.084508434
0.15451474 0.020444071 0.08674632
0.32921454 0.028995249 0.084790543
0.34580702 0.029670499 0.081894845
0.3726846 0.021045607 0.089798406
-0.39263207 0.038692713 0.089960583
-0.35819316 0.03111754 0.081522517
-0.31385404 0.030571891 0.084371731
-0.29069138 0.032898434 0.082573071
-0.16415539 0.033094294 0.083456129
-0.12147812 0.033752277 0.089499101
-0.036939405 0.033506576 0.087215468
0.015173841 0.0333158 0.085442305
0.19992463 0.033312965 0.085415989
0.21713629 0.033589937 0.087990247
0.35609043 0.031723879 0.089141116
0.42591292 0.034810014 0.08654277
-0.40054542 0.040169243 0.081036896
0.34354421 0.017985523 0.095539033
-0.39256853 0.026400905 0.098515555
-0.2986117 0.020695569 0.095105588
-0.21095702 0.021611789 0.096455202
-0.13823795 0.020839987 0.090272762
-0.034408469 0.020815123 0.090051293
0.0018540177 0.021057453 0.09203618
0.044766665 0.021883588 0.098453104
0.068709984 0.021113399 0.092487089
0.075122982 0.021151312 0.092792623
0.19342901 0.021169627 0.092940234
0.24377568 0.02140848 0.094865233
0.37795469 0.022631489 0.094574958
0.38518992 0.023766518 0.091436729
0.39116958 0.025486436 0.094232455
-0.42246175 0.03890663 0.096885584
-0.38427877 0.036992166 0.093338311
-0.30789492 0.032698892 0.098518156
-0.23690236 0.03427241 0.096234843
-0.19585459 0.033904634 0.09134075
-0.17402066 0.034339152 0.097191036
-0.12626237 0.034378313 0.09787754
-0.035976209 0.03388872 0.091147237
0.052051581 0.034327708 0.096990407
0.13361368 0.033968676 0.092119306
0.14170177 0.034350764 0.097394548
0.18383077 0.034363396 0.097616047
0.32820952 0.0302632 0.099758193
0.41761917 0.033071879 0.093543284
-0.42838275 0.041099887 0.094470285
0.4009451 0.041248955 0.095517248
0.41850987 0.045915879 0.09152054
-0.34709981 0.018945403 0.10011543
-0.31961071 0.018742394 0.10212705
-0.33474106 0.024939544 0.10757127
-0.31671566 0.022563094 0.10849634
-0.27729845 0.028585561 0.10904099
-0.269981 0.022590574 0.1034742
-0.25813881 0.02487655 0.10810596
-0.21037433 0.024971612 0.107007
-0.16936418 0.022367062 0.10196505
-0.14429259 0.024551673 0.10371096
-0.12676063 0.025568632 0.10840098
-0.07901521 0.02312527 0.10701498
-0.05216796 0.024812073 0.10807047
-0.029379206 0.024625391 0.107007
-0.018001549 0.027478099 0.10892795
0.014993541 0.024530731 0.10791485
0.043190263 0.02656009 0.107007
0.065702207 0.028673781 0.10904606
0.12705608 0.02508189 0.107007
0.14185843 0.029224899 0.10904423
0.16075276 0.022164112 0.10051517
0.20171501 0.023707867 0.107007
0.21729903 0.022501167 0.10287052
0.24622369 0.02295983 0.1035089
0.2555989 0.026175417 0.10603414
0.26641905 0.024035277 0.107007
0.29558751 0.026150491 0.107007
0.35412878 0.029115258 0.10870416
0.37752056 0.02474279 0.10558181
0.39776868 0.029866047 0.10490633
-0.4039298 0.038106896 0.10407604
-0.31995314 0.031091366 0.10383321
-0.30486888 0.033044875 0.10727184
-0.26061028 0.032650117 0.10696539
-0.21307677 0.034726046 0.10616552
-0.1903891 0.034531098 0.10055594
-0.1881336 0.034666166 0.10429616
-0.1660203 0.034564998 0.10115024
-0.10471072 0.031919695 0.10796947
-0.099835783 0.032777298 0.10820146
-0.086102195 0.031832997 0.107007
0.0084490329 0.034751732 0.10696748
0.045643989 0.031305436 0.107007
0.054866888 0.034579679 0.10159619
0.07126914 0.034692999 0.10513391
0.092194371 0.034057297 0.107007
0.10263385 0.031061623 0.10880177
0.1122354 0.034582615 0.10168787
0.15936539 0.032105435 0.10848124
0.21668032 0.034665741 0.10428283
0.27596578 0.031273618 0.10874008
0.31631875 0.031614192 0.10264692
0.36616859 0.034120403 0.10367188
0.38614038 0.03567744 0.10531044
0.41046393 0.033797111 0.10140641
