# .PCD v0.7 - Point Cloud Data file format
VERSION 0.7
FIELDS x y z
SIZE 4 4 4
TYPE F F F
COUNT 1 1 1
WIDTH 858
HEIGHT 1
VIEWPOINT 0 0 0 1 0 0 0
POINTS 858
DATA ascii
0.25518423 0.21139094 -0.140422
0.26303822 0.21791539 -0.14427178
0.26332489 0.22768703 -0.14608362
0.24050143 0.23608114 -0.14826199
0.23774081 0.24123265 -0.14016466
-0.12409656 -0.246648 -0.13024738
0.075966649 -0.24413481 -0.13072699
0.26114964 0.22781262 -0.13093473
-0.2205514 -0.24367404 -0.12148905
-0.17648989 -0.246648 -0.12180687
-0.16813488 -0.243875 -0.12399048
-0.12284723 -0.243875 -0.12017379
-0.10905385 -0.24526149 -0.1276508
-0.090552732 -0.246648 -0.12586294
-0.0688821 -0.243875 -0.12935701
-0.027027845 -0.24664798 -0.12070243
-0.012641524 -0.246648 -0.12106797
-0.0028868765 -0.243875 -0.12497345
0.010496018 -0.24664801 -0.12266934
0.023137722 -0.243875 -0.12413543
0.04179804 -0.246648 -0.12809257
0.062289331 -0.246648 -0.1205029
0.078316495 -0.24526149 -0.12318286
0.081923261 -0.246648 -0.12598155
0.13629821 -0.24664798 -0.12775029
0.18600309 -0.243875 -0.12593721
0.28754711 -0.24210586 -0.1210161
0.2966069 -0.2401801 -0.12783039
0.30144712 -0.24092278 -0.12701429
0.30439144 -0.23852545 -0.1231055
0.25396958 0.21418297 -0.12094259
0.23472624 0.23835143 -0.12004047
-0.21365349 -0.243875 -0.11815265
-0.18227471 -0.24387501 -0.11163107
-0.17206965 -0.243875 -0.1153225
-0.16356279 -0.24387498 -0.11456344
-0.097332761 -0.246648 -0.1130496
0.023976041 -0.246648 -0.11490944
0.043626867 -0.243875 -0.11119033
0.061127886 -0.246648 -0.11711295
0.081538737 -0.24664798 -0.11221946
0.12137183 -0.243875 -0.112883
0.17448638 -0.246648 -0.1116019
0.18529245 -0.243875 -0.11304757
0.31039825 -0.23902026 -0.11445834
0.24619003 0.21584743 -0.11784327
0.25543684 0.21861202 -0.11271561
0.23397404 0.23681159 -0.11597411
0.2600233 0.23626891 -0.11708781
0.24967414 0.24446303 -0.11450077
-0.23628025 -0.24033068 -0.10557543
-0.208004 -0.243875 -0.10996863
-0.17703241 -0.246648 -0.10541803
-0.074068271 -0.246648 -0.10175542
-0.051554415 -0.24664798 -0.10045087
0.027928004 -0.243875 -0.10477106
0.051936969 -0.24526149 -0.10473046
0.06343472 -0.24664801 -0.10859911
0.076582119 -0.246648 -0.10195158
0.14755093 -0.243875 -0.1067896
0.16361539 -0.24387498 -0.10872386
0.18658209 -0.243875 -0.10902373
0.19716273 -0.246648 -0.10607751
0.20565918 -0.243875 -0.10154406
0.27644551 -0.24494661 -0.10307257
0.30881628 -0.23758486 -0.10479991
0.33231726 -0.23258929 -0.10393389
0.3493093 -0.22897772 -0.10776705
0.2525714 0.21699759 -0.10713691
0.26111725 0.22042009 -0.10717238
0.2328756 0.23306808 -0.10720745
0.24760702 0.24462707 -0.10603836
0.25774974 0.24082686 -0.10443598
-0.22054896 -0.24792722 -0.097074337
-0.20780307 -0.243875 -0.09059491
-0.15836503 -0.24664798 -0.095525928
-0.13816154 -0.24664801 -0.090871543
-0.035288706 -0.243875 -0.098737702
-0.018793538 -0.24664798 -0.097198337
-0.0051079616 -0.243875 -0.096737191
0.002113238 -0.24664798 -0.097478501
0.049429871 -0.243875 -0.095883191
0.050100051 -0.24664798 -0.095890731
0.18632896 -0.243875 -0.099380046
0.19242921 -0.243875 -0.097829252
0.21306187 -0.24664801 -0.091294743
0.25969124 -0.245608 -0.099822536
0.3387993 -0.23209754 -0.092737541
0.35491255 -0.22778633 -0.093040645
0.23376498 0.224617 -0.097582206
0.23250327 0.23024312 -0.099329717
0.25845489 0.2388642 -0.099055417
-0.24262522 -0.24323475 -0.088891998
-0.21188745 -0.24664801 -0.082454368
-0.1670454 -0.243875 -0.081182957
-0.15329716 -0.24664798 -0.085785866
-0.13967866 -0.246648 -0.081985302
-0.11062732 -0.243875 -0.081828803
-0.097492449 -0.243875 -0.082889572
-0.055212632 -0.243875 -0.085792497
-0.046307605 -0.24664798 -0.081615686
0.039665353 -0.243875 -0.081993714
0.050355248 -0.246648 -0.088372819
0.10089198 -0.243875 -0.083244927
0.13678157 -0.24526149 -0.085844576
0.16511691 -0.24526151 -0.084231243
0.18278472 -0.246648 -0.082160756
0.19311541 -0.243875 -0.086151741
0.21315798 -0.24664801 -0.08575727
0.24974152 -0.243875 -0.086442709
0.27946216 -0.24499637 -0.085598454
-0.26699087 -0.23805566 -0.080154687
-0.24930871 -0.23756133 -0.083682328
0.30501828 -0.23839208 -0.082548067
0.33191055 -0.23267595 -0.084597245
-0.30958474 -0.22900161 -0.084046446
0.36036435 -0.22839995 -0.081676863
0.2491587 0.21602899 -0.082051337
0.25674957 0.21580204 -0.08600419
0.23337053 0.22556984 -0.082675979
0.23566823 0.23906633 -0.088903591
0.25932825 0.23930736 -0.087739244
-0.22411011 -0.24504393 -0.074710332
-0.219606 -0.24498755 -0.071840286
-0.11414035 -0.24526151 -0.076195046
-0.1082103 -0.246648 -0.077047013
-0.081908315 -0.243875 -0.073990092
-0.06444402 -0.24526149 -0.07568869
-0.049306426 -0.243875 -0.07342682
-0.02566921 -0.243875 -0.073217727
0.01117003 -0.243875 -0.071322642
0.022745807 -0.246648 -0.07757704
0.048658811 -0.24664801 -0.071451515
0.10380307 -0.243875 -0.072655357
0.11169407 -0.243875 -0.074600905
0.15465631 -0.243875 -0.076690108
0.1673227 -0.246648 -0.07822834
0.1752961 -0.24664798 -0.076939151
0.19351262 -0.24664798 -0.074852459
0.29070139 -0.24320692 -0.070116602
-0.24578232 -0.2383109 -0.072387725
0.30788937 -0.23866767 -0.076394327
0.34640247 -0.22959548 -0.074618563
0.24782577 0.2447062 -0.071028389
-0.25539201 -0.24052107 -0.066059925
-0.23206225 -0.24122727 -0.067622945
-0.2244079 -0.24710697 -0.061481468
-0.21467885 -0.24664801 -0.062045418
-0.16922902 -0.24664801 -0.061245941
-0.12739165 -0.24664798 -0.06660898
-0.036698595 -0.24664801 -0.067380607
0.0063298196 -0.243875 -0.06113331
0.030579627 -0.246648 -0.060181368
0.14177808 -0.24664801 -0.060190514
0.17221232 -0.243875 -0.06111129
0.18738604 -0.24526149 -0.066675022
0.2039496 -0.24664798 -0.065120026
0.21165392 -0.243875 -0.062930577
0.2616967 -0.245608 -0.067614004
-0.28159732 -0.23495096 -0.069784194
-0.27106467 -0.23718974 -0.065053865
-0.23974529 -0.23959413 -0.062949821
0.30775118 -0.23781112 -0.062028252
0.31808513 -0.23561457 -0.068216473
0.32585579 -0.23396283 -0.068387806
-0.31385368 -0.22384146 -0.065416038
0.35601896 -0.22755134 -0.068619996
0.24004616 0.21755742 -0.069256462
0.25792435 0.22089538 -0.063993186
0.23938726 0.24262092 -0.063811697
-0.226037 -0.24250801 -0.059725147
-0.19373852 -0.243875 -0.058402799
-0.18969798 -0.243875 -0.055863056
-0.17590532 -0.243875 -0.055168018
-0.14526331 -0.24664801 -0.054034114
-0.13904162 -0.243875 -0.052648589
-0.11613946 -0.24664798 -0.059860915
-0.10046788 -0.243875 -0.050087895
-0.08563485 -0.243875 -0.059871189
-0.04678379 -0.24664801 -0.055797759
-0.030098017 -0.24664801 -0.054208968
-0.021613717 -0.24664801 -0.05720216
-0.014783086 -0.243875 -0.056192148
0.014482856 -0.243875 -0.059328128
0.032498352 -0.24664798 -0.056665905
0.046144538 -0.24526149 -0.05644872
0.094202265 -0.246648 -0.054660909
0.10391422 -0.24664798 -0.051641352
0.13769624 -0.246648 -0.0570902
0.15524164 -0.246648 -0.055603515
0.17489962 -0.243875 -0.059251603
0.2005375 -0.243875 -0.059959602
0.24619511 -0.245608 -0.059162043
0.26134321 -0.2447415 -0.053059716
-0.28525519 -0.23417345 -0.051401928
-0.27456391 -0.23219302 -0.056252263
-0.26706755 -0.23378646 -0.050101247
0.32607824 -0.23391554 -0.05429472
0.3390823 -0.23203744 -0.055068765
-0.31637758 -0.22330502 -0.054584906
-0.30915993 -0.22909233 -0.05543945
0.37748367 -0.22387487 -0.053114161
0.24109736 0.21076712 -0.05416768
0.25586033 0.21511942 -0.055781364
0.23164153 0.23106712 -0.058311623
0.26526216 0.23514603 -0.054441482
-0.21246594 -0.246648 -0.042654734
-0.1725513 -0.243875 -0.043320864
-0.13799934 -0.24526151 -0.044478513
-0.074239835 -0.246648 -0.041968614
-0.033930615 -0.24664798 -0.048694879
-0.016871713 -0.24664798 -0.047554642
-0.0099658072 -0.24664798 -0.042302955
0.0068101217 -0.243875 -0.045246288
0.023670696 -0.243875 -0.048300914
0.10323644 -0.246648 -0.046798002
0.14198175 -0.243875 -0.043553248
0.15369987 -0.24526151 -0.043849595
0.23195219 -0.24387498 -0.047358263
0.24877007 -0.245608 -0.046886805
0.25624153 -0.243875 -0.040058471
0.28616405 -0.24299033 -0.043602239
0.29543906 -0.24219987 -0.043200217
-0.28790215 -0.23361082 -0.043473687
-0.27788782 -0.23148647 -0.040607765
-0.26210922 -0.23909327 -0.046459224
0.31377596 -0.23653045 -0.045494478
-0.3985604 -0.22324327 -0.045697995
-0.3302412 -0.2203581 -0.046744645
0.36098024 -0.22649717 -0.044571325
0.3900643 -0.22208692 -0.040414896
-0.3953945 -0.21658069 -0.045008391
-0.39289272 -0.20404008 -0.043182097
-0.39409822 -0.19088918 -0.043123484
-0.39487535 -0.18060392 -0.048913743
0.24554673 0.21601272 -0.045827955
0.25535065 0.21854587 -0.04268603
0.24201775 0.24371132 -0.045732711
-0.33603069 -0.24143001 -0.0321889
-0.29586148 -0.24214871 -0.0321889
-0.24044724 -0.24584945 -0.0321889
-0.20547096 -0.243875 -0.033709727
-0.19911951 -0.24007092 -0.0321889
-0.094239824 -0.24526149 -0.037221335
-0.087715521 -0.2459536 -0.035966337
-0.070663236 -0.2403062 -0.0321889
-0.063001528 -0.243875 -0.034798861
-0.047720831 -0.24255496 -0.0321889
-0.038334504 -0.243875 -0.039698303
-0.013778806 -0.243875 -0.035964146
-0.00048647821 -0.24664801 -0.031447593
0.0012489092 -0.246648 -0.037189312
0.035606898 -0.24511924 -0.034609117
0.040074326 -0.243875 -0.039290369
0.051741265 -0.24425437 -0.033714384
0.071128711 -0.243875 -0.036778484
0.09242817 -0.24664798 -0.035375036
0.1085941 -0.24325141 -0.0321889
0.1111436 -0.2417995 -0.0321889
0.12241511 -0.243875 -0.039220158
0.13705197 -0.243875 -0.037074119
0.15484422 -0.243875 -0.036867484
0.18803422 -0.246648 -0.036563091
0.21245737 -0.246648 -0.032221925
0.26339483 -0.243875 -0.032159954
-0.34134194 -0.23406282 -0.0321889
-0.31827718 -0.23476857 -0.0321889
-0.29512569 -0.23207542 -0.039787214
-0.27680391 -0.23118103 -0.0321889
-0.26263449 -0.23472875 -0.036514912
-0.24770372 -0.23790249 -0.03666443
-0.19787519 -0.23610112 -0.0321889
-0.10658367 -0.23192093 -0.0321889
-0.09537366 -0.23282757 -0.0321889
-0.049159668 -0.23984832 -0.0321889
-0.015554758 -0.23515183 -0.0321889
0.0066641942 -0.23287995 -0.0321889
0.014227849 -0.23269284 -0.0321889
0.036108129 -0.23994812 -0.0321889
0.115432 -0.23032185 -0.0321889
0.13335432 -0.23421586 -0.0321889
0.15424097 -0.23149754 -0.0321889
0.1770018 -0.23334423 -0.0321889
0.32095826 -0.23500377 -0.036083166
0.33837023 -0.23130271 -0.031868115
0.35172397 -0.23023634 -0.035545394
-0.33465904 -0.22154547 -0.036561631
-0.32314703 -0.22611929 -0.03872484
-0.25676832 -0.2285578 -0.0321889
-0.23893204 -0.22384579 -0.0321889
-0.19359282 -0.22469181 -0.0321889
-0.17552494 -0.22017384 -0.0321889
0.018488254 -0.22155833 -0.0321889
0.092023171 -0.22997344 -0.0321889
0.10637162 -0.22574925 -0.0321889
0.18907315 -0.22417791 -0.0321889
0.37316778 -0.22567821 -0.035093769
-0.39122289 -0.21427646 -0.034062125
-0.29137808 -0.215103 -0.031665213
-0.11927421 -0.215103 -0.030758986
-0.1002125 -0.21778302 -0.0321889
0.0096984357 -0.215103 -0.0310652
0.03922382 -0.21588188 -0.0321889
0.073595658 -0.21706504 -0.0321889
0.14934327 -0.21737462 -0.0321889
0.18835525 -0.21836841 -0.0321889
0.17473678 -0.20353729 -0.0321889
0.20545852 -0.20360443 -0.0321889
0.16716257 -0.19938454 -0.0321889
-0.39199698 -0.18761322 -0.036552031
0.2380611 -0.18883869 -0.0321889
0.24311185 0.21505433 -0.033851914
0.25203007 0.21677333 -0.035957921
-0.15620519 -0.24664798 -0.025090612
-0.096714884 -0.246648 -0.029934477
-0.029353581 -0.24664798 -0.025561444
0.0066942871 -0.246648 -0.028607875
0.01813069 -0.246648 -0.029927373
0.16013221 -0.246648 -0.024823666
0.18809326 -0.246648 -0.020661544
0.23671976 -0.243875 -0.025924478
0.28409505 -0.24461113 -0.027037818
0.34179491 -0.23234689 -0.02997187
-0.39485481 -0.22613728 -0.027652087
-0.38655311 -0.21042016 -0.02254043
-0.34255672 -0.215103 -0.028012658
-0.27427208 -0.215103 -0.028183701
-0.24669203 -0.215103 -0.023332601
-0.10289891 -0.215103 -0.027736077
-0.099254362 -0.215103 -0.02245312
0.058492295 -0.215103 -0.026263244
0.11834681 -0.215103 -0.027912319
0.1397271 -0.215103 -0.024752585
0.40335 -0.21900138 -0.026913032
0.161138 -0.20561139 -0.021638261
0.24847123 -0.193436 -0.025351908
0.25209305 -0.193436 -0.025523853
0.23430377 0.21824297 -0.024362441
0.26457524 0.23118991 -0.022161173
-0.33776557 -0.24664801 -0.015220894
-0.20882776 -0.24664801 -0.019084435
-0.19664532 -0.24664798 -0.017747059
-0.18630321 -0.24664801 -0.012989239
-0.17768988 -0.24664801 -0.012128694
-0.16135299 -0.246648 -0.018366762
-0.13054478 -0.246648 -0.019138305
-0.10545687 -0.24664798 -0.019942194
-0.035458118 -0.246648 -0.013635028
0.19768222 -0.246648 -0.01360301
0.25375488 -0.245608 -0.014806423
0.27820942 -0.245608 -0.018739043
-0.30124295 -0.22128624 -0.014628985
0.21301199 -0.22096033 -0.018899376
0.2470095 -0.22369531 -0.011996434
0.35748988 -0.22723861 -0.01764336
0.36345002 -0.2259717 -0.010077368
-0.38533685 -0.21230614 -0.012467076
-0.30968931 -0.21774738 -0.016174201
-0.28564462 -0.215103 -0.011791703
-0.22886626 -0.215103 -0.015529797
-0.11067607 -0.215103 -0.012925507
-0.10838473 -0.215103 -0.015473543
-0.039561182 -0.215103 -0.016519295
0.02736821 -0.215103 -0.016231002
0.105092 -0.215103 -0.014295757
0.118923 -0.215103 -0.017044537
0.39236268 -0.21982667 -0.014964921
-0.38352877 -0.20226268 -0.01073657
0.24318239 -0.18959934 -0.011672024
0.27090299 -0.18038261 -0.016239997
0.17494734 -0.17592998 -0.016076989
0.18978633 -0.17592999 -0.016320933
0.25192222 -0.1657591 -0.010656111
0.24980095 0.039935794 -0.011534355
0.25067163 0.085447267 -0.011173714
0.25148746 0.10699342 -0.01083586
0.25229353 0.11421238 -0.010502337
0.2412501 0.17571984 -0.010871766
0.25070006 0.20877284 -0.011161942
0.26446515 0.22842476 -0.016784897
0.24917614 0.24765527 -0.016331499
-0.32185268 -0.24664798 -0.00078229886
-0.31338984 -0.24664801 -0.0088717537
-0.26882082 -0.246648 -0.00099128578
-0.18853343 -0.24664801 -0.00016249251
-0.14964563 -0.24664798 -0.009599302
-0.094636589 -0.24664801 -0.0091112964
-0.05574505 -0.24664801 -0.0032581873
0.04910662 -0.24664801 -0.0011551429
0.098586768 -0.246648 -0.0065230271
0.13264968 -0.24664798 -0.0039900905
0.14001821 -0.246648 -0.0066400017
0.15398861 -0.24664798 -0.0026613511
0.20463069 -0.24664798 -0.0069603305
0.23441528 -0.24006926 -0.0016430671
0.25082713 -0.243875 -0.0038144195
0.27618963 -0.243875 -5.2601099e-05
0.29309058 -0.24269903 -0.0037457524
0.25405669 -0.2302155 -0.0091841547
0.33847791 -0.23127976 -0.0056677535
0.35921776 -0.2286436 -0.0031021526
-0.38279805 -0.2122626 -0.0077165766
-0.31332904 -0.21937689 -0.0046580588
-0.30429304 -0.21369952 -0.0021300705
-0.25866747 -0.215103 -0.0072053969
0.032829918 -0.215103 -0.0094885835
0.071554951 -0.215103 -0.0021067499
0.11179195 -0.215103 -0.00087763555
0.23864312 -0.21238089 -0.0092208525
-0.38198736 -0.20340332 -0.00033089824
-0.31549406 -0.20303369 -0.00072483451
-0.26387551 -0.2062403 -0.0099953683
0.23486719 -0.20686573 -0.0037224742
-0.38537976 -0.19312088 -0.0045024678
-0.29881489 -0.19390142 -7.333509e-05
-0.28540188 -0.19145846 -0.0046588127
0.21301199 -0.19809842 -0.0035778787
-0.29924953 -0.18633771 -0.0071914727
-0.38617536 -0.1794003 -0.0051797107
-0.37415323 -0.17739293 -0.0081232768
0.17619216 -0.17592999 -0.00015340466
0.25558388 -0.14923373 -0.0076480689
0.25806099 -0.13436818 -0.0029725886
0.25710925 -0.072855584 -0.0043643434
0.23480307 -0.0096133798 -0.003567518
0.25501212 0.0055270568 -0.0083689876
0.2353086 0.012045696 -0.0047890036
0.23700073 0.056735426 -0.0067590894
0.23555034 0.067502238 -0.005373097
0.23446646 0.072571896 -0.002026882
0.25436997 0.11292423 -0.0089436742
0.23667693 0.13780279 -0.0071388902
0.23846772 0.14627318 -0.0090860035
0.23698321 0.15429831 -0.0073249214
0.25594714 0.18229599 -0.0071744593
0.25382355 0.19809273 -0.0093631092
0.24983558 0.21288294 -0.0075302464
0.25555801 0.21510856 -0.008244507
-0.34373897 -0.2434963 0.0036415907
-0.20085508 -0.24664798 0.0062467619
-0.096330225 -0.24664798 0.0096276021
-0.032950301 -0.246648 0.0049516549
0.080894649 -0.24664798 0.007657948
0.16250381 -0.24664798 0.0039017578
0.30162507 -0.24088499 0.0017960891
0.31418681 -0.23821495 0.0062739095
0.33265078 -0.23429002 0.0065608881
0.35026234 -0.23054695 0.0083528236
-0.38565937 -0.22316796 0.0021671392
0.21301198 -0.22069097 0.0068380069
0.37417537 -0.22546425 0.0095774289
-0.31714916 -0.21760388 0.0087915398
-0.28905541 -0.215103 0.00044827396
-0.27712572 -0.215103 0.002314202
-0.25561893 -0.215103 0.0034201092
-0.042389393 -0.215103 0.0092466446
0.021736804 -0.215103 0.0017803423
0.1181214 -0.215103 0.0028340202
0.1307863 -0.215103 0.0085445698
0.23748387 -0.21358797 0.0082832808
-0.38214111 -0.20813757 0.0019237021
-0.38443047 -0.19526012 0.0037741137
-0.32462537 -0.19066349 0.0027834047
-0.28491887 -0.1902419 0.0023951097
0.23904823 -0.19789039 0.0096244439
0.24391904 -0.193436 0.0056695137
-0.34031188 -0.18646042 0.0034813851
-0.33068767 -0.18903914 0.0072747306
-0.32327387 -0.18387896 0.005866589
-0.37970397 -0.17590564 0.00512869
-0.35038212 -0.17694356 0.0026084478
0.18489757 -0.17592999 0.0066121072
0.25807106 -0.17527737 0.0029884428
0.2383614 -0.13245125 0.0090974206
0.23905221 -0.12352902 0.0096274149
0.25530806 -0.096252851 0.0081007034
0.25433144 -0.086182304 0.0090661412
0.25425348 -0.074711993 0.0091259424
0.23567796 -0.059843756 0.0051325057
0.23640159 -0.049326465 0.006873236
0.23504747 -0.021371698 0.0042508561
0.23688129 -0.01339785 0.0074982038
0.23626792 0.021815199 0.0066990973
0.23789674 0.12325048 0.0087407418
0.25836974 0.15904678 0.00072311651
0.25800055 0.20450163 0.0031295046
0.23306081 0.21951543 0.00063200574
0.25462782 0.21437809 0.006306482
0.26070553 0.21925119 0.003486231
0.23516712 0.24329902 0.0028139986
-0.30542886 -0.24664801 0.018926958
-0.2880916 -0.246648 0.013078569
-0.2741203 -0.24664798 0.013681577
-0.23051001 -0.246648 0.016469944
-0.21950787 -0.246648 0.010643516
-0.19986166 -0.246648 0.013932491
-0.055232193 -0.246648 0.015592008
-0.0241239 -0.24664801 0.016392488
0.019348294 -0.24664801 0.01748701
0.047938686 -0.24664798 0.01657249
0.15219897 -0.24664801 0.014615055
0.2262391 -0.24557038 0.012207753
0.24579924 -0.2447415 0.016182628
0.2614271 -0.243875 0.018876273
0.3302561 -0.23479912 0.014861302
0.38426653 -0.22331932 0.014234348
-0.32744741 -0.215103 0.014688419
-0.31454825 -0.215103 0.014501896
-0.30791703 -0.215103 0.014805447
-0.049147271 -0.215103 0.012071234
-0.036770537 -0.215103 0.012465217
-0.01122272 -0.215103 0.015975431
0.25141692 -0.2082417 0.010957838
0.22926284 -0.193436 0.011868455
-0.32949406 -0.18935896 0.011946053
0.17434075 -0.17592999 0.01676953
0.24896356 -0.17822267 0.01183227
0.2455053 -0.099189259 0.012071216
0.24300872 -0.051973298 0.011464499
0.25244671 -0.041324675 0.010512207
0.25310135 -0.033495642 0.010009909
0.25227386 -0.0096882936 0.01060281
0.2470741 0.002808623 0.012080647
0.24576676 0.034410864 0.012105586
0.24885806 0.04320867 0.0118461
0.25220042 0.061327897 0.010633267
0.2491467 0.10981134 0.011808166
0.24396391 0.11762592 0.011868593
0.24215513 0.1270963 0.011338928
0.24789488 0.16373177 0.011972716
0.24419001 0.18807384 0.011898313
0.24084356 0.20253892 0.010795556
0.23186907 0.22106847 0.014270853
0.22930476 0.2305198 0.015279626
-0.343739 -0.24391207 0.027885403
-0.30133399 -0.246648 0.02827324
-0.16870867 -0.24664801 0.022888022
-0.10439717 -0.246648 0.020401226
0.21609171 -0.24664798 0.028876118
0.28528297 -0.24258709 0.027588977
0.32250616 -0.23467505 0.023143303
0.37197271 -0.22593251 0.020611245
-0.3896699 -0.2186726 0.022489926
-0.33490995 -0.215103 0.023071032
-0.31111398 -0.215103 0.02001974
-0.23489326 -0.215103 0.02225096
-0.19352764 -0.215103 0.026607545
-0.14429434 -0.215103 0.02519995
-0.13744518 -0.215103 0.022250855
-0.078027099 -0.215103 0.0221029
0.1072176 -0.215103 0.024055563
0.15996052 -0.215103 0.027783722
0.40460622 -0.21868345 0.027263064
0.21301199 -0.20543 0.020699123
0.21301199 -0.19348595 0.024258781
0.24174047 -0.193436 0.022680704
-0.39299813 -0.17713873 0.026331563
0.18114065 -0.17592999 0.028213352
0.23573408 -0.17592999 0.021133656
0.23500893 0.21740705 0.024957538
0.22978696 0.23417407 0.02190203
0.2627652 0.23803098 0.023619659
-0.24045649 -0.24664801 0.030738506
-0.19763239 -0.246648 0.039899409
-0.15513629 -0.24526149 0.038384765
-0.14493355 -0.24183924 0.033502601
-0.11891694 -0.243875 0.038877614
-0.056225464 -0.243875 0.036346834
-0.025071204 -0.24664798 0.034321927
0.0025548227 -0.24664798 0.039825279
0.018075168 -0.24664801 0.0387704
0.034403875 -0.243875 0.039529108
0.057794556 -0.246648 0.036485143
0.062746495 -0.24387498 0.035231669
0.11834477 -0.24664801 0.039254837
0.13199714 -0.24664798 0.032297723
0.16424045 -0.24664801 0.037324771
0.18395159 -0.246648 0.037627291
0.20451674 -0.246648 0.039292332
0.21797401 -0.24446771 0.035265326
0.26078904 -0.243875 0.036494434
0.2955122 -0.24041276 0.037150104
-0.30891991 -0.2323564 0.034660999
-0.29229572 -0.23125935 0.036901318
-0.063951939 -0.23438212 0.033502601
-0.023113776 -0.23927629 0.033502601
-0.0045341607 -0.2350556 0.033502601
0.0099044032 -0.2397711 0.033502601
0.13785447 -0.23122141 0.033502601
0.32396209 -0.23613715 0.035376802
0.34536025 -0.23158844 0.037287503
-0.32008436 -0.22535254 0.037970334
-0.29208237 -0.22953013 0.034660999
-0.27924171 -0.22104904 0.034660999
-0.094993897 -0.22130956 0.033502601
-0.070767827 -0.22283989 0.033502601
-0.012478732 -0.22784509 0.033502601
0.067270167 -0.22304647 0.033502601
0.10026981 -0.22081223 0.033502601
0.19240391 -0.22109166 0.033502601
0.34584993 -0.22971267 0.03468645
0.37678069 -0.22402433 0.036165729
-0.31812668 -0.215103 0.030965548
-0.29317957 -0.21523783 0.034660999
-0.24818403 -0.21669206 0.034660999
-0.19339925 -0.21698874 0.033502601
-0.091037937 -0.215103 0.030750578
-0.043016784 -0.215103 0.03263991
0.0079811215 -0.21981011 0.033502601
0.030364677 -0.215103 0.033396758
0.047885627 -0.21652728 0.031905062
0.066084355 -0.2167297 0.033502601
0.1355869 -0.215103 0.032196131
0.17127894 -0.21657544 0.033502601
-0.39153355 -0.2014678 0.037748843
0.21166265 -0.20350888 0.033502601
-0.3906396 -0.19622181 0.035517547
0.19017343 -0.19600403 0.033502601
-0.39339906 -0.18985701 0.039687499
0.161138 -0.18878546 0.032702595
0.2349686 -0.18289104 0.033502601
0.18616152 -0.17633983 0.031942822
0.25766942 -0.1765662 0.032819852
0.25468194 0.21803282 0.035445057
0.23287958 0.23309818 0.038697954
0.23461165 0.24287269 0.031928979
-0.21858446 -0.243875 0.044432223
-0.17346947 -0.246648 0.043785006
-0.16845483 -0.246648 0.047280475
-0.09375193 -0.246648 0.049211197
-0.088882886 -0.246648 0.045835417
-0.047979306 -0.243875 0.045195911
-0.031565297 -0.24664798 0.042035863
-0.01134441 -0.243875 0.042173069
0.0088522658 -0.243875 0.042276759
0.010051366 -0.24664801 0.042023033
0.035466626 -0.243875 0.046193711
0.061280359 -0.246648 0.044297665
0.07014975 -0.243875 0.045797009
0.10632998 -0.24664798 0.046890162
0.13291551 -0.243875 0.042197153
0.24628559 -0.243875 0.041282512
-0.25752926 -0.23864943 0.045977645
0.30249789 -0.23892789 0.04700752
0.32176632 -0.23483235 0.047927022
0.33558306 -0.23189528 0.045970969
0.34030676 -0.23089109 0.043174624
-0.39892024 -0.22289652 0.047826879
-0.33178133 -0.22003096 0.047172099
-0.30342418 -0.22605851 0.040005725
-0.33777034 -0.21967691 0.049852759
0.39208549 -0.21988486 0.04346703
-0.39235848 -0.20117494 0.040902946
0.25669566 0.21201184 0.048825454
0.23266837 0.22895578 0.043287911
-0.18511346 -0.246648 0.053691857
-0.096602917 -0.243875 0.056679904
-0.082712218 -0.24664801 0.05205958
-0.077926919 -0.243875 0.057510465
-0.031389616 -0.246648 0.051869489
-0.025031231 -0.24387498 0.051827744
-0.012178227 -0.24664798 0.055982858
-0.0092367232 -0.24664798 0.050485954
0.012908645 -0.243875 0.050919905
0.035887979 -0.24664798 0.056720983
0.062070355 -0.243875 0.054829922
0.09191829 -0.24664798 0.05829674
0.13958678 -0.246648 0.053944454
0.14453535 -0.246648 0.052617468
0.17811145 -0.243875 0.058735609
0.23703746 -0.24387498 0.053424094
-0.28499532 -0.23281118 0.056197848
-0.25399676 -0.23656473 0.054487858
0.32725915 -0.23366483 0.050224107
-0.40332007 -0.22795577 0.055996899
0.38050765 -0.22411829 0.058496401
-0.39374048 -0.20719361 0.051048674
-0.39713854 -0.19215858 0.053346373
0.23630488 0.22055498 0.054003626
0.2325242 0.23004992 0.052382872
0.25314957 0.24355373 0.053722601
-0.24947383 -0.24036157 0.062321533
-0.23996967 -0.24238172 0.063554503
-0.21981034 -0.24483749 0.061056945
-0.19768432 -0.24664801 0.063405916
-0.18484171 -0.246648 0.065798216
-0.17287427 -0.246648 0.064965397
-0.042658091 -0.246648 0.063751191
-0.022349171 -0.243875 0.068736665
-0.0031722598 -0.243875 0.069571957
0.03504096 -0.24664801 0.061726544
0.079654776 -0.243875 0.064453088
0.08388821 -0.243875 0.061326675
0.12974635 -0.24526149 0.064895496
0.13450284 -0.24572365 0.062846154
0.20292522 -0.246648 0.069544315
0.25444573 -0.243875 0.063584037
0.26263914 -0.243875 0.061314806
0.27908176 -0.245608 0.061051548
0.28365037 -0.24470565 0.063304543
-0.29298002 -0.23111396 0.062794417
-0.27705741 -0.23308069 0.060909942
0.34008187 -0.23093902 0.061256759
-0.40368974 -0.22363119 0.062306885
-0.32421559 -0.22447446 0.069611773
0.37580547 -0.22334528 0.067711882
-0.39668062 -0.20677286 0.062269747
0.26343468 0.22852163 0.068697959
-0.23303123 -0.24243888 0.074007988
-0.21134667 -0.243875 0.078754127
-0.18221146 -0.243875 0.076204441
-0.11670556 -0.246648 0.075542398
-0.027858244 -0.243875 0.074331447
-0.0057335384 -0.243875 0.076256737
0.055672031 -0.246648 0.071857005
0.10923538 -0.243875 0.071251981
0.18993384 -0.243875 0.071855918
0.26857314 -0.243875 0.077629119
0.30487937 -0.24019317 0.071426742
-0.24386913 -0.23871769 0.077414513
-0.3222698 -0.2220524 0.076055489
-0.28988054 -0.22893709 0.079779111
0.23956639 0.21781845 0.073421493
0.26030409 0.22485985 0.079902165
0.23704608 0.24083307 0.079192609
0.25262934 0.24376938 0.077178739
-0.18854558 -0.24664798 0.089831851
-0.14019404 -0.243875 0.083556168
-0.084793344 -0.246648 0.084462769
-0.064793453 -0.24526149 0.083025247
-0.053509817 -0.243875 0.087013051
-0.04654894 -0.243875 0.080220997
-0.033368342 -0.246648 0.089171886
-0.022563875 -0.243875 0.080270834
-0.0075961417 -0.246648 0.084999837
0.0026406236 -0.243875 0.084810987
0.013536381 -0.24526149 0.084628142
0.03647304 -0.24572366 0.08793243
0.058523372 -0.243875 0.086209252
0.13913606 -0.243875 0.084773988
0.1569837 -0.24664801 0.080053389
0.17954551 -0.243875 0.085740618
0.18393503 -0.24664801 0.085952826
0.20904261 -0.243875 0.082730412
0.25821629 -0.245608 0.082999066
0.28555429 -0.24341519 0.084699512
-0.27691114 -0.23311175 0.083175801
0.30142438 -0.23915607 0.085935399
0.32370192 -0.23619241 0.089962333
0.24700855 0.2143499 0.087780282
0.23272893 0.22248419 0.086352468
0.23723584 0.24084517 0.082239576
0.24410936 0.24433088 0.08125893
0.25174332 0.24413668 0.081624225
-0.22334459 -0.24591568 0.091604695
-0.15546389 -0.24526151 0.094011649
-0.080545977 -0.24664801 0.096140243
-0.020583382 -0.24664801 0.095495932
-0.017050762 -0.24664798 0.098025918
0.0049025714 -0.243875 0.090007506
0.022877425 -0.243875 0.094971143
0.051079083 -0.24664798 0.090140954
0.065948687 -0.24664801 0.097392909
0.085551284 -0.24664801 0.093051255
0.092979029 -0.24526149 0.096441574
0.12071795 -0.246648 0.090059511
0.13578638 -0.243875 0.093789302
0.16547315 -0.24387498 0.099952951
0.20355716 -0.24387501 0.090278186
0.25441319 -0.243875 0.093891054
0.26694289 -0.243875 0.095167652
0.28659925 -0.24230729 0.092056036
-0.2817893 -0.23349239 0.096605137
-0.27930105 -0.23402131 0.093117036
0.30792674 -0.23954543 0.094013937
0.32371092 -0.23441896 0.097528242
0.24496232 0.2160846 0.096742801
0.23602878 0.22091478 0.099765874
0.2615242 0.22119364 0.099389017
0.23310891 0.23424916 0.099122152
-0.24381191 -0.24156465 0.10659503
-0.21766719 -0.246648 0.1013484
-0.11820301 -0.24664798 0.1061312
-0.078628972 -0.24664801 0.10389765
0.030138839 -0.246648 0.10915855
0.062330514 -0.243875 0.10788032
0.084552735 -0.24526151 0.10397498
0.11720511 -0.243875 0.10171703
0.12318689 -0.246648 0.10681504
0.26684582 -0.245608 0.10554591
0.27148521 -0.243875 0.10930828
-0.26706773 -0.23378669 0.10142696
0.33585721 -0.23183724 0.10846257
0.34855857 -0.22913729 0.10094237
0.3541097 -0.22795725 0.10432785
0.23453206 0.22286533 0.10208721
0.24780744 0.24460071 0.10685734
-0.17799644 -0.243875 0.11402002
-0.1469809 -0.243875 0.11882155
-0.11232726 -0.246648 0.11588353
-0.087275684 -0.243875 0.11020249
-0.075339518 -0.243875 0.11687646
-0.041774064 -0.243875 0.11117046
-0.035417363 -0.243875 0.11018659
0.0033170059 -0.24664801 0.11435179
0.024989286 -0.24479933 0.11399236
0.060584273 -0.243875 0.11499341
0.076718748 -0.246648 0.11271168
0.1198253 -0.24664801 0.11078717
0.12959385 -0.24664801 0.11681338
0.15493596 -0.246648 0.11535603
0.17764767 -0.246648 0.11676791
0.18193951 -0.24526149 0.11390272
0.28570616 -0.2433829 0.11157776
-0.27742434 -0.23442 0.1153162
-0.25252226 -0.23687834 0.1108936
0.23384389 0.2244264 0.11517754
0.23315835 0.23436859 0.11149248
0.26195043 0.23517489 0.11705503
-0.23267667 -0.24251425 0.12384719
-0.21785502 -0.246648 0.12260368
-0.16710688 -0.246648 0.12672402
-0.145138 -0.24526151 0.12651598
-0.061688624 -0.243875 0.12194893
-0.056046098 -0.243875 0.12140159
-0.043538429 -0.24526149 0.12375356
-0.031617083 -0.243875 0.12177356
0.017333992 -0.243875 0.12691769
0.04619411 -0.24664801 0.12275809
0.1326445 -0.246648 0.1251591
0.16756986 -0.243875 0.12652895
0.1814882 -0.246648 0.12734045
-0.26283357 -0.23468661 0.12307124
-0.24783845 -0.23787388 0.12782408
0.30651149 -0.23984626 0.12839946
0.25264299 0.21363372 0.12591541
0.23842749 0.24175957 0.12540993
-0.18041869 -0.24633734 0.13203999
-0.16823553 -0.243875 0.13158318
-0.15782157 -0.243875 0.1313121
-0.13811909 -0.24442618 0.13203999
-0.074548066 -0.24537331 0.13203999
0.12751222 -0.24462879 0.13203999
0.14646094 -0.24428952 0.13203999
0.25534177 0.21853909 0.13112327
0.26008406 0.23832241 0.13357037
0.25602835 0.24214777 0.13924816
0.23216546 0.21829738 0.14595073
0.24032143 0.21108855 0.14757407
0.25733802 0.21625377 0.14481942
0.23344263 0.22539563 0.1432796
0.25980094 0.2236453 0.14150284
0.26294413 0.22645804 0.14663607
0.23345451 0.23508403 0.14610183
0.24278894 0.23184103 0.147265
0.26255092 0.23609108 0.14501412
0.24467359 0.24275725 0.147265
0.25280163 0.24369796 0.14269757
