# .PCD v0.7 - Point Cloud Data file format
VERSION 0.7
FIELDS x y z
SIZE 4 4 4
TYPE F F F
COUNT 1 1 1
WIDTH 815
HEIGHT 1
VIEWPOINT 0 0 0 1 0 0 0
POINTS 815
DATA ascii
-0.13685451 0.017507158 -0.11003041
-0.078965709 0.017784785 -0.1123732
-0.029224331 0.016378839 -0.11147769
-0.0040488462 0.018110976 -0.11018461
0.00550556 0.017701972 -0.11240369
0.13113391 0.017483957 -0.111046
-0.30325365 0.028043536 -0.11105791
-0.27633879 0.025082534 -0.11025741
-0.25528455 0.024002504 -0.11172183
0.37065339 0.03138797 -0.11125541
-0.15922868 0.019852871 -0.10824944
-0.12860179 0.016764393 -0.10519207
-0.050070431 0.017750915 -0.10951397
-0.045611918 0.015137446 -0.10158691
0.017771009 0.015449565 -0.10246584
0.059631959 0.017287094 -0.10475329
0.068086639 0.01539547 -0.10233743
0.083311751 0.017634856 -0.10621639
0.14332573 0.01872668 -0.10370602
0.15686174 0.017865662 -0.1063713
-0.29364589 0.0259025 -0.10988374
-0.27841842 0.026166826 -0.10383639
-0.22422394 0.021347957 -0.10843427
0.18513292 0.020667668 -0.10618944
0.2037411 0.021337328 -0.10322111
0.24390134 0.02434697 -0.10842282
0.25756916 0.023800306 -0.10511943
-0.38844335 0.036220796 -0.10815021
-0.36164808 0.030263521 -0.10335431
0.35765958 0.030055635 -0.10238238
0.37055737 0.031051058 -0.10797362
0.39752775 0.040267352 -0.10071438
0.40514106 0.042575601 -0.10157148
-0.2111817 0.018687814 -0.090580814
-0.19696546 0.019220233 -0.094872728
-0.17538762 0.016936183 -0.091439702
-0.15736815 0.016761953 -0.09642458
-0.13952959 0.01712415 -0.090210594
-0.11586141 0.015092697 -0.092887245
-0.097507492 0.014435282 -0.090364888
-0.079808027 0.01682887 -0.099318579
-0.058800511 0.016284138 -0.095930293
0.019051453 0.016459696 -0.096586317
0.073054872 0.014846392 -0.097135387
0.10633328 0.015172221 -0.095654078
0.16503492 0.017459709 -0.092211261
0.20526657 0.018973645 -0.096471958
0.23309749 0.019937374 -0.090356298
-0.32982051 0.027972855 -0.092261165
-0.30188876 0.024675362 -0.09281002
-0.29795367 0.026137626 -0.093308501
-0.28458267 0.024405293 -0.099948689
-0.27274719 0.023561481 -0.090650111
-0.25542447 0.022472266 -0.091881678
-0.24213566 0.02307885 -0.098277837
-0.23802316 0.022466838 -0.095386624
-0.21722645 0.02137883 -0.097139157
0.2158225 0.020781124 -0.092299432
0.2373704 0.022832144 -0.099023238
0.25541213 0.02338291 -0.092652731
0.27645802 0.025140738 -0.095766857
0.29268074 0.024207512 -0.093990661
0.30009753 0.026521105 -0.095713437
0.31246668 0.025799939 -0.097817034
0.32334623 0.027651545 -0.092685238
-0.38835397 0.035752937 -0.096778259
-0.37731713 0.034250136 -0.09657269
0.37321371 0.032152381 -0.094495334
0.39327615 0.038708922 -0.092949435
-0.40049767 0.04084678 -0.092974722
0.40341672 0.041015804 -0.096724823
-0.23213711 0.019481046 -0.086134061
-0.17041346 0.015714617 -0.080281481
-0.16285224 0.015412705 -0.080169179
-0.15331174 0.01524868 -0.082377963
-0.077189177 0.015356474 -0.084885284
-0.034936287 0.015471226 -0.087894097
-0.026108883 0.015214235 -0.084369913
0.017190423 0.015438925 -0.086059868
0.023917047 0.013327423 -0.081989355
0.074150458 0.013343078 -0.081569076
0.093952321 0.015236632 -0.087772451
0.11211324 0.015502594 -0.080019832
0.14264071 0.015106456 -0.085295863
0.15083066 0.015228436 -0.083195664
0.16010331 0.017261341 -0.083101012
0.17622747 0.017636651 -0.080430664
0.19508907 0.018817583 -0.083154239
0.21095487 0.019838143 -0.084929295
-0.33946148 0.026741019 -0.088594057
-0.31077915 0.025096416 -0.089771919
-0.28066647 0.024234781 -0.082713827
-0.26002714 0.021268852 -0.084521487
-0.23533425 0.021137951 -0.08343371
0.21608838 0.020497162 -0.089066766
0.22734691 0.021091051 -0.088914521
0.24845153 0.020102199 -0.080589488
0.25045693 0.022215663 -0.083733216
0.32112429 0.025268015 -0.080837935
0.34418213 0.026987204 -0.08760336
0.35777974 0.027831279 -0.08914075
0.36291173 0.029867101 -0.089519285
0.38499558 0.03429012 -0.082298517
0.41344023 0.043419756 -0.08196637
0.42640024 0.048074268 -0.080184653
-0.25134638 0.01972064 -0.074117668
-0.19323745 0.016026327 -0.07149753
-0.12163853 0.015610043 -0.078795984
-0.10650957 0.013209101 -0.074818723
-0.07501433 0.013146197 -0.079363517
-0.040374205 0.012569621 -0.075152554
-0.034588709 0.014443112 -0.076721646
0.0080029601 0.014223758 -0.078207232
0.013665648 0.014521636 -0.075825021
0.037487522 0.013503667 -0.075541571
0.043941267 0.013630874 -0.077826411
0.073856235 0.014505416 -0.075931132
0.081965283 0.013190526 -0.079263233
0.094057463 0.012862373 -0.074001148
0.10708047 0.013947902 -0.073194705
0.17726071 0.015339789 -0.072936758
0.20361018 0.017861765 -0.07693556
0.21473095 0.017347448 -0.073735386
0.22894894 0.018085215 -0.072998926
0.24239071 0.018865954 -0.070870504
-0.36115208 0.029192526 -0.072324008
-0.35121191 0.026887191 -0.075090751
-0.30873007 0.025718126 -0.077061713
0.2475661 0.021337548 -0.076109141
0.29628283 0.024567667 -0.072572559
0.32067949 0.024597391 -0.071410082
0.34459427 0.028415427 -0.078524821
0.35970905 0.029091299 -0.072398558
-0.39900541 0.038218245 -0.078509837
-0.38531518 0.035002939 -0.075231194
-0.37206596 0.03200084 -0.073557958
-0.40817231 0.042423572 -0.07359951
0.42711845 0.048198119 -0.077910475
0.4394128 0.0517038 -0.070923761
0.45291704 0.056132086 -0.072758324
-0.22995076 0.017329395 -0.061487902
-0.15847839 0.016077228 -0.069836363
-0.069253825 0.012234145 -0.068566307
-0.049147815 0.013569796 -0.065869004
-0.039954938 0.013748963 -0.068162911
-0.028043851 0.011989154 -0.065824881
-0.018830508 0.013612482 -0.063990317
0.02256852 0.01194638 -0.064642578
0.043113671 0.013812218 -0.069384165
0.11596051 0.013498565 -0.06406413
0.13644308 0.014875091 -0.06491068
0.18891272 0.017018098 -0.065099083
-0.35518855 0.028597459 -0.06523478
-0.30510157 0.024596531 -0.061223269
-0.29639366 0.024155879 -0.064959787
-0.28653345 0.022577848 -0.06588544
-0.26293275 0.021837633 -0.068935484
0.27562952 0.022321116 -0.062939472
0.28007135 0.021476608 -0.069603316
0.31677729 0.025094066 -0.068613201
0.34780431 0.026330395 -0.062897705
-0.40049121 0.039840147 -0.061187588
0.37404335 0.032367919 -0.065483123
-0.41593659 0.042828158 -0.067968786
-0.40776679 0.040499903 -0.06979198
0.43895516 0.049513109 -0.062524512
-0.15189269 0.015071506 -0.059354465
-0.14548111 0.01377707 -0.055979855
-0.12692615 0.013527724 -0.056881577
-0.10037623 0.011662802 -0.054866977
-0.095641576 0.011514682 -0.054113455
-0.077362068 0.013067806 -0.055716123
-0.065890774 0.012840668 -0.053006258
-0.0214686 0.013290429 -0.059784036
0.0023589816 0.011260556 -0.05160246
0.015890837 0.011328105 -0.054962695
0.042580556 0.010953128 -0.051661629
0.068008438 0.011314251 -0.055762757
0.11458003 0.012079878 -0.056465965
0.1259785 0.013892622 -0.053964105
0.18855633 0.015296586 -0.051882714
0.19713831 0.014942213 -0.052356523
0.20168951 0.016987586 -0.054612942
0.21066134 0.015808374 -0.055011548
0.239316 0.017515745 -0.054565575
0.24888277 0.017950064 -0.050072774
0.25574714 0.018842638 -0.057511695
-0.33313036 0.024786212 -0.0537761
-0.27556983 0.021821585 -0.05572331
-0.26623571 0.021120055 -0.05557017
0.27672231 0.020131735 -0.053525168
0.28003445 0.020488176 -0.05496588
0.29747298 0.023609506 -0.056098022
0.30403948 0.022459906 -0.055143043
0.3270562 0.025011035 -0.057640705
0.33698753 0.025270063 -0.057913236
0.35570332 0.028299786 -0.053407345
-0.38617939 0.035513408 -0.051346857
0.3768943 0.033022411 -0.058828175
0.39566821 0.03661672 -0.05524046
0.40576398 0.04120307 -0.054755561
0.41470829 0.042066388 -0.053363062
0.42518371 0.046783596 -0.052736428
-0.46088091 0.055985991 -0.050392698
-0.43947381 0.05119627 -0.05810573
0.45802796 0.055002 -0.050459672
-0.27825314 0.019670092 -0.041860484
-0.25474137 0.019695476 -0.043329701
-0.24524957 0.019221148 -0.046937287
-0.21532294 0.017179329 -0.043976456
-0.20591466 0.016168999 -0.045130339
-0.1981875 0.014833141 -0.049118388
-0.18302348 0.013735304 -0.043668143
-0.1778772 0.013646617 -0.046124469
-0.16175711 0.013035094 -0.04632137
-0.12822656 0.011781251 -0.044592522
-0.11826524 0.011381494 -0.041285403
-0.076796338 0.010599593 -0.040475592
-0.058427133 0.012230215 -0.0422047
0.0086801061 0.012698784 -0.047757898
0.037883658 0.012258956 -0.043566115
0.049736403 0.012302121 -0.044917129
0.058843434 0.012420709 -0.045860138
0.079668157 0.011042722 -0.048699733
0.085892305 0.011070591 -0.048305623
0.12106143 0.013263567 -0.043892786
0.14525512 0.014089495 -0.046454601
0.15628138 0.013963375 -0.043907162
0.19992258 0.014888706 -0.04837418
0.21797049 0.015472369 -0.040737502
0.259038 0.018336391 -0.043844081
0.27108124 0.019363355 -0.047570102
-0.34888873 0.025996694 -0.049603742
-0.30372715 0.023851719 -0.046637446
0.27504954 0.0212458 -0.045289386
0.31672686 0.023950487 -0.042545848
0.33411175 0.026378585 -0.043745808
0.34065306 0.025330465 -0.04981387
0.36521101 0.027816787 -0.049028363
-0.4079245 0.039871693 -0.041678417
-0.37720492 0.03279499 -0.042072814
0.39134431 0.035152696 -0.042935625
0.41207719 0.04107026 -0.042065371
-0.46262726 0.05611185 -0.042330973
0.44506967 0.052528039 -0.047900852
0.46563336 0.05756801 -0.045781791
-0.27649677 0.019077951 -0.030092387
-0.25636727 0.017768066 -0.035646632
-0.24834199 0.017194562 -0.03500171
-0.18622471 0.013495405 -0.034379035
-0.17883135 0.013172257 -0.035269227
-0.13005966 0.013134206 -0.037197974
-0.1061217 0.012510622 -0.034925938
-0.097381324 0.010487711 -0.030477293
-0.084918045 0.012240675 -0.03841123
-0.041307878 0.010362408 -0.03992898
-0.020927552 0.010488439 -0.039317913
0.0079773339 0.010458242 -0.036330089
0.026095279 0.01206138 -0.037926931
0.061283715 0.010098772 -0.030087765
0.083482347 0.011081821 -0.037749033
0.10616257 0.010807797 -0.034284525
0.12420416 0.011241151 -0.03480415
0.17839079 0.013280258 -0.038580015
0.18585433 0.013545332 -0.036656361
0.19034494 0.01537448 -0.033483051
0.24138197 0.016808517 -0.037947349
0.26154435 0.01984865 -0.0368632
0.27380353 0.018923283 -0.032265972
-0.37337762 0.029921172 -0.035671569
-0.3515977 0.027558407 -0.032048944
-0.33880401 0.026453167 -0.034605455
-0.31497586 0.022700196 -0.03759148
0.29360074 0.021687252 -0.038297705
0.30467409 0.021769259 -0.036363304
0.3536655 0.027780876 -0.035915885
0.36875293 0.028643591 -0.038408324
0.38699007 0.033771317 -0.033795536
0.39971289 0.037441544 -0.037111808
0.40301958 0.038373541 -0.036311001
-0.42507929 0.04640463 -0.037377574
-0.41719323 0.042464271 -0.038119599
0.44175509 0.049572337 -0.03793861
0.4439379 0.050167844 -0.036156204
0.46719557 0.059232123 -0.039254732
0.47328362 0.060834005 -0.035648532
-0.077026859 0.0099952025 -0.022753172
-0.046490178 0.0096965032 -0.02069243
-0.27532214 0.018708095 -0.021593334
-0.26652202 0.018982362 -0.02480668
-0.24410585 0.016559133 -0.024001855
-0.1850486 0.013119727 -0.024212025
-0.1565318 0.013569208 -0.021353729
-0.14413431 0.011386649 -0.020686859
-0.11334313 0.012301141 -0.022662003
-0.094908558 0.011935556 -0.024645893
-0.013543763 0.010198642 -0.029275458
0.0086791757 0.011808392 -0.02563104
0.0155791 0.011823231 -0.027848898
0.026246877 0.011730178 -0.027500182
0.048100051 0.011562346 -0.026221611
0.072097391 0.011621814 -0.02212503
0.098083168 0.010461105 -0.029081069
0.13693152 0.011116242 -0.020925354
0.15553302 0.011946714 -0.02461366
0.20069943 0.013936821 -0.023298014
0.21063754 0.016102348 -0.021501105
0.23542576 0.016834222 -0.025167841
0.26829427 0.019835476 -0.021157576
-0.34481898 0.026259402 -0.021133738
-0.32162994 0.024654342 -0.020594094
-0.30080464 0.021219313 -0.026438255
-0.28791913 0.021735633 -0.027322108
0.30796456 0.023543889 -0.025691368
0.34434748 0.025705604 -0.025220634
0.35432538 0.026025001 -0.023159925
-0.38945332 0.036024544 -0.021468733
0.38373104 0.034458101 -0.027167391
-0.43249291 0.046655737 -0.025933182
0.41350469 0.041220166 -0.024572385
-0.45278975 0.052608453 -0.02973819
0.44464585 0.051826064 -0.02553992
-0.059314486 0.0097017894 -0.015488237
-0.028687509 0.0097478144 -0.017721644
0.022169737 0.0098034386 -0.018249605
-0.27852976 0.018836277 -0.010023487
-0.23162098 0.01633285 -0.01487271
-0.2290453 0.015345367 -0.018138938
-0.19056374 0.013182582 -0.012222563
-0.17467612 0.014166733 -0.016220475
-0.15522167 0.011697938 -0.013249828
-0.13867396 0.011046121 -0.011903567
-0.11218666 0.011250041 -0.012729065
-0.091062829 0.01169622 -0.019748801
-0.014567882 0.011553725 -0.018817153
-0.0061832406 0.011566258 -0.013911851
0.072842099 0.011506612 -0.017110541
0.10263935 0.010236241 -0.017523883
0.1141199 0.010495817 -0.016931146
0.14823943 0.013175748 -0.018953381
0.16362192 0.01205999 -0.016982086
0.26002574 0.017479725 -0.016493095
0.28594464 0.019541329 -0.01072748
-0.31904799 0.024329517 -0.010605414
-0.29907885 0.022500152 -0.016964026
-0.28333893 0.021004982 -0.013161627
0.30406117 0.022966253 -0.018220941
0.33082265 0.023740558 -0.011655454
0.3410354 0.024685822 -0.011233209
-0.39956683 0.038841669 -0.012546774
-0.37221068 0.031080952 -0.014194437
0.37492147 0.030172901 -0.016018899
0.38666439 0.035210535 -0.01937253
0.40843135 0.039670892 -0.011339507
-0.43821132 0.049865633 -0.01726306
0.42521793 0.046127446 -0.012354447
0.43091524 0.04605861 -0.011647699
-0.45859453 0.05393669 -0.01121072
0.44652614 0.050506894 -0.01328408
0.45174426 0.052062929 -0.017497469
0.47550285 0.059747204 -0.013163912
-0.48046541 0.063437335 -0.016967647
-0.067391612 0.0096577788 -0.0051081865
-0.034587551 0.0095889959 -0.0066530863
-0.0076385988 0.0097549399 -0.0025469498
0.071507871 0.0096501661 -0.0012516765
-0.27395001 0.018353229 -0.0049342462
-0.20366488 0.013820149 -0.0053845742
-0.16110902 0.011883029 -0.0091493865
-0.11596009 0.011292827 -0.0083770202
-0.075596124 0.011447336 -0.0092365099
0.023029815 0.011351245 -0.0055958247
0.052317783 0.011196917 -0.0023152088
0.080789782 0.011428233 -0.0034755557
0.11317813 0.012006072 -0.0021005981
0.1264409 0.010680642 -0.0071233129
0.13418044 0.011663329 -0.0032537719
0.16706401 0.012038045 -0.001851788
0.18923002 0.013070762 -0.0083292685
0.19657449 0.015080554 -0.001392891
0.20758374 0.014589228 -0.0050034248
0.22511645 0.015861597 -0.0093985442
0.23929244 0.015921112 -0.004856105
-0.34481263 0.026701346 -0.0057913377
-0.30256265 0.022778042 -0.0096202623
-0.29800847 0.020608617 -0.0040654889
0.29086018 0.021585573 -0.000739615
0.36831817 0.029949598 -0.0066348352
-0.40321621 0.038156219 -0.0019454218
0.38391793 0.032676958 -0.0016771363
0.40350783 0.038232327 -6.7175621e-05
-0.43054551 0.045924507 -0.0044192639
0.42649347 0.045606963 -0.0020395406
-0.45470715 0.052765757 -8.127211e-06
0.45796412 0.053716429 -0.005065274
0.4673436 0.056453694 -0.0032928954
0.47169816 0.058087178 -0.00033810493
-0.071872026 0.0097405976 0.0098068686
-0.030030044 0.0095850704 0.0028444119
0.0084816311 0.0097619519 0.0038675677
-0.28328475 0.019196672 0.0015006395
-0.2783249 0.018786276 0.0070180506
-0.26042655 0.019035283 0.001231755
-0.24137437 0.017741553 0.0040686787
-0.21311066 0.014288066 0.0012604226
-0.18291098 0.012672193 0.0027201613
-0.11068392 0.010299198 0.0054746242
-0.083504669 0.011466847 0.0052007241
-0.052677777 0.01121174 0.0034939616
-0.00086095126 0.011544991 0.0078275595
0.030467756 0.011244792 0.00080504001
0.042383574 0.011160493 0.0015430365
0.092480481 0.011542076 0.0035534825
0.14752299 0.013017628 0.0066732755
0.15555355 0.011605334 0.002939095
0.16494299 0.013623405 0.00021129064
0.20642465 0.013935477 0.002087801
0.22884178 0.016920596 0.008875668
0.23137176 0.015328443 0.00068045943
0.24289003 0.016142573 0.0020830606
0.25023761 0.016657136 0.0025105232
0.28512436 0.019434009 0.0077810986
-0.35052356 0.027239166 0.0082744258
-0.33845991 0.025249995 0.0033075185
-0.32415193 0.02474211 0.00299186
-0.31832254 0.024230205 0.0065785851
0.32173318 0.024574269 0.0093868403
0.34694546 0.025208613 0.0039247856
-0.37082797 0.030669924 0.0089520188
0.38528341 0.033060651 0.0005193089
0.40947747 0.039928339 0.00047316038
-0.43856266 0.049907327 0.0094366455
-0.42336226 0.043886915 0.0048001036
-0.4126021 0.042502642 0.0014038798
0.42942116 0.046433136 0.00079086248
0.46973956 0.057394143 0.0071412441
0.47955713 0.061340079 0.0061365454
-0.014754687 0.0098027494 0.012604577
0.034126792 0.0096426345 0.011540232
0.049429897 0.0096208276 0.015022894
0.079530299 0.0098291347 0.012705107
0.087743051 0.009889015 0.012361242
-0.26102552 0.019177623 0.011074157
-0.24412811 0.016365746 0.015505069
-0.18334135 0.014526831 0.016833572
-0.1753055 0.012527478 0.018643757
-0.12081635 0.010654319 0.01727988
-0.025441552 0.011402039 0.012376158
-0.0024063033 0.011567576 0.011193252
0.017223062 0.011467687 0.012608793
0.021800477 0.011446067 0.013946541
0.038561262 0.011356776 0.017857021
0.073641852 0.011524199 0.018222766
0.10364363 0.010258233 0.01740212
0.11377253 0.012172258 0.016977064
0.17737554 0.014291339 0.01863927
0.20607883 0.015764339 0.018081134
0.28131178 0.019107873 0.010978775
-0.33264601 0.025601756 0.014070483
-0.31924361 0.024351396 0.011705918
-0.29233068 0.021012582 0.014352178
-0.28185686 0.020854749 0.012113577
0.29802346 0.020723099 0.018359624
0.3002418 0.022600828 0.014872404
0.32355717 0.024766911 0.016312888
0.34154963 0.024753591 0.017094603
0.35420126 0.02758939 0.011014432
0.37082309 0.028994063 0.011512976
-0.40073892 0.03748221 0.010169758
0.37706226 0.032444473 0.010071828
0.39436579 0.035680346 0.01221105
0.42320722 0.04555209 0.011186103
0.43749523 0.049680844 0.018912517
-0.4409281 0.050648481 0.017922752
-0.48080114 0.062834807 0.014346107
0.043323524 0.0098593868 0.025703736
0.057434961 0.0099734031 0.026964143
-0.25011986 0.017044567 0.026211396
-0.20613088 0.015983228 0.025546949
-0.1770688 0.014480814 0.025251633
-0.16658834 0.014021313 0.023448406
-0.15786722 0.013862697 0.029234953
-0.14605077 0.01169943 0.028468134
-0.081611067 0.011018299 0.027501866
-0.076360479 0.011811098 0.027218403
-0.063769318 0.011613039 0.023933033
-0.033360198 0.010036448 0.028967507
-0.028699655 0.010025417 0.027435401
-0.0084512141 0.010171065 0.027094111
0.016596846 0.011709794 0.024411114
0.074496046 0.01082087 0.022857789
0.14446899 0.012369339 0.02484791
0.15830608 0.013712657 0.023797322
0.1945546 0.015469197 0.029164243
0.20571437 0.015825406 0.021139527
0.2271291 0.016185766 0.022248106
0.24233988 0.018061072 0.022066835
0.25386912 0.017421208 0.029997993
0.26078942 0.017688718 0.023060543
-0.3527658 0.027612465 0.027240086
-0.33591384 0.026054684 0.023077022
-0.32279918 0.024748176 0.02011944
-0.30726045 0.021854606 0.027636059
-0.29881236 0.022766476 0.028006477
0.27254564 0.020233173 0.024499821
0.31334311 0.022295676 0.023635048
0.33058453 0.025672374 0.029342543
0.34775674 0.025498364 0.028458618
0.35314673 0.027650543 0.027669016
0.3659651 0.029427234 0.028833617
-0.3759754 0.032273196 0.029054906
0.37843806 0.031244442 0.024685754
0.38669398 0.035271827 0.024465334
-0.42722642 0.045158915 0.026666183
-0.46692359 0.058365114 0.021943951
-0.44614619 0.050512988 0.021390973
0.45410669 0.0546268 0.027564991
0.47088927 0.058230229 0.022212792
0.47871405 0.061932269 0.02784547
-0.27322266 0.019082205 0.039068703
-0.25421917 0.019179376 0.031624455
-0.23361553 0.017709475 0.030343091
-0.22728422 0.01741587 0.035004761
-0.21490029 0.015085991 0.035751298
-0.17337622 0.014760599 0.038376987
-0.1550259 0.012318293 0.037352793
-0.14145008 0.013442101 0.036154296
-0.090583213 0.010334273 0.030392658
-0.072315104 0.010361716 0.035878558
-0.055663582 0.011790498 0.031751491
-0.026303587 0.011936918 0.034248412
-0.017920423 0.011998342 0.034140866
0.0068361294 0.010350472 0.032533891
0.045952834 0.011678549 0.03054641
0.055752084 0.01174337 0.030193351
0.093657933 0.010509994 0.033886291
0.11429236 0.01100076 0.034443505
0.13879509 0.011584579 0.033839926
0.14613134 0.012715617 0.034038931
0.16342191 0.013170176 0.035974849
0.18915656 0.013559472 0.031308632
0.20940287 0.014711666 0.033227645
0.2114937 0.016477313 0.032207247
0.24494174 0.018516064 0.03100428
0.26492852 0.018237557 0.031574823
0.27631062 0.019094892 0.031160373
-0.33469829 0.026087362 0.034340579
-0.28397143 0.021704469 0.038830254
0.28588057 0.021684712 0.031822108
0.30435073 0.021799356 0.038354993
0.32463637 0.024628336 0.033560354
0.33198476 0.024158984 0.033871278
0.34877902 0.027465403 0.039374504
0.39268929 0.037055239 0.031910446
0.40217394 0.038083375 0.032870032
-0.43556127 0.047637023 0.031877514
-0.41215509 0.042722352 0.039191302
0.43688121 0.048066717 0.034350995
-0.46009398 0.05488766 0.032520905
-0.45022136 0.051996462 0.035630397
0.44770509 0.052816659 0.030459672
0.47799623 0.062167544 0.030824043
-0.17848095 0.015507872 0.049131066
-0.16506194 0.015023606 0.049781602
-0.1556593 0.014584642 0.048290737
-0.13329279 0.013810433 0.049049869
-0.12018886 0.011589229 0.044474438
-0.091990635 0.010829102 0.042369526
-0.088254496 0.010950467 0.045602359
-0.07086093 0.012314825 0.041978866
0.0068314672 0.011633434 0.043110594
0.035653025 0.011517705 0.045196176
0.0884749 0.010957463 0.045705751
0.11166937 0.011660781 0.049722254
0.14881116 0.0132511 0.043843836
0.18435684 0.014059238 0.04858987
0.21730992 0.015710594 0.046087291
0.22716281 0.015949871 0.040368162
-0.3546392 0.026341975 0.042425871
-0.32607332 0.025170431 0.045659501
-0.30724439 0.023034003 0.041028928
-0.28566146 0.020236492 0.04012198
-0.27308485 0.021038909 0.044642575
0.262541 0.020236 0.043310024
0.3023842 0.02377934 0.047544342
0.34299839 0.027131822 0.045527451
0.37319589 0.029950738 0.040920094
-0.40220147 0.038326636 0.04691615
-0.36762547 0.030035572 0.040117402
0.37059507 0.030943401 0.043792389
0.38428372 0.034907717 0.047640324
0.39733502 0.037702531 0.042745709
0.4003782 0.03946539 0.04558152
0.42563051 0.046674401 0.042862631
0.43933478 0.049117394 0.047689915
-0.46369153 0.056446299 0.042048231
-0.4457252 0.052737068 0.048265651
0.43903923 0.050692592 0.046889432
0.46392661 0.058345661 0.044228181
-0.24369955 0.019519806 0.054430343
-0.23224491 0.01704004 0.054864243
-0.20145473 0.017252088 0.058916971
-0.18655337 0.0162462 0.056096997
-0.14066431 0.013538698 0.055457309
-0.13691746 0.01441562 0.05825356
-0.12877856 0.012247401 0.053449359
-0.11393809 0.01179928 0.051403183
-0.10253778 0.013492399 0.056571238
-0.098825075 0.013098245 0.050717354
-0.078901611 0.012898936 0.052182913
-0.043363094 0.012692546 0.052861042
-0.021369506 0.012954207 0.054661036
-0.01645763 0.011333872 0.055160742
-0.0080717094 0.011582133 0.058002144
0.0058006253 0.011640081 0.05856498
0.025977097 0.013154991 0.058380358
0.040845361 0.011122666 0.054712147
0.075012453 0.013144068 0.057154652
0.10056469 0.013246629 0.052830562
0.15827072 0.015202919 0.057756472
0.17169142 0.015501514 0.054122187
0.1851196 0.014429921 0.055027228
0.19976895 0.015043408 0.051557735
0.23569316 0.017998584 0.052463263
0.24052259 0.017852396 0.05854423
0.25917989 0.018889431 0.054456331
-0.35861927 0.026957886 0.056901999
-0.34943113 0.026050515 0.050173007
-0.33203429 0.02633079 0.050840504
-0.32826132 0.024477724 0.056766558
-0.30389625 0.024377989 0.059544079
-0.26838982 0.021002471 0.050351031
-0.25495458 0.020299375 0.054837883
0.32401589 0.025888611 0.057776723
0.34865522 0.026318256 0.059846807
-0.38494822 0.033631239 0.058613397
0.37928867 0.033629075 0.055624869
-0.43783379 0.049032714 0.058498487
-0.42163181 0.044166952 0.056652807
-0.41270971 0.042621106 0.053722814
0.43466589 0.049593456 0.053432185
-0.45474696 0.055688847 0.05172646
0.45539159 0.056195468 0.057070453
-0.24364108 0.018597703 0.065918587
-0.23761784 0.019803761 0.065086037
-0.18137501 0.015720131 0.064285204
-0.13477059 0.012870228 0.060973234
-0.099680759 0.014004732 0.064635277
-0.074858129 0.014047476 0.069765717
-0.052412249 0.012195133 0.069831058
-0.038802814 0.013184704 0.060172744
-0.0035843921 0.013046839 0.062290866
0.083140314 0.012237133 0.067114115
0.10716441 0.013239971 0.063297108
0.13490915 0.0131702 0.06486772
0.23098093 0.019147562 0.062360041
-0.36088103 0.028936397 0.062412106
-0.35524487 0.028605334 0.065396056
-0.34260023 0.027790627 0.069077745
-0.26687682 0.020143544 0.064976186
0.25788558 0.021242084 0.06551791
0.26177394 0.021170655 0.060758702
0.2876932 0.023469493 0.065262005
0.36314633 0.027550206 0.064465322
-0.39432123 0.038237371 0.068393223
-0.38771474 0.034571692 0.064705297
0.38948268 0.035102189 0.065717816
0.3970733 0.039061893 0.069598578
0.40590036 0.03969384 0.060233288
-0.43323946 0.049578115 0.065359667
-0.41517729 0.044141471 0.062765993
-0.40741074 0.041875556 0.062550627
0.42044944 0.045873567 0.069054149
-0.44818205 0.054295149 0.067303166
-0.20429234 0.017963922 0.074322499
-0.18515909 0.015613544 0.071824603
-0.17983106 0.015397674 0.072361857
-0.16407478 0.014931018 0.074326605
-0.10836419 0.01526903 0.078428946
-0.089410737 0.014739346 0.077175722
-0.070852399 0.012350384 0.07001324
-0.0080662742 0.014836638 0.078770757
0.0051848954 0.012909276 0.075618297
0.022978226 0.01330496 0.071887493
0.051515728 0.012368761 0.072349004
0.097841799 0.014693675 0.074832395
0.10459159 0.014732815 0.073201358
0.18562828 0.017253468 0.070855178
0.22478704 0.019471297 0.07229498
-0.35742283 0.0272524 0.072750583
-0.34824446 0.02831357 0.074102029
-0.33606392 0.027446033 0.074185409
-0.32834351 0.027041756 0.076220535
-0.28512424 0.022398507 0.07761398
-0.23727211 0.020680882 0.077022672
0.23825428 0.020739827 0.076922312
0.24659717 0.020802403 0.070316359
0.26355457 0.02043361 0.072238654
0.28009698 0.021579016 0.071002424
0.29303142 0.023458123 0.071991459
0.30964318 0.023828939 0.072221823
0.33184841 0.027525615 0.078750193
0.34251636 0.026460297 0.077196643
0.35524961 0.028734908 0.070806034
-0.39056399 0.035589632 0.072836824
-0.37647128 0.031757701 0.079477079
-0.42912006 0.048536088 0.070918798
0.42380595 0.047022536 0.073319331
-0.43768376 0.050394453 0.072497532
0.44696325 0.05256262 0.073736295
-0.20652393 0.019664373 0.085639
-0.17889623 0.016690155 0.087307967
-0.14407167 0.015306425 0.086864866
-0.13282306 0.014505189 0.082268454
-0.097390018 0.014592561 0.086015821
-0.054596551 0.015209568 0.085181713
-0.046580136 0.014350119 0.085565537
-0.03646753 0.014531635 0.086963415
-0.0094132796 0.01542099 0.085215427
0.00038641825 0.014110996 0.088514656
0.071182989 0.014973102 0.081232831
0.10501207 0.014227818 0.086235143
0.11113873 0.014156424 0.08392553
0.12516598 0.014710602 0.086414009
0.1608648 0.017401826 0.084304646
0.17084293 0.018142201 0.088158131
0.20312724 0.017796043 0.08563064
-0.36358988 0.028235186 0.084897779
-0.34096426 0.028293395 0.081442431
-0.32260168 0.027324427 0.084926948
-0.29685521 0.025215117 0.086886801
-0.27737322 0.023648906 0.088039033
-0.25513285 0.021570645 0.082350001
-0.21740337 0.020165458 0.084702924
0.24320289 0.020447787 0.088283241
0.25393787 0.022727512 0.086659968
0.26081902 0.02199739 0.082695417
0.29688764 0.0253122 0.081830904
0.33165392 0.026301403 0.089176729
0.35027674 0.029067025 0.088858247
-0.39899057 0.038563382 0.089048311
-0.38635126 0.03660835 0.089996815
-0.37016079 0.030086664 0.083909601
0.38686836 0.034807067 0.081645072
-0.40467933 0.041687392 0.082330272
-0.39973253 0.040353414 0.085907146
0.40433508 0.040108897 0.088053398
0.41837475 0.045961645 0.08789818
-0.16373828 0.016694259 0.093486547
-0.14021328 0.017791027 0.096482486
-0.12654294 0.0158638 0.097637974
-0.11719573 0.016229637 0.095066115
-0.082628414 0.014831092 0.096346349
-0.07514599 0.014317505 0.092044488
-0.011591697 0.016421927 0.095741861
-0.0062185489 0.016632065 0.097235605
0.017473949 0.016163083 0.093851492
0.055024669 0.01533759 0.09517698
0.087517172 0.015261512 0.099824615
0.097401962 0.016161313 0.09084636
0.10508479 0.016655933 0.094135672
0.12812035 0.01523298 0.09133397
0.13170008 0.017436085 0.095591098
0.16969703 0.016699798 0.091256008
0.17723794 0.019268742 0.096925646
0.18500882 0.01787797 0.096428707
-0.36297524 0.028267227 0.09166795
-0.34351739 0.029256357 0.097385161
-0.33046514 0.026386147 0.093659826
-0.25420415 0.023441883 0.094070971
-0.21775046 0.021070406 0.094157085
0.27573496 0.023447115 0.096058086
0.28593814 0.02374102 0.093035437
0.34122515 0.028595425 0.090772465
-0.38322735 0.034747776 0.094437979
-0.36768985 0.031585783 0.099384487
0.39584103 0.037922539 0.096578911
0.40737131 0.041126326 0.0910744
0.41589075 0.045412838 0.092465475
-0.17362827 0.018326724 0.1047282
-0.14910494 0.017324049 0.10422419
-0.13324197 0.017453605 0.10537356
-0.12520622 0.016535284 0.10385874
-0.044665467 0.01762234 0.10863052
0.024484042 0.016859967 0.10050094
0.075390644 0.015399776 0.10187723
0.092508718 0.017250024 0.10197416
0.10687958 0.016801879 0.10997529
0.11743497 0.018460993 0.10759115
0.12423546 0.017619206 0.10619986
0.13757648 0.017650869 0.10359911
0.14238513 0.018564593 0.10259186
0.158739 0.017249636 0.10027477
-0.34552893 0.029534116 0.10237524
-0.33275944 0.028251879 0.10526562
-0.32837373 0.027303997 0.10746609
-0.27557725 0.024742715 0.10761479
-0.25484204 0.024688609 0.10472058
-0.2204614 0.022476194 0.10531086
-0.19225517 0.020537697 0.1016321
0.2265542 0.023193114 0.10874627
0.26972827 0.025652939 0.10410636
0.28026438 0.025016032 0.10760087
0.29828224 0.026054569 0.10862774
0.36648607 0.029924799 0.10922364
-0.40087539 0.039647501 0.10246056
-0.35998949 0.03031176 0.10653703
-0.17092028 0.018878827 0.11054206
-0.14451857 0.017967183 0.11148661
-0.26634634 0.02538882 0.11242016
-0.25911194 0.024308262 0.11223847
-0.2450484 0.0230968 0.11156061
-0.21912003 0.021717981 0.11227162
0.25356108 0.023745252 0.11206862
0.284172 0.026984712 0.11229677
