# .PCD v0.7 - Point Cloud Data file format
VERSION 0.7
FIELDS x y z
SIZE 4 4 4
TYPE F F F
COUNT 1 1 1
WIDTH 897
HEIGHT 1
VIEWPOINT 0 0 0 1 0 0 0
POINTS 897
DATA ascii
-0.36280233 0.0072310274 -0.10945053
-0.34583586 0.0051297229 -0.10707659
-0.23341605 0.0059012417 -0.109764
-0.16774072 0.0075602354 -0.10976401
-0.15374303 0.0051990161 -0.10976399
-0.11741368 0.0041406699 -0.10782139
-0.046797939 0.0083412584 -0.10976399
-0.022919973 0.0057966672 -0.10812339
-0.0060715005 0.0074199676 -0.10976399
0.029232532 0.0041406699 -0.10310064
0.032559246 0.0041406699 -0.10950179
0.055532634 0.0070069581 -0.109764
0.096182793 0.0060366346 -0.109764
0.13106413 0.0041406699 -0.1071495
0.14503752 0.0078410758 -0.10976401
0.17095208 0.0041406699 -0.10493968
0.18835063 0.0041406699 -0.10310838
0.28639579 0.0041406699 -0.10485232
0.29115674 0.0069586877 -0.109764
0.30504563 0.0054305932 -0.109764
0.31209895 0.0041406699 -0.10946
0.34454238 0.0049093636 -0.10954789
0.35934553 0.0081478888 -0.10976399
-0.30205125 0.011797498 -0.109764
-0.29567182 0.0128981 -0.10471719
-0.28034502 0.0128981 -0.10536462
-0.2514686 0.0128981 -0.10197713
-0.18415913 0.012602192 -0.109764
-0.17157499 0.010879672 -0.109764
-0.14783527 0.0128981 -0.10494894
-0.10361831 0.011171897 -0.10976401
-0.093893558 0.012898101 -0.10940758
-0.074773803 0.012804513 -0.10875012
-0.060108826 0.011771446 -0.109764
-0.057346731 0.0128981 -0.10492826
-0.0052127987 0.0128981 -0.10342036
0.03613678 0.0128981 -0.10685898
0.080605164 0.012277106 -0.10787204
0.10331909 0.010615611 -0.109764
0.12122922 0.012898101 -0.10049692
0.13386674 0.010753043 -0.10976399
0.17411888 0.0128981 -0.10130845
0.18806474 0.012898101 -0.10427618
0.20968914 0.012898101 -0.1053075
0.25986767 0.0128981 -0.10556138
0.27340412 0.0128981 -0.10206585
0.28208047 0.0128981 -0.10541464
0.32785353 0.012898101 -0.10086761
0.33624071 0.010618503 -0.109764
0.34529126 0.011116132 -0.10976401
0.35499638 0.013109853 -0.10661496
0.36719656 0.010320306 -0.109764
0.37841344 0.015685873 -0.10143584
0.40589336 0.015391978 -0.102037
-0.20702925 0.0041406699 -0.095017843
-0.0626003 0.0041406699 -0.09955065
-0.055356905 0.0041406699 -0.097123235
-0.048795126 0.0041406699 -0.094982848
-0.0044549908 0.0041406699 -0.093054533
0.11400378 0.0041406699 -0.091218695
0.13269566 0.0041406699 -0.093307942
0.39066771 0.0096533094 -0.096163981
-0.32578185 0.0129338 -0.091764003
-0.27136546 0.0128981 -0.095129415
-0.24135312 0.0128981 -0.092145003
-0.19583383 0.0128981 -0.098589443
-0.1717598 0.0128981 -0.092150629
-0.12848859 0.012898099 -0.099004962
-0.053099357 0.0128981 -0.098247901
0.11362591 0.0128981 -0.097579733
0.16052553 0.0128981 -0.092208177
0.19855966 0.0128981 -0.09558896
0.21715669 0.0128981 -0.091553681
0.23287088 0.012898101 -0.099183761
0.28291249 0.0128981 -0.095264137
0.29399148 0.012898099 -0.099424101
0.33814654 0.0128981 -0.092299029
-0.40467575 0.026701046 -0.090474047
-0.2906248 0.0041406699 -0.080194004
-0.26569209 0.0041406699 -0.086182386
-0.25003865 0.0041406699 -0.087440282
-0.16499384 0.0041406699 -0.087972663
-0.089652717 0.0041406699 -0.086755991
-0.05595611 0.0041406699 -0.089167729
-0.04487697 0.0041406699 -0.082687289
-0.03122713 0.0041406699 -0.081452236
0.023239218 0.0041406699 -0.083079465
0.072602153 0.0041406699 -0.082317345
0.10829756 0.0041406699 -0.08280535
0.26131928 0.0041406699 -0.087140188
0.27482432 0.0041406699 -0.086620338
0.30268627 0.0041406699 -0.085679337
0.34730306 0.0041406699 -0.087565035
0.38296622 0.0077773184 -0.085156612
0.39114258 0.0097727394 -0.089003004
-0.40541327 0.018188052 -0.084964499
-0.33613238 0.013209753 -0.089635402
-0.3138513 0.0128981 -0.085225984
-0.25723958 0.0128981 -0.086772405
-0.23109141 0.012898099 -0.081564456
-0.20366971 0.012898099 -0.088893123
-0.18263318 0.012898101 -0.084072664
-0.14101692 0.012898099 -0.08940725
-0.066789418 0.0128981 -0.089699037
-0.01256346 0.0128981 -0.083278336
-0.0005620271 0.012898101 -0.081533283
0.16716307 0.0128981 -0.089810088
0.21559837 0.0128981 -0.081805855
0.27304375 0.012898099 -0.088660441
0.30283871 0.0128981 -0.08654575
0.34391069 0.0128981 -0.089025751
0.3558833 0.013141433 -0.089187995
0.39990398 0.012364874 -0.088873766
-0.41848686 0.032009929 -0.081140988
-0.37260363 0.0090558939 -0.076544322
-0.36991504 0.0084944228 -0.074179694
-0.29632565 0.0041406699 -0.075376675
-0.26080951 0.0041406699 -0.078652702
-0.2419128 0.0041406699 -0.076468088
-0.21491706 0.0041406699 -0.072500423
-0.15002005 0.0041406699 -0.072832987
-0.14683689 0.0041406699 -0.075516023
-0.091391101 0.0041406699 -0.073431678
-0.087614708 0.0041406699 -0.074920021
-0.033906631 0.0041406699 -0.079103857
-0.0023286417 0.0041406699 -0.076090276
0.024697252 0.0041406699 -0.076968491
0.11561543 0.0041406699 -0.07874091
0.12811534 0.0041406699 -0.072735719
0.13672078 0.0041406699 -0.074996121
0.15493295 0.0041406699 -0.070468113
0.19756496 0.0041406699 -0.079150885
0.22502354 0.0041406699 -0.077253193
0.25411239 0.0041406699 -0.078417517
0.31400406 0.0041406699 -0.073488533
0.37262374 0.0058935834 -0.071019091
0.38490388 0.008203703 -0.075167336
-0.32274047 0.012898101 -0.077265054
-0.23007526 0.012898099 -0.077952266
-0.14875627 0.012898099 -0.076527685
-0.11236054 0.012898101 -0.076979972
-0.10696521 0.012898101 -0.078937873
-0.067790911 0.0128981 -0.078574121
0.028767701 0.012898101 -0.076237477
0.098174296 0.012898101 -0.07137692
0.20346183 0.0128981 -0.07187514
0.22056112 0.0128981 -0.076853111
0.27649909 0.012898099 -0.072880253
0.31330943 0.0128981 -0.079894386
0.36192477 0.013457439 -0.076133512
0.40271276 0.013278697 -0.070239447
-0.44042677 0.03368827 -0.074712187
-0.43516725 0.03832614 -0.078527004
0.43497884 0.034670696 -0.079460599
-0.31242749 0.0041406699 -0.068669289
-0.296947 0.0041406699 -0.062901773
-0.27593178 0.0041406699 -0.067821622
-0.26934916 0.0041406699 -0.06293603
-0.086124979 0.0041406699 -0.069974363
-0.076644115 0.0041406699 -0.067567363
-0.038044561 0.0041406699 -0.060491122
0.046510778 0.0041406699 -0.067562833
0.097103581 0.0041406699 -0.06965021
0.13619274 0.0041406699 -0.061058518
0.14395356 0.0041406699 -0.06430202
0.22057965 0.0041406699 -0.067655511
0.26620147 0.0041406699 -0.066078097
0.32491085 0.0041406699 -0.062482994
0.35108024 0.0042129997 -0.063259378
0.3758029 0.0064620902 -0.061244261
-0.2879059 0.0128981 -0.067739978
-0.26469767 0.012898099 -0.062777534
-0.25981933 0.0128981 -0.067899942
-0.21340896 0.012898099 -0.065865725
-0.20964423 0.012898099 -0.066764742
-0.1936169 0.012898101 -0.065801449
-0.12843513 0.0128981 -0.061626595
-0.093943529 0.0128981 -0.065013178
-0.023899339 0.0128981 -0.068677574
-0.0055671409 0.0128981 -0.064156361
0.025629029 0.0128981 -0.06330815
0.10656021 0.012898099 -0.065173887
0.23589844 0.012898101 -0.060838535
0.24323022 0.0128981 -0.065181449
0.36155343 0.013417714 -0.061771858
0.37473688 0.015028413 -0.064016327
0.38728553 0.017559823 -0.067820013
0.40409401 0.013728072 -0.063648894
-0.40620577 0.027207978 -0.062296778
0.42785093 0.023959795 -0.061723799
-0.44162413 0.034315426 -0.064087115
0.43986309 0.039520029 -0.060734019
-0.43966481 0.042046379 -0.067286819
-0.3173421 0.0041406699 -0.052665584
-0.30241847 0.0041406699 -0.057805456
-0.28753325 0.0041406699 -0.056954551
-0.26109058 0.0041406699 -0.054736309
-0.24694136 0.0041406699 -0.058622852
-0.23198545 0.0041406699 -0.055444695
-0.22875614 0.0041406699 -0.05472631
-0.19157013 0.0041406699 -0.059082981
-0.16262341 0.0041406699 -0.052497156
-0.13578922 0.0041406699 -0.054101575
-0.1139121 0.0041406699 -0.059152704
-0.089886218 0.0041406699 -0.05067667
-0.066568345 0.0041406699 -0.053244893
0.044193652 0.0041406699 -0.052147806
0.061696023 0.0041406699 -0.055728775
0.08661595 0.0041406699 -0.059433967
0.13768394 0.0041406704 -0.051367056
0.2747471 0.0041406699 -0.058501896
0.35452792 0.0043357639 -0.051034529
0.37698725 0.0066738725 -0.056120802
-0.39083025 0.013519185 -0.0590607
-0.38925761 0.013095183 -0.054849043
-0.37497652 0.01830852 -0.057311241
-0.36558023 0.016401559 -0.054808185
-0.35344276 0.014596529 -0.056891829
-0.2883594 0.0128981 -0.058837265
-0.22494726 0.0128981 -0.05379007
-0.13396233 0.0128981 -0.057722013
-0.12853935 0.0128981 -0.053477112
-0.11740305 0.0128981 -0.058882665
-0.05759348 0.0128981 -0.059973568
-0.020201586 0.0128981 -0.050743435
-0.0039376579 0.0128981 -0.054619618
0.052012101 0.012898099 -0.05173938
0.11201188 0.0128981 -0.056027763
0.2206066 0.0128981 -0.055278115
0.24339035 0.0128981 -0.054514639
0.25930727 0.0128981 -0.059958838
0.28475311 0.012898099 -0.059945419
0.30304158 0.0128981 -0.051788896
0.36360687 0.013637388 -0.055429548
0.37436616 0.014962119 -0.056437209
0.39479816 0.015163902 -0.056566168
-0.42893183 0.027939666 -0.05885426
-0.41379923 0.021405481 -0.051275779
-0.409762 0.028572086 -0.057875521
0.41238746 0.025676584 -0.058602802
-0.44273275 0.034896061 -0.050988346
-0.44961706 0.047504697 -0.056950431
-0.33754486 0.0044941758 -0.043377124
-0.28966647 0.0041406695 -0.043324687
-0.20845143 0.0041406699 -0.044281214
-0.19687422 0.0041406699 -0.047220182
-0.12824877 0.0041406699 -0.040317468
-0.084011495 0.0041406699 -0.049324483
-0.021941617 0.0041406699 -0.04489176
-0.010963172 0.0041406699 -0.047196642
0.092707217 0.0041406699 -0.049452297
0.21586205 0.0041406699 -0.045383036
0.27095374 0.0041406699 -0.044051811
0.30466521 0.0041406699 -0.048866846
0.32514212 0.0041406699 -0.047178321
0.38600919 0.0085284254 -0.044284627
-0.36766329 0.016781531 -0.046943475
-0.35332549 0.014579085 -0.047475785
-0.33844194 0.01327823 -0.045706097
-0.28607583 0.012898101 -0.047797486
-0.26473159 0.012898099 -0.048621058
-0.2564061 0.0128981 -0.045248616
-0.13259956 0.0128981 -0.044896904
-0.023174115 0.0128981 -0.040065564
-0.01373858 0.012898101 -0.040238298
-0.0049368292 0.0128981 -0.045585912
0.052760631 0.0128981 -0.04249236
0.22389424 0.012898099 -0.045408033
0.25753969 0.0128981 -0.046643749
0.28167042 0.0128981 -0.047132365
0.30605108 0.012898101 -0.046718247
0.37008351 0.014330242 -0.041385166
0.41885373 0.019659271 -0.045197576
-0.41202128 0.020704908 -0.040114362
-0.39510998 0.023531711 -0.045498163
0.42022413 0.02907172 -0.045928948
0.42955741 0.033668764 -0.046812184
-0.45115903 0.044037644 -0.049574554
-0.44926912 0.047299005 -0.048978537
0.4556821 0.042426765 -0.044107605
-0.33184177 0.0043250965 -0.037955157
-0.25985876 0.0041406699 -0.03348083
-0.23612568 0.0041406699 -0.03674157
-0.18224877 0.0041406699 -0.037521098
-0.08068081 0.0041406699 -0.032794677
-0.078139514 0.0041406699 -0.030288439
-4.7557056e-05 0.0041406699 -0.03709973
0.17874119 0.0041406699 -0.034877189
0.2490235 0.0041406699 -0.037075669
0.34653875 0.0041406699 -0.034308322
0.35172492 0.004235955 -0.037561443
-0.38213927 0.019932929 -0.037626527
-0.34134489 0.013487294 -0.034553092
-0.26170844 0.012898099 -0.036257919
-0.24726585 0.0128981 -0.03521245
-0.21759056 0.012898099 -0.037225336
-0.039223604 0.0128981 -0.03095068
-0.021681033 0.012898101 -0.035187397
0.011222575 0.0128981 -0.037198428
0.025068581 0.012898101 -0.038923211
0.046999872 0.012898099 -0.037596524
0.079343006 0.012898099 -0.032395821
0.12841889 0.012898101 -0.032219421
0.16535938 0.0128981 -0.039469037
0.21238381 0.012898101 -0.036084812
0.23527293 0.0128981 -0.036042426
0.28498277 0.0128981 -0.037499733
0.30638868 0.0128981 -0.032506518
0.33078495 0.0128981 -0.036109123
0.35757869 0.013201796 -0.038997345
0.38320932 0.016543487 -0.032465238
0.41319409 0.025999798 -0.035325974
0.42762148 0.032607518 -0.034682572
0.4534747 0.03984762 -0.038000021
-0.44754776 0.046281483 -0.035304341
0.45471075 0.040745072 -0.034567356
-0.26749414 0.0041406699 -0.021486081
-0.11639909 0.0041406699 -0.021972952
-0.058599316 0.0041406699 -0.025300704
-0.015490219 0.0041406699 -0.027129278
-0.005041521 0.0041406699 -0.029450137
0.0065167956 0.0041406699 -0.023283217
0.058493212 0.0041406699 -0.028669199
0.088488929 0.0041406699 -0.026908178
0.10282554 0.0041406699 -0.028992772
0.14403915 0.0041406699 -0.02907411
0.17060226 0.0041406699 -0.023337353
0.21188012 0.0041406699 -0.021223862
0.33348858 0.0041406695 -0.025092103
0.34799808 0.0041406699 -0.024245158
-0.30399787 0.0128981 -0.029319689
-0.27183846 0.012898099 -0.02572092
-0.19984394 0.012898099 -0.024284568
-0.16014786 0.012898101 -0.029283959
0.03502506 0.0128981 -0.028085064
0.076166935 0.0128981 -0.028001199
0.096631154 0.012898101 -0.027171122
0.14126335 0.012898101 -0.023753025
0.20187908 0.0128981 -0.02977762
0.23003115 0.0128981 -0.028423287
0.31353331 0.012898101 -0.029752474
0.39315951 0.01466832 -0.023256974
-0.41286093 0.021035761 -0.029246422
-0.40598518 0.027134888 -0.023617569
-0.38517973 0.020752687 -0.026310839
-0.45200986 0.048919167 -0.027164742
0.44840738 0.044989631 -0.024254175
-0.45824617 0.052605696 -0.026707169
0.46083477 0.053519532 -0.02773894
-0.32676902 0.0041747056 -0.019936111
-0.26147267 0.0041406699 -0.018877372
-0.21239173 0.0041406699 -0.010630567
-0.084027462 0.0041406699 -0.014374153
-0.05953072 0.0041406699 -0.016096942
0.022697998 0.0041406699 -0.016583292
0.032698408 0.0041406699 -0.016161326
0.0657911 0.0041406699 -0.018216144
0.10208098 0.0041406699 -0.017301939
0.11857536 0.0041406699 -0.014369452
0.14560008 0.0041406699 -0.017169621
0.18506253 0.0041406699 -0.017084159
0.20072728 0.0041406699 -0.013532495
0.21755373 0.0041406699 -0.014048308
0.22372356 0.0041406699 -0.014808007
0.2761476 0.0041406699 -0.016679887
0.38243619 0.0076482622 -0.017175471
-0.38978496 0.013237368 -0.013205454
-0.34892014 0.014161797 -0.014060963
-0.31150466 0.0128981 -0.014209613
-0.30380619 0.0128981 -0.016584888
-0.26931888 0.012898101 -0.018922519
-0.14844352 0.0128981 -0.016389322
-0.014273953 0.0128981 -0.018792318
-0.0043213367 0.0128981 -0.016768411
0.039467528 0.0128981 -0.016640235
0.055822831 0.0128981 -0.014166329
0.11964815 0.012898099 -0.017617401
0.14248948 0.012898099 -0.01375732
0.25214714 0.012898101 -0.013931405
0.29676312 0.0128981 -0.015542116
0.30815083 0.0128981 -0.014595252
0.32698706 0.0128981 -0.010353357
0.34637547 0.0128981 -0.014017113
0.36458981 0.013742539 -0.013464485
0.37661949 0.015365072 -0.014418922
-0.40758947 0.027716059 -0.013142843
-0.38960642 0.021946207 -0.010667171
0.43150488 0.025997384 -0.019181585
0.42752448 0.032561146 -0.019731332
0.44832823 0.044938929 -0.014225979
0.46202269 0.050213754 -0.015889989
-0.37222463 0.0089767408 -0.0051949322
-0.36894763 0.008292391 -0.0050748065
-0.35125422 0.0056121834 -0.0035162047
-0.34615672 0.0051582921 -0.0017469954
-0.27165517 0.0041406699 -0.0021309331
-0.21881738 0.0041406699 -0.0014266465
-0.20897102 0.0041406699 -0.0077770539
-0.14943863 0.0041406699 -0.0051768739
-0.12134568 0.0041406699 -0.006490346
-0.038089693 0.0041406699 -0.0016413322
-0.025126174 0.0041406699 -0.0076129511
-0.019980237 0.0041406699 -0.0040022954
0.053269967 0.0041406699 -0.0058497675
0.10309666 0.0041406699 -0.0059707975
0.1661641 0.0041406699 -0.0037159417
0.20709178 0.0041406699 -0.0011316538
0.26740986 0.0041406699 -0.00075111911
0.29496211 0.0041406699 -0.00517698
0.32589549 0.0041406699 -0.0057176389
-0.31404635 0.012898101 -0.0069983974
-0.24939655 0.012898101 -0.0064913519
-0.21305156 0.012898099 -0.0040475577
-0.18619354 0.012898101 -0.0034917127
-0.13506758 0.0128981 -0.0012080558
-0.094548225 0.012898101 -0.0060981587
-0.078605138 0.0128981 -0.0029432178
-0.046073966 0.0128981 -0.0039828867
-0.024433546 0.0128981 -0.0092943497
0.033248737 0.0128981 -0.0041077859
0.1033447 0.012898099 -0.0016106628
0.1228631 0.0128981 -0.0040395744
0.13000849 0.0128981 -0.005609123
0.18761308 0.012898101 -0.0041535124
0.19767889 0.0128981 -0.00348025
0.32363704 0.0128981 -0.0050666127
0.33524698 0.0128981 -0.0003339462
0.35919198 0.013259237 -0.0071003549
0.38981318 0.018195616 -0.0048717111
0.40728086 0.014872937 -0.0023255795
-0.42421409 0.025778491 -0.0024521034
-0.43591779 0.031326689 -0.0056925626
-0.42884895 0.036659088 -0.00014488492
-0.4434953 0.044052456 -0.0040029176
0.45336145 0.048522767 -0.0061660651
-0.46291149 0.051915191 -0.00702745
-0.36113179 0.0069825863 0.0080122985
-0.34210569 0.0047975793 0.00090963021
-0.33691457 0.0044754902 0.0094756112
-0.26534304 0.0041406699 0.0058830045
-0.25354919 0.0041406699 0.0052553453
-0.20784612 0.0041406699 0.00055573508
-0.19424009 0.0041406699 0.007070424
-0.10308788 0.0041406704 0.0038929582
-0.099525057 0.0041406699 0.0085841678
-0.070009708 0.0041406699 0.0069416659
-0.067331322 0.0041406699 0.0049744621
-0.031685829 0.0041406699 0.0082652718
-0.026596153 0.0041406699 0.0050233109
-0.017522382 0.0041406699 0.00052725151
0.063638151 0.0041406699 0.0081933541
0.096345901 0.0041406699 0.0042928997
0.11649588 0.0041406699 0.0070325807
0.14302509 0.0041406699 0.0086998232
0.1743954 0.0041406699 0.0056589609
0.21416923 0.0041406699 0.0052949172
0.2731787 0.0041406699 0.007911481
0.35558078 0.0043732538 0.0084201647
-0.3854045 0.012056347 0.0045256503
-0.37062457 0.017399844 0.0092893243
-0.31961975 0.0128981 0.0036110915
-0.23818089 0.012898099 0.0060071945
-0.21764454 0.012898101 0.0034471937
-0.20666763 0.0128981 0.0068429224
-0.1982643 0.012898099 0.0017038472
-0.053743027 0.012898099 0.0050878562
-0.02605729 0.0128981 0.0038877409
0.026082708 0.0128981 0.0016143159
0.039736897 0.0128981 0.00071834796
0.042239726 0.0128981 0.0017217016
0.050412349 0.0128981 0.0036266893
0.17800124 0.0128981 0.0017610118
0.18719216 0.0128981 0.0072433576
0.19343111 0.012898101 0.0043499824
0.24685985 0.012898101 0.0025494285
0.25443175 0.0128981 0.0030911546
0.33648372 0.0128981 0.0095159113
-0.39034835 0.022146242 0.00051324815
-0.38314182 0.020203233 0.0073935557
-0.41446409 0.030424843 0.0088201547
-0.46328107 0.048288696 0.0050201318
-0.44127569 0.042890023 0.0084523279
0.44652024 0.043781582 0.0092756506
0.45321512 0.044037826 0.00090214441
-0.30809343 0.0041406699 0.017104294
-0.27034503 0.0041406699 0.015629962
-0.23357373 0.0041406699 0.012013629
-0.21431755 0.0041406699 0.016181823
-0.13922983 0.0041406695 0.013629496
-0.094846033 0.0041406699 0.012619469
-0.083321199 0.0041406699 0.01410549
-0.034667969 0.0041406699 0.016506087
0.040840782 0.0041406699 0.012565546
0.18605235 0.0041406699 0.018407639
0.19104305 0.0041406699 0.012219198
0.23398614 0.0041406699 0.018116031
0.24897528 0.0041406699 0.016771898
0.26835096 0.0041406699 0.016529739
0.31528968 0.0041406699 0.014145728
0.36274135 0.0047874912 0.018085957
0.3718957 0.0057671526 0.016824771
0.38477969 0.0082880165 0.016360546
-0.2735959 0.012898099 0.018145874
-0.17485413 0.012898099 0.01823931
-0.16688181 0.012898101 0.01014608
-0.083491936 0.012898099 0.013081428
-0.066791929 0.0128981 0.018086726
-0.01187411 0.0128981 0.010329481
0.00069643557 0.0128981 0.012321159
0.11549024 0.0128981 0.017489754
0.13674384 0.0128981 0.018880125
0.14832628 0.0128981 0.014833409
0.19088311 0.012898101 0.016036257
0.20317781 0.012898099 0.019603504
0.26800996 0.0128981 0.013507981
0.33054098 0.0128981 0.017213687
0.3975895 0.011611784 0.018402895
0.40591767 0.014387838 0.013462598
-0.42365921 0.025524208 0.017875236
-0.40899327 0.028269196 0.017276479
0.41671664 0.027411316 0.017164677
-0.46209264 0.047210477 0.016878052
-0.27673444 0.0041406699 0.020185407
-0.24243547 0.0041406699 0.024725623
-0.22550869 0.0041406695 0.029569112
-0.21178679 0.0041406699 0.025411246
-0.19382998 0.0041406699 0.025832564
-0.14222114 0.0041406699 0.027845435
-0.065389529 0.0041406699 0.027825128
-0.025532022 0.0041406699 0.029765069
-0.01574187 0.0041406699 0.024535187
0.0049619079 0.0041406699 0.0232054
0.017003141 0.0041406699 0.027739123
0.090610892 0.0041406699 0.028661266
0.11704756 0.0041406699 0.026460726
0.12871088 0.0041406699 0.027709644
0.13940245 0.0041406699 0.02035027
0.16127226 0.0041406699 0.022624392
0.1785475 0.0041406699 0.021025661
0.21894726 0.0041406699 0.027019612
0.22818992 0.0041406699 0.020711295
0.27203923 0.0041406699 0.02351727
0.30188781 0.0041406699 0.023927808
0.34143555 0.0041406699 0.028556596
0.35106969 0.0042126221 0.024320744
0.38491899 0.0082075028 0.028699432
-0.40739113 0.01888052 0.024281248
-0.37493381 0.018299606 0.029138032
-0.35116547 0.014361722 0.022639439
-0.32245946 0.012898099 0.021345902
-0.28884289 0.012898101 0.026781365
-0.23087648 0.0128981 0.024106398
-0.20814055 0.0128981 0.024241701
-0.081984729 0.012898101 0.029526966
-0.06456729 0.012898101 0.020756075
-0.031229571 0.012898099 0.028269399
0.042648114 0.012898099 0.029159054
0.086477555 0.0128981 0.025856126
0.10692614 0.0128981 0.02308918
0.18259503 0.012898101 0.024831705
0.21242088 0.012898099 0.022709772
0.22651801 0.012898099 0.024265481
0.33085102 0.0128981 0.024334878
0.39515251 0.010818996 0.027747154
0.40604973 0.014379634 0.027579118
0.41823965 0.01936578 0.026515335
-0.42567533 0.035205223 0.023565035
0.45345247 0.039831407 0.027116293
0.45622492 0.050601833 0.020127455
-0.36621675 0.0077388179 0.036391113
-0.34907907 0.0054185037 0.036778506
-0.27157676 0.0041406699 0.036215782
-0.23701912 0.0041406704 0.035344854
-0.20804955 0.0041406699 0.036570478
-0.17201057 0.0041406699 0.036436506
-0.031777866 0.0041406699 0.035547689
0.013432177 0.0041406699 0.037369832
0.020128865 0.0041406699 0.035702083
0.074216679 0.0041406699 0.038238876
0.080645762 0.0041406699 0.030256584
0.15935133 0.0041406699 0.035802752
0.16617022 0.0041406699 0.032965876
0.18187737 0.0041406699 0.037309732
0.28098321 0.0041406699 0.032488752
0.32004103 0.0041406699 0.038361929
-0.37752116 0.014461379 0.033371013
-0.3484509 0.014120016 0.039711725
-0.31740472 0.0128981 0.038849842
-0.30239448 0.012898101 0.032315936
-0.22447486 0.0128981 0.036626909
-0.11928186 0.012898101 0.033445477
-0.10813881 0.012898101 0.031249879
-0.098261923 0.0128981 0.035003487
-0.071912721 0.012898101 0.032152701
-0.06341242 0.0128981 0.039366666
-0.033300087 0.0128981 0.030480303
-0.0052998625 0.012898101 0.034603253
0.012271933 0.012898099 0.034777295
0.050033204 0.012898101 0.031361308
0.16466299 0.012898101 0.033868656
0.28396219 0.0128981 0.035577223
0.34862006 0.012898101 0.03603695
0.39710906 0.011455493 0.034920108
0.41219491 0.016841978 0.033266068
-0.43446112 0.030563766 0.037952255
0.43106645 0.034510314 0.037480041
0.44660917 0.0350811 0.032371182
-0.45803916 0.047204886 0.038316835
-0.44892532 0.047095824 0.038492993
0.45737082 0.043638371 0.035844028
-0.3491329 0.0054232976 0.044925619
-0.33876547 0.0045303633 0.04746943
-0.32225245 0.0041406699 0.040619925
-0.31013691 0.0041406699 0.045139227
-0.15301681 0.0041406699 0.044353761
-0.14377733 0.0041406699 0.049834955
-0.067189664 0.0041406699 0.043736346
-0.045695949 0.0041406699 0.047576819
0.11203559 0.0041406699 0.049593799
0.20244253 0.0041406699 0.043814473
0.23863161 0.0041406699 0.042365585
0.2542108 0.0041406699 0.047842525
0.26923722 0.0041406695 0.046157092
0.32765815 0.0041406699 0.045729786
0.36569747 0.0051038442 0.043918792
0.37006116 0.0055708294 0.048596952
-0.39453071 0.014636985 0.046252985
-0.25637218 0.012898099 0.046333678
-0.2390061 0.0128981 0.047958091
-0.21260796 0.012898101 0.042751383
-0.20167072 0.012898101 0.040559724
-0.075109869 0.012898101 0.046937454
-0.056698143 0.012898099 0.041133594
-0.02153454 0.0128981 0.047439326
0.17510787 0.012898099 0.045219827
0.23959082 0.012898099 0.042388856
0.30727059 0.012898101 0.045824163
0.31409618 0.0128981 0.049627922
0.32749864 0.012898099 0.044419151
0.40248752 0.013205401 0.048131526
0.4187212 0.028353456 0.041570812
0.42493826 0.022567563 0.042834774
-0.43469703 0.039444707 0.048330449
-0.42344666 0.034184214 0.047878735
0.44364777 0.041942753 0.041439053
-0.3649433 0.0075494312 0.059821539
-0.13282044 0.0041406699 0.057245452
-0.090851828 0.0041406699 0.051670194
-0.084606595 0.0041406699 0.057801835
-0.035695933 0.0041406699 0.0517314
-0.017476134 0.0041406699 0.05560115
0.0049463809 0.0041406699 0.051089965
0.047029436 0.0041406699 0.057513475
0.073413461 0.0041406699 0.053460546
0.10809865 0.0041406699 0.052461095
0.17310105 0.0041406699 0.053874504
0.18247567 0.0041406699 0.057101291
0.26165238 0.0041406699 0.056930505
0.28208932 0.0041406699 0.055304267
0.34936363 0.0041518733 0.056752939
-0.34291759 0.013627328 0.056247246
-0.19426249 0.0128981 0.052041084
-0.18750171 0.0128981 0.053375874
-0.12445679 0.0128981 0.053593151
-0.047145538 0.012898099 0.054889292
0.050349593 0.0128981 0.057424188
0.08048296 0.0128981 0.056352552
0.095583871 0.012898101 0.052122958
0.19923152 0.0128981 0.053565722
0.21846943 0.0128981 0.055910498
0.22870106 0.012898101 0.056736793
0.25400305 0.012898099 0.05167602
0.28620601 0.0128981 0.051794916
0.30596757 0.0128981 0.051994428
0.368801 0.014193039 0.052455798
0.39463437 0.019408328 0.052682377
-0.38410118 0.020461887 0.058639523
0.39669514 0.020078242 0.052779451
0.40924913 0.024419043 0.058409147
0.42821693 0.032921195 0.05839248
0.44492424 0.034002468 0.054280151
0.45188498 0.039296892 0.0570512
-0.45144403 0.047773104 0.057805784
-0.44843996 0.046808913 0.055132676
-0.2832877 0.0041406699 0.060867772
-0.27402261 0.0041406704 0.062258925
-0.23440656 0.0041406699 0.0694611
-0.22476527 0.0041406695 0.065704122
-0.20038655 0.0041406699 0.061805591
-0.19152081 0.0041406699 0.065023586
-0.14595224 0.0041406699 0.067326739
-0.12259213 0.0041406699 0.065056898
-0.070422076 0.0041406699 0.06201905
-0.04739771 0.0041406699 0.065756671
-0.002866596 0.0041406699 0.0690469
0.031322483 0.0041406699 0.062474832
0.042503297 0.0041406699 0.069239028
0.054185964 0.0041406699 0.061514117
0.087816566 0.0041406699 0.061601043
0.12287775 0.0041406699 0.062158085
0.14344683 0.0041406699 0.061832048
0.15469365 0.0041406699 0.063783363
0.31628451 0.0041406699 0.066350177
0.34714893 0.0041406699 0.064714476
-0.37458116 0.018225968 0.068844631
-0.29242191 0.012898099 0.063879579
-0.25081697 0.0128981 0.060447223
-0.22850679 0.012898099 0.062747113
-0.17259774 0.012898099 0.067385748
-0.16175637 0.0128981 0.069186576
-0.1513015 0.012898101 0.062682778
-0.14787823 0.0128981 0.06296616
-0.13403785 0.012898099 0.065137625
-0.10810728 0.0128981 0.066034012
-0.086061537 0.012898101 0.06973055
-0.050700985 0.012898099 0.067576587
0.023890033 0.0128981 0.062403724
0.045307793 0.0128981 0.065712996
0.18031725 0.0128981 0.06069801
0.28276643 0.0128981 0.065854728
0.33116078 0.0128981 0.067776106
0.40001154 0.012399712 0.066932082
-0.42492482 0.02610385 0.066798374
-0.40165555 0.02570045 0.067309007
0.39819372 0.020565739 0.064196005
0.4289853 0.024592308 0.06899412
-0.44050866 0.033731151 0.060116488
0.44328943 0.032955892 0.06653516
-0.4377133 0.041024454 0.067179993
-0.32446122 0.0041442467 0.07509324
-0.3048723 0.0041406699 0.078806102
-0.29230869 0.0041406699 0.077053502
-0.27316451 0.0041406699 0.076130062
-0.25744703 0.0041406699 0.071681343
-0.23562381 0.0041406699 0.073470712
-0.13822359 0.0041406699 0.075002596
-0.12983587 0.0041406699 0.07339941
-0.06651555 0.0041406699 0.077468917
0.0081033111 0.0041406699 0.079745442
0.033845931 0.0041406699 0.070349284
0.10247713 0.0041406699 0.077347711
0.1590493 0.0041406699 0.07267458
0.18740404 0.0041406699 0.079727031
0.19856589 0.0041406699 0.074022055
0.21298346 0.0041406699 0.07294637
0.22315127 0.0041406699 0.076547913
0.26562524 0.0041406699 0.078297734
0.27793241 0.0041406699 0.07061027
0.32501504 0.0041406699 0.075736612
-0.39415616 0.01445862 0.077202871
-0.3754696 0.01841148 0.078898512
-0.22002266 0.0128981 0.075317033
-0.18537903 0.012898099 0.071382701
-0.13580075 0.012898099 0.07311333
-0.024285153 0.0128981 0.077004544
0.09109278 0.0128981 0.071232595
0.25180495 0.012898101 0.073916398
0.26825482 0.0128981 0.078163967
0.28583297 0.012898099 0.079341009
0.29177773 0.012898101 0.075261489
0.35393965 0.013072229 0.074507296
0.36901191 0.014215606 0.075256534
0.39481664 0.010709724 0.075671136
-0.41790494 0.02302325 0.074427843
-0.40316164 0.026199449 0.078463338
-0.3892504 0.021850208 0.070790768
0.4264532 0.023291692 0.070671849
0.43527335 0.028098956 0.076638743
0.42591685 0.031792775 0.079545513
-0.36327714 0.0073016407 0.088646665
-0.34540859 0.0050916784 0.089125209
-0.32257879 0.0041406699 0.08901082
-0.31686106 0.0041406699 0.080145195
-0.15233576 0.0041406699 0.085617527
-0.09031374 0.0041406699 0.087519184
-0.069786198 0.0041406699 0.081558138
-0.027103599 0.0041406699 0.081351183
-0.017245062 0.0041406699 0.086874992
0.051922522 0.0041406699 0.080361322
0.14005098 0.0041406699 0.089284837
0.18409939 0.0041406699 0.087432802
0.22464105 0.0041406699 0.088341616
0.372518 0.005874679 0.08060541
-0.36987597 0.017243534 0.081845626
-0.2864854 0.012898099 0.084698781
-0.24997802 0.0128981 0.08490409
-0.22799642 0.0128981 0.084735803
-0.21161297 0.0128981 0.080936603
-0.20869657 0.0128981 0.086616196
-0.15512253 0.0128981 0.089292891
-0.14510147 0.0128981 0.085861176
-0.049888026 0.0128981 0.080924876
-0.01947137 0.012898101 0.084005907
-0.00045004487 0.0128981 0.089695543
0.018331431 0.0128981 0.089357227
0.065566085 0.0128981 0.086416185
0.17455997 0.0128981 0.081771411
0.21922068 0.0128981 0.081253022
0.25960118 0.012898099 0.085527204
0.27575648 0.0128981 0.088877842
0.33987132 0.0128981 0.084720448
0.39105433 0.018507805 0.089712463
0.39919117 0.020890232 0.085412532
-0.42929637 0.036863901 0.083368488
-0.41625732 0.031131424 0.084838904
0.4283832 0.033013929 0.083275281
0.43737447 0.033672638 0.080718331
-0.35630774 0.0062651676 0.09268488
-0.23406687 0.0041406699 0.098385535
-0.22862944 0.0041406699 0.096383482
-0.12406939 0.0041406699 0.097084947
-0.10122791 0.0041406699 0.094374403
-0.080418095 0.0041406699 0.097952843
-0.069762245 0.0041406699 0.097478032
-0.055380177 0.0041406699 0.097489484
-0.035425048 0.0041406699 0.095795892
0.041914716 0.0041406699 0.099574685
0.078289673 0.0041406699 0.090731815
0.093119025 0.0041406699 0.095864892
0.20550755 0.0041406699 0.093744293
0.24069104 0.0041406699 0.093373388
0.29344887 0.0041406699 0.096292913
0.36385366 0.0049065277 0.094244234
-0.38912702 0.013059977 0.090543114
-0.21708299 0.0128981 0.091274798
-0.20156978 0.0128981 0.098842524
-0.18754359 0.0128981 0.095843062
-0.13271821 0.0128981 0.099385843
-0.087223239 0.0128981 0.098940656
-0.0153419 0.0128981 0.095486909
0.025372729 0.0128981 0.095173724
0.035835184 0.0128981 0.091450103
0.12551011 0.0128981 0.096405208
0.16519646 0.0128981 0.09585166
0.2554611 0.0128981 0.096448667
0.40347055 0.013525159 0.09154541
0.41234457 0.016901936 0.0993862
0.3982144 0.020572474 0.090125255
-0.32105649 0.0041406699 0.10497771
-0.2166063 0.0041406699 0.10389252
-0.20346975 0.0041406699 0.1069802
-0.10349153 0.0041406699 0.10073397
-0.096660197 0.0041406699 0.10686691
-0.051557127 0.0041406699 0.10722851
-0.022395881 0.0041406699 0.10226143
0.059028357 0.0041406699 0.10564649
0.066999026 0.0041406699 0.10725947
0.070996441 0.0041406699 0.10455225
0.10054303 0.0041406699 0.10924242
0.14744468 0.0041406699 0.10467057
0.15281059 0.0041406699 0.10282233
0.16727315 0.0041406699 0.10546301
0.22270593 0.0041406699 0.10738672
0.23934007 0.0041406699 0.1069875
0.30982682 0.0041406699 0.10953836
-0.35488018 0.014810294 0.10695995
-0.29718655 0.0128981 0.10294276
-0.25618899 0.0128981 0.10711148
-0.24569431 0.0128981 0.10435145
-0.23120028 0.0128981 0.10213856
-0.19720387 0.0128981 0.10052879
-0.16312385 0.0128981 0.10095443
-0.09466102 0.0128981 0.10336974
-0.066163927 0.012898101 0.10237878
-0.045312226 0.0128981 0.10675803
-0.035611674 0.0128981 0.10664974
-0.0088020042 0.0128981 0.10039739
0.11518662 0.012898099 0.10173254
0.19633631 0.0128981 0.10139689
0.23014373 0.0128981 0.10421932
0.2599096 0.0128981 0.1009509
0.2696898 0.012898099 0.10933111
0.29735267 0.012898099 0.10576461
0.30796468 0.0128981 0.10741799
0.35442266 0.013089426 0.10409874
-0.4025836 0.02381612 0.10696359
-0.36236921 0.0086798985 0.111444
-0.17736363 0.0081965132 0.111444
-0.16061884 0.0084613943 0.111444
-0.14634085 0.0061030528 0.111444
-0.079676375 0.0088994782 0.111444
0.026044369 0.0046360572 0.111444
0.035554692 0.0046853404 0.111444
0.061135858 0.0041406699 0.11051892
0.18225466 0.0041406699 0.11033071
0.20218918 0.008647915 0.111444
0.2612496 0.0041406699 0.11053076
-0.30391029 0.010264852 0.111444
-0.29466754 0.0128981 0.11111635
-0.23825671 0.0128981 0.11100138
-0.18929005 0.012890322 0.111444
-0.090507388 0.01046438 0.111444
-0.054136157 0.0128981 0.11118124
0.061455227 0.0128981 0.11084575
0.2454955 0.01266915 0.111444
0.3282235 0.0128981 0.11054347
0.37860164 0.015111931 0.111444
