# .PCD v0.7 - Point Cloud Data file format
VERSION 0.7
FIELDS x y z
SIZE 4 4 4
TYPE F F F
COUNT 1 1 1
WIDTH 898
HEIGHT 1
VIEWPOINT 0 0 0 1 0 0 0
POINTS 898
DATA ascii
-0.15842405 -0.0202167 -0.10217001
0.095809937 -0.0202167 -0.10237633
0.22886513 -0.0202167 -0.10229918
0.2873705 -0.0202167 -0.10026935
-0.27350217 -0.019582206 -0.10600799
-0.23495221 -0.0109985 -0.1054839
-0.21809979 -0.014706583 -0.10600799
-0.15860511 -0.016613176 -0.106008
-0.1403584 -0.010998499 -0.10363497
-0.097820498 -0.016028833 -0.106008
-0.060319975 -0.015201937 -0.106008
-0.0087105036 -0.0109985 -0.10063963
0.059515789 -0.010998501 -0.1037046
0.070397213 -0.0109985 -0.10567775
0.09991654 -0.0109985 -0.10521915
0.11511261 -0.013266016 -0.106008
0.13664475 -0.0152763 -0.106008
0.15228242 -0.018733561 -0.106008
0.17009109 -0.010998501 -0.10565744
0.22778134 -0.017522063 -0.10600799
0.30790427 -0.0109985 -0.10593695
0.32634205 -0.011391391 -0.10527479
0.31400171 -0.0079826713 -0.10258188
0.3251842 -0.0096633146 -0.10600801
-0.36363631 0.0069626486 -0.10340634
-0.33569098 0.0016307893 -0.10600799
0.33674636 0.0052490905 -0.106008
-0.36699763 0.018551134 -0.10600801
-0.3523168 0.01136048 -0.10361546
0.37223402 0.017240494 -0.10600801
-0.37364233 0.020744639 -0.106008
0.37709102 0.024602585 -0.10596424
-0.40368485 0.030853909 -0.10395401
0.3877579 0.033363469 -0.10290137
0.41478536 0.044001654 -0.10080525
-0.21462889 -0.0202167 -0.098679885
-0.11035297 -0.0202167 -0.091482088
-0.052689128 -0.0202167 -0.093176201
0.020873159 -0.0202167 -0.096740641
0.041949078 -0.0202167 -0.093949758
0.07063558 -0.0202167 -0.094848976
0.13559134 -0.0202167 -0.094883442
0.15301786 -0.0202167 -0.091218054
0.19520621 -0.0202167 -0.097591028
0.22956017 -0.0202167 -0.094290689
-0.32116735 -0.015762724 -0.095158175
-0.27951899 -0.0109985 -0.09154211
-0.26918444 -0.0109985 -0.093682371
-0.20192549 -0.0109985 -0.093424425
-0.19566259 -0.010998499 -0.0912918
-0.15571006 -0.010998501 -0.095249042
-0.10687569 -0.0109985 -0.099285893
-0.097686358 -0.010998499 -0.090313114
-0.04516682 -0.0109985 -0.091834769
-0.0070762932 -0.0109985 -0.095399082
0.04124292 -0.010998499 -0.098342724
0.059602655 -0.010998501 -0.09282162
0.065555632 -0.0109985 -0.090294637
0.11317097 -0.0109985 -0.094661295
0.14243299 -0.010998499 -0.092469595
0.17912972 -0.0109985 -0.092060342
0.24311572 -0.0109985 -0.096194237
0.27829581 -0.0109985 -0.098302878
0.28575331 -0.0109985 -0.095412478
0.31141317 -0.019531334 -0.093960002
-0.34272647 -0.0042263321 -0.099075004
-0.36930603 0.009996539 -0.095010385
-0.34196302 0.0058201854 -0.098731972
-0.33449289 0.0018229363 -0.092879079
0.33852145 0.0065320414 -0.09640006
-0.38095129 0.018039864 -0.093060441
-0.37875366 0.015052018 -0.096929982
-0.40052748 0.02670454 -0.095316447
0.37747377 0.020377317 -0.097089246
-0.40094438 0.037382681 -0.097162023
-0.39139336 0.03227127 -0.098503895
0.38036564 0.031302258 -0.098572619
0.42010504 0.054826956 -0.091148816
0.43323225 0.051893011 -0.092583142
-0.26263645 -0.0202167 -0.081454784
-0.21317305 -0.0202167 -0.087057248
-0.1171167 -0.0202167 -0.082865268
-0.038658146 -0.0202167 -0.084532239
0.030054279 -0.0202167 -0.089061752
0.087789342 -0.0202167 -0.085653551
0.16763671 -0.0202167 -0.084776096
0.25875291 -0.0202167 -0.088863976
0.29830486 -0.0202167 -0.080713876
-0.29300487 -0.0109985 -0.081337765
-0.14530921 -0.0109985 -0.082749888
-0.11405691 -0.0109985 -0.086983472
-0.10050562 -0.0109985 -0.082420662
-0.091848291 -0.010998501 -0.08496584
-0.065129399 -0.0109985 -0.087606817
-0.054433897 -0.010998501 -0.080927044
0.045185797 -0.010998501 -0.082366981
0.065835759 -0.0109985 -0.087727606
0.086158335 -0.0109985 -0.084733061
0.19659814 -0.0109985 -0.081466459
0.23146631 -0.0109985 -0.082241766
0.308907 -0.018528389 -0.087425947
0.32377043 -0.012913759 -0.087378085
-0.33086899 -0.00011621043 -0.085178606
-0.36574572 0.0080914209 -0.086142279
-0.3392095 0.0043467712 -0.084678352
-0.38141346 0.016475299 -0.083690546
0.37669826 0.018419024 -0.086319149
-0.37779152 0.024991989 -0.082162142
0.36207807 0.020476585 -0.088100575
0.38202095 0.021569848 -0.087811753
0.39248174 0.038474873 -0.08860822
-0.43385246 0.054991651 -0.081645459
0.43509877 0.052991036 -0.088867828
0.44357383 0.064234324 -0.082492031
0.14961068 -0.083311483 -0.078354202
0.15576291 -0.086000174 -0.077030696
0.16654085 -0.087122023 -0.076491214
0.17622475 -0.08018823 -0.071314596
-0.19273482 -0.071964167 -0.071915329
-0.18400802 -0.075603902 -0.072476432
0.17782538 -0.077612199 -0.074340269
-0.30060026 -0.0202167 -0.072178014
-0.29181391 -0.0202167 -0.071010128
-0.22409201 -0.0202167 -0.075513989
-0.21842569 -0.0202167 -0.074533366
0.007396847 -0.0202167 -0.071714148
0.045048498 -0.0202167 -0.071264252
0.09481065 -0.0202167 -0.079922549
0.17500174 -0.0202167 -0.078319177
0.2092158 -0.0202167 -0.074869789
0.23472863 -0.0202167 -0.076914981
0.24324715 -0.0202167 -0.07743869
0.28872886 -0.0202167 -0.076029144
-0.31845352 -0.017214926 -0.070450276
-0.19913533 -0.0109985 -0.073492937
-0.17106481 -0.0109985 -0.07780654
-0.15151118 -0.010998499 -0.071324252
-0.14111958 -0.010998501 -0.079791963
-0.077638268 -0.010998501 -0.078543492
0.0039743483 -0.0109985 -0.073894918
0.081846803 -0.0109985 -0.077580333
0.14665937 -0.0109985 -0.072727442
0.19719809 -0.0109985 -0.074574843
0.24393727 -0.0109985 -0.070414275
-0.35104731 0.00022619637 -0.078248724
-0.33652136 0.0029083553 -0.070235439
-0.35543877 0.013031038 -0.075437844
0.35323417 0.015241355 -0.077082016
-0.38548309 0.029108291 -0.076543093
0.37757862 0.020200238 -0.079044171
0.39278507 0.027941663 -0.070621938
0.38197681 0.032256074 -0.075580522
0.40598413 0.035755023 -0.07537315
-0.4346841 0.044982359 -0.071425527
-0.4249807 0.045016941 -0.076393396
-0.41660479 0.045762111 -0.074053392
0.41456664 0.040836044 -0.074421152
0.42867142 0.059897885 -0.07479848
0.45203424 0.063016035 -0.07395035
0.15768209 -0.07780835 -0.060585558
0.17930377 -0.073647186 -0.0647019
-0.20911752 -0.06618993 -0.064776585
-0.20151567 -0.058510147 -0.069135897
-0.29471856 -0.0202167 -0.06005827
-0.1602055 -0.0202167 -0.064630277
-0.12459503 -0.0202167 -0.061486848
-0.10819696 -0.0202167 -0.063964002
-0.094410852 -0.0202167 -0.069216147
-0.05990985 -0.0202167 -0.060784712
-0.0051535368 -0.0202167 -0.067475103
0.047477037 -0.0202167 -0.063996777
0.059785523 -0.0202167 -0.063936643
0.12727638 -0.0202167 -0.06254378
0.20891398 -0.0202167 -0.064175159
0.21888357 -0.0202167 -0.068247929
0.27046394 -0.0202167 -0.060454842
0.30432406 -0.0202167 -0.067127764
-0.32479391 -0.013822149 -0.068138368
-0.20132944 -0.010998499 -0.062614791
-0.016613293 -0.010998501 -0.065111399
0.0090116635 -0.0109985 -0.069188088
0.028160907 -0.0109985 -0.066296697
0.11867329 -0.0109985 -0.060365073
0.15339899 -0.0109985 -0.06497319
0.2509076 -0.010998501 -0.064153813
0.26927978 -0.0109985 -0.064175464
0.30870372 -0.013503095 -0.064437136
-0.3415418 -0.0048602549 -0.063713513
-0.34900379 0.0095876846 -0.067502469
0.33151722 0.0023858154 -0.065833621
0.36864752 0.013653055 -0.067032807
0.36462805 0.021986064 -0.06520927
0.3935678 0.028405005 -0.063499026
-0.40059561 0.037196055 -0.062417354
0.38444573 0.033717636 -0.063860483
-0.43490082 0.045098342 -0.061239731
-0.42849249 0.041669168 -0.060887258
-0.4185842 0.046821214 -0.064704202
-0.44819823 0.05221403 -0.066542916
0.44326946 0.057827685 -0.069499537
-0.44547442 0.061211683 -0.066756412
0.46076885 0.068186626 -0.06453605
-0.21508554 -0.076563537 -0.059943728
-0.20719229 -0.071836136 -0.058237761
-0.19096573 -0.062957853 -0.059917599
-0.20211451 -0.056644291 -0.059917599
-0.29989147 -0.0202167 -0.057156358
-0.26027656 -0.0202167 -0.053934872
-0.19841029 -0.0202167 -0.053382821
-0.17016889 -0.0202167 -0.057025671
-0.065224603 -0.0202167 -0.05938071
-0.043220282 -0.0202167 -0.057761095
0.035515811 -0.0202167 -0.056049936
0.11816467 -0.0202167 -0.052492477
0.13556151 -0.0202167 -0.058790836
0.18536198 -0.0202167 -0.058133654
0.22361889 -0.0202167 -0.057883129
-0.32446706 -0.013997029 -0.059759647
-0.31684744 -0.018074343 -0.052010998
-0.25969303 -0.0109985 -0.052401043
-0.22627088 -0.0109985 -0.054156505
-0.20075643 -0.0109985 -0.051495615
-0.19184633 -0.0109985 -0.056561369
-0.17447624 -0.0109985 -0.056150582
-0.11236725 -0.0109985 -0.051767968
-0.073304281 -0.010998501 -0.055210833
-0.0054215193 -0.0109985 -0.053662103
0.012837097 -0.0109985 -0.05532641
0.062042389 -0.0109985 -0.059146728
0.1123938 -0.0109985 -0.056354411
0.1477921 -0.0109985 -0.050331421
0.22581616 -0.0109985 -0.051174574
0.25557053 -0.0109985 -0.052488528
-0.34966296 -0.00051458366 -0.052983813
-0.33721775 -0.0071740835 -0.056304149
-0.31349236 -0.0094144111 -0.050152075
0.32309303 -0.0026009453 -0.053447042
0.3574385 0.0070174085 -0.056274183
-0.38104212 0.01787007 -0.051475231
-0.35829717 0.014560546 -0.057104863
-0.37801915 0.02418131 -0.05183202
0.38242799 0.021810805 -0.050705284
-0.38730702 0.030084394 -0.059451252
-0.4225471 0.048941605 -0.05276452
-0.41948617 0.047303833 -0.05271098
0.39630583 0.040738661 -0.057424638
0.40403187 0.045312256 -0.056452952
-0.45587239 0.066775881 -0.055882961
0.45835373 0.066756956 -0.054694045
-0.19240424 -0.06108268 -0.047885522
-0.19342555 -0.059766941 -0.041866552
-0.26485261 -0.0202167 -0.041909065
-0.22169967 -0.0202167 -0.046131767
-0.083760686 -0.0202167 -0.042285629
-0.029405518 -0.0202167 -0.048809402
-0.012058772 -0.0202167 -0.040324554
0.1227835 -0.0202167 -0.042775203
0.19472508 -0.0202167 -0.048925515
0.21583709 -0.0202167 -0.046235986
0.2467797 -0.0202167 -0.047605596
0.25512409 -0.0202167 -0.047349673
0.28393066 -0.0202167 -0.045458112
0.29669049 -0.0202167 -0.044466533
-0.31078237 -0.01565937 -0.044529632
-0.28005069 -0.0109985 -0.041769281
-0.21357834 -0.0109985 -0.048370101
-0.20985575 -0.0109985 -0.046229087
-0.16055948 -0.010998499 -0.049213786
-0.12350818 -0.0109985 -0.048093718
-0.10621554 -0.0109985 -0.044339802
-0.056592003 -0.010998501 -0.040330071
-0.048024129 -0.0109985 -0.040109128
-0.027522102 -0.0109985 -0.046300326
-0.0031339079 -0.010998501 -0.046829715
0.075451136 -0.0109985 -0.046395242
0.088733688 -0.0109985 -0.049287256
0.11427616 -0.0109985 -0.046948254
0.17985855 -0.0109985 -0.048536159
0.23641287 -0.0109985 -0.042073898
0.26524445 -0.0109985 -0.048232086
0.29583931 -0.0109985 -0.041865967
-0.34608787 -0.0024276313 -0.046353094
-0.36240315 0.0063027674 -0.04368642
0.35400012 0.015694764 -0.041260369
0.3738724 0.026460547 -0.048837557
-0.4608373 0.058977388 -0.04409574
0.43398273 0.05233039 -0.041922402
-0.47027382 0.070093818 -0.040142361
-0.46216381 0.0701425 -0.04225358
0.46860605 0.072826162 -0.047059596
-0.27193856 -0.0202167 -0.037976597
-0.18605871 -0.0202167 -0.035389997
-0.1368247 -0.0202167 -0.038691886
-0.12839684 -0.0202167 -0.035453986
-0.058751635 -0.0202167 -0.037084319
-0.018641312 -0.0202167 -0.039291658
0.11438666 -0.0202167 -0.033361197
0.21489087 -0.0202167 -0.032907054
0.23710434 -0.0202167 -0.035223916
0.25727701 -0.0202167 -0.033696383
0.30275512 -0.0202167 -0.031971641
-0.25416675 -0.0109985 -0.038496241
-0.18682334 -0.010998501 -0.030615304
-0.15862432 -0.0109985 -0.032685913
-0.1415371 -0.0109985 -0.033817254
-0.12222909 -0.0109985 -0.03008824
-0.052183572 -0.0109985 -0.034709003
0.075860478 -0.0109985 -0.030289011
0.12624604 -0.0109985 -0.036766436
0.13979931 -0.0109985 -0.038648739
0.19212659 -0.0109985 -0.032393001
0.24490203 -0.010998499 -0.036532775
0.308907 -0.016495731 -0.034337021
-0.33391601 -0.0089408597 -0.039259076
-0.32858887 -0.001336301 -0.032231458
0.33928975 0.0069868257 -0.03717421
-0.38085639 0.0182172 -0.031823263
-0.35168368 0.011021689 -0.03310122
0.36928433 0.01403004 -0.039564069
0.37272125 0.016064694 -0.03214471
-0.398343 0.025535448 -0.032116815
-0.38009274 0.026223522 -0.031763121
0.39616793 0.03530053 -0.033642977
-0.44063377 0.048166156 -0.032519009
-0.41702676 0.045987889 -0.03881868
-0.19404069 -0.073321387 -0.021100447
0.16938742 -0.074059308 -0.02115668
-0.20800227 -0.061952379 -0.027649645
-0.19857313 -0.05726622 -0.022083499
-0.17293487 -0.0202167 -0.028077886
-0.1561674 -0.0202167 -0.02662776
-0.10061303 -0.0202167 -0.029337272
0.020605378 -0.0202167 -0.02780368
0.03054826 -0.0202167 -0.021211859
0.049124919 -0.0202167 -0.029658105
0.16301286 -0.0202167 -0.022089446
0.17927876 -0.0202167 -0.022085339
0.22863558 -0.0202167 -0.02071419
-0.32146123 -0.015605481 -0.024840103
-0.30298835 -0.0109985 -0.023677308
-0.28908187 -0.0109985 -0.02634833
-0.27098972 -0.0109985 -0.024086783
-0.19656688 -0.0109985 -0.022043757
0.0068058781 -0.0109985 -0.027128164
0.065189451 -0.0109985 -0.026917947
0.09073402 -0.010998501 -0.028453412
0.15856224 -0.0109985 -0.024793461
0.16324428 -0.0109985 -0.021661902
0.22153437 -0.010998501 -0.026595697
0.24407722 -0.0109985 -0.028717134
0.27926478 -0.010998501 -0.028780878
0.30865988 -0.0109985 -0.027092302
-0.33896083 -0.0062413588 -0.024091257
-0.3146075 -0.0088177072 -0.028952643
-0.3421008 0.0058938898 -0.02568179
-0.33734238 0.00334768 -0.020693503
0.35396171 0.0049592056 -0.024126634
0.35015908 0.013421028 -0.025109418
0.36950392 0.014160048 -0.024666697
0.37863988 0.019568419 -0.023980606
-0.3869645 0.029901091 -0.022537362
0.37960178 0.020137826 -0.021036096
-0.40342799 0.03871176 -0.020166846
-0.39851555 0.03608286 -0.028778803
0.39683837 0.041053943 -0.024567848
-0.43012178 0.052995007 -0.026801441
-0.47018802 0.063981332 -0.027674086
-0.46545583 0.061448798 -0.022306224
-0.19193399 -0.070919208 -0.015163748
0.16800044 -0.075459346 -0.016203815
0.17026725 -0.071938813 -0.015413743
-0.20889772 -0.068095535 -0.018013848
-0.19200429 -0.06160412 -0.010285731
-0.20490609 -0.023669863 -0.0144487
-0.19484036 -0.024744701 -0.0144487
-0.1161727 -0.0202167 -0.013143516
-0.093585335 -0.0202167 -0.019508798
-0.063206092 -0.0202167 -0.018062633
-0.048995327 -0.0202167 -0.014556732
-0.027541675 -0.0202167 -0.019210814
0.013501838 -0.0202167 -0.016895946
0.036910363 -0.0202167 -0.016642153
0.072846159 -0.0202167 -0.011605941
0.12270142 -0.0202167 -0.010811942
0.14266032 -0.02919269 -0.0144487
0.18083709 -0.0202167 -0.011066916
0.22391658 -0.0202167 -0.015264167
0.23619586 -0.0202167 -0.018599059
0.26970157 -0.0202167 -0.018621823
0.2771669 -0.0202167 -0.016547434
0.28785196 -0.0202167 -0.018406484
-0.31274915 -0.015142273 -0.010330558
-0.22354361 -0.010998501 -0.010253932
-0.12108456 -0.010998501 -0.014209755
-0.090426959 -0.0109985 -0.019477202
-0.053651996 -0.0109985 -0.01675061
-0.043843355 -0.0109985 -0.013731731
-0.035943225 -0.010998499 -0.018629592
-0.028019026 -0.010998499 -0.014868602
-0.018546045 -0.0109985 -0.014732337
-0.0026248097 -0.0109985 -0.017320957
0.063642964 -0.0109985 -0.011692334
0.12452395 -0.0109985 -0.013514662
0.13730527 -0.0109985 -0.018506795
0.14679459 -0.0109985 -0.01964156
0.22488815 -0.0109985 -0.010857735
0.24395794 -0.010998501 -0.017349478
0.29373258 -0.010998499 -0.01208185
0.3155517 -0.015646663 -0.01813535
0.32049713 -0.014851538 -0.019382099
0.34150422 -0.002415512 -0.019126009
0.38386399 0.022660848 -0.01547677
0.38729554 0.035404682 -0.017994678
0.40332377 0.034180056 -0.017783985
-0.46175131 0.059466463 -0.01752026
-0.44724095 0.051701777 -0.017560463
-0.43392134 0.055028513 -0.014935232
0.41422683 0.051347263 -0.013860857
-0.44912383 0.063164651 -0.012412892
0.44887716 0.071858928 -0.011790074
0.47484267 0.08664564 -0.011337533
-0.20435959 -0.058256559 -0.0064401724
-0.19806862 -0.057332829 -0.0079348702
-0.20574637 -0.038277391 -0.0027021267
-0.30371773 -0.0202167 -0.0013229363
-0.2012305 -0.029434999 -0.0079540694
-0.17587212 -0.029434998 -0.0014833249
0.063152455 -0.0202167 -0.007388941
0.084938183 -0.0202167 -0.0038878284
0.124948 -0.020259896 -0.0046506952
0.1538396 -0.029434998 -0.0067714816
0.17455694 -0.029434999 -0.0051757889
0.23718002 -0.0202167 -0.0042854259
0.25048068 -0.0202167 -0.0097789001
0.27702975 -0.0202167 -0.0025644861
0.2911824 -0.0202167 -0.0076309778
-0.31079257 -0.011485488 -0.0062199421
-0.26276588 -0.0109985 -0.0069503114
-0.23610164 -0.0109985 -0.0060276035
-0.1160076 -0.0109985 -0.0035867011
-0.10196035 -0.0109985 -0.0069836164
-0.085223667 -0.0109985 -0.0063356003
-0.072940342 -0.0109985 -0.0092689777
-0.05041378 -0.0109985 -0.00072046818
0.0046962202 -0.0109985 -0.0094906203
0.016876496 -0.0109985 -0.0024902052
0.15002221 -0.0109985 -0.0046627
0.2047527 -0.0109985 -0.0014192667
0.22872642 -0.0109985 -0.001662123
0.31239372 -0.017331321 -0.0039627347
-0.34737533 0.008716302 -0.0032363385
0.33095038 0.0020502624 -0.00050163362
0.34126619 0.0081568006 -0.0066608097
-0.41534016 0.034631278 -0.0013376195
-0.4186157 0.046838067 -0.003457699
0.41277266 0.050486483 -0.00078855362
0.43041426 0.050218046 -0.0058220774
0.44099271 0.056479968 -0.0059297457
-0.45921227 0.068563119 -0.0093808547
0.43253815 0.062186837 -0.0056571029
-0.47363511 0.076280117 -0.005629872
0.45969263 0.078261584 -0.004983278
0.47408587 0.076070428 -0.0087684132
0.15692465 -0.077506661 0.0085965116
0.15767707 -0.061119694 0.0062542972
0.1699771 -0.066227123 0.0096539557
-0.19873405 -0.057244979 0.0060514323
-0.20807359 -0.039422318 0.0085525643
-0.30090708 -0.0202167 0.0063299723
-0.23903926 -0.0202167 0.0077444063
-0.17217997 -0.029434999 0.0015437328
-0.13722795 -0.0202167 0.0040322323
-0.12438922 -0.0202167 0.0072571542
-0.11822756 -0.0202167 0.0011369372
-0.089187384 -0.0202167 0.0021071816
-0.0039723571 -0.0202167 0.0095294835
0.01305001 -0.0202167 0.00144959
0.0543648 -0.0202167 0.0031655915
0.081193656 -0.0202167 0.0074487273
0.090790913 -0.0202167 0.0052634734
0.11685591 -0.0202167 0.0079054711
0.12599832 -0.024825849 0.0044238279
0.14557537 -0.029435001 0.0012306636
0.23581401 -0.0202167 0.0036789654
-0.2754918 -0.010998501 0.0021275878
-0.26137513 -0.0109985 0.001037322
-0.1660521 -0.010998501 0.009669601
-0.11229005 -0.0109985 0.007839689
-0.088224523 -0.0109985 0.0020431504
-0.059097812 -0.010998499 0.0053962022
0.092921019 -0.010998499 0.0051175449
0.13129717 -0.0109985 0.004581973
0.17302148 -0.010998501 0.0054185996
0.20532051 -0.0109985 0.00033939444
0.30008885 -0.0109985 0.0040024444
0.31169489 -0.014793766 0.0019389373
-0.33691549 -0.0073358114 0.009800043
0.31937599 -0.0048012892 0.0033544265
0.32248434 -0.0029612838 0.0070092101
-0.35119066 0.00030290143 0.0058391504
-0.33341265 0.0012448819 0.002644388
0.34117043 0.008100111 0.0044228639
0.35402623 0.0049973866 0.0085489601
-0.3855986 0.018715043 0.00017233565
0.37448859 0.02541972 0.0041407272
0.38902187 0.025714042 0.0068981983
-0.41389713 0.033859115 0.0067872889
0.37957439 0.030833835 0.0055793952
0.39061514 0.037369836 0.0038136393
-0.41979605 0.047469616 0.0025621466
-0.40957546 0.042001005 0.0074642096
0.3975648 0.041483957 0.0033834972
0.40877271 0.048118662 0.0018931217
0.44282323 0.057563532 0.0082200933
-0.4507378 0.064028323 0.0026917383
0.45416576 0.074989721 0.0068174973
-0.19991541 -0.075525515 0.012308501
-0.23552823 -0.0202167 0.014822375
-0.20440327 -0.029434998 0.01835241
-0.1803551 -0.029434998 0.014588658
-0.13967484 -0.0202167 0.019889511
-0.10871524 -0.0202167 0.014038948
-0.0056496952 -0.0202167 0.01314692
0.10966589 -0.0202167 0.013533428
0.11439429 -0.0202167 0.017579954
0.17580172 -0.029434999 0.015680648
0.27782586 -0.0202167 0.014743239
-0.29757124 -0.0109985 0.016283445
-0.25037667 -0.0109985 0.012516918
-0.21250296 -0.0109985 0.013935417
-0.20717792 -0.0109985 0.01135122
-0.12655847 -0.010998499 0.012519743
-0.098375723 -0.0109985 0.016127512
-0.077421203 -0.0109985 0.017870896
-0.062724113 -0.0109985 0.012307744
-0.053869724 -0.0109985 0.015865434
-0.0078414539 -0.0109985 0.010286772
0.046781521 -0.0109985 0.01532055
0.1340443 -0.0109985 0.01546358
0.18139631 -0.0109985 0.018575938
0.20547479 -0.0109985 0.015544247
0.21026373 -0.010998499 0.013038276
0.29725748 -0.0109985 0.017722923
0.30213916 -0.0109985 0.013905495
0.3122865 -0.019292494 0.010029517
-0.31992167 -0.0059741088 0.012635589
-0.3599509 0.015445469 0.010206776
-0.3791407 0.025714017 0.018551316
0.38323507 0.02228855 0.019756386
-0.41375399 0.033782508 0.01364655
-0.40388292 0.038955167 0.015353967
0.38329139 0.033034291 0.016254369
0.39254165 0.038510323 0.010675885
0.47162977 0.07461632 0.018039051
0.15296067 -0.06599237 0.021895194
0.16079968 -0.060313933 0.02448382
-0.20243627 -0.024644315 0.020191399
-0.18457431 -0.021554381 0.020191399
-0.098042183 -0.0202167 0.023463523
0.022698425 -0.0202167 0.021424871
0.038729604 -0.0202167 0.029396553
0.054312199 -0.0202167 0.023800023
0.11729995 -0.0202167 0.025284046
0.1692089 -0.027871732 0.024710499
0.19875191 -0.0202167 0.020352911
0.23570405 -0.0202167 0.02549237
0.3054651 -0.0202167 0.028622225
-0.27406707 -0.010998501 0.02919146
-0.21023938 -0.0109985 0.020428924
-0.20292129 -0.0109985 0.029575013
-0.14785892 -0.0109985 0.022374138
-0.034000866 -0.0109985 0.020440865
-0.015535109 -0.0109985 0.02659668
0.013177842 -0.0109985 0.021592194
0.024669051 -0.0109985 0.027697071
0.091393098 -0.0109985 0.021760393
0.10719819 -0.0109985 0.021431185
0.16615179 -0.010998501 0.024583748
0.25128895 -0.0109985 0.020407971
0.26123056 -0.0109985 0.024795581
0.28043681 -0.0109985 0.022715893
0.31073499 -0.014086177 0.023373527
0.32556826 -0.0064925444 0.025584359
-0.36428833 0.0073115584 0.026471648
-0.33433095 0.0017362777 0.026356228
0.3373287 0.0058259722 0.022354154
-0.35913661 0.015009751 0.02545223
0.36582214 0.011980455 0.027766665
0.37931997 0.019971019 0.024378266
0.37551701 0.028431943 0.029806867
-0.39341915 0.033355419 0.020821508
0.41423205 0.040637948 0.027607869
-0.43201369 0.054007553 0.022081826
0.41960692 0.054532103 0.023846112
0.43438399 0.052567936 0.023422331
-0.46634084 0.061922383 0.023836492
0.4431271 0.068455018 0.027847487
0.45096299 0.073093705 0.02571048
0.46747333 0.082867727 0.0264096
-0.30238372 -0.0202167 0.036538452
-0.27569932 -0.0202167 0.035414942
-0.18736078 -0.0202167 0.038809724
0.021309368 -0.0202167 0.037702166
0.040467381 -0.0202167 0.033205524
0.09259931 -0.0202167 0.030625928
0.18349397 -0.0202167 0.033200998
0.2112429 -0.0202167 0.03423766
-0.30427161 -0.0109985 0.03502959
-0.27707398 -0.0109985 0.030266248
-0.25185156 -0.0109985 0.034182429
-0.22603944 -0.010998499 0.038756665
-0.21134533 -0.0109985 0.03611362
-0.17743582 -0.0109985 0.036806237
-0.099785872 -0.0109985 0.032105148
-0.047580168 -0.0109985 0.036280978
-0.031473696 -0.0109985 0.039938271
0.10979296 -0.0109985 0.039775237
0.13495269 -0.0109985 0.036203496
0.15527062 -0.010998501 0.033777256
0.23783471 -0.0109985 0.03026888
0.31566513 -0.017712032 0.03111417
-0.33471647 -0.0085125249 0.031091172
0.32285866 -0.002739687 0.030395892
-0.3511391 0.0002753255 0.039478172
0.37107968 0.025805149 0.033428498
0.38962942 0.026073694 0.033657063
-0.40507331 0.039592102 0.030153319
0.38330501 0.033042338 0.031652674
-0.42362511 0.049518399 0.031146768
-0.43612295 0.056206815 0.036959495
-0.42656437 0.051091097 0.030472891
0.43636471 0.053740408 0.032576017
-0.45985144 0.06890513 0.03820141
0.43790734 0.065365151 0.031398669
0.45276612 0.063449286 0.031945374
-0.20547791 -0.073559858 0.049631879
-0.19206768 -0.071093664 0.044701386
-0.30572265 -0.0202167 0.042200908
-0.29977858 -0.0202167 0.04904782
-0.20660269 -0.0202167 0.043044887
-0.14778502 -0.0202167 0.041071564
0.13543074 -0.0202167 0.047161404
0.23942283 -0.0202167 0.046805017
0.24329448 -0.0202167 0.045231447
0.25013605 -0.0202167 0.048477579
-0.29641509 -0.010998501 0.045915313
-0.25314802 -0.0109985 0.041896351
-0.235672 -0.0109985 0.047529142
-0.20876944 -0.0109985 0.044192638
-0.17930868 -0.0109985 0.047357377
-0.024181426 -0.0109985 0.043943945
-0.0026638024 -0.0109985 0.04744124
0.014328506 -0.0109985 0.041908499
0.055752143 -0.0109985 0.042086631
0.061280146 -0.0109985 0.040604852
0.098416872 -0.0109985 0.041380923
0.23511158 -0.0109985 0.045772482
0.25899386 -0.010998501 0.041565325
0.308907 -0.017521389 0.041947287
0.31835639 -0.016118824 0.041854575
0.32937372 -0.0095966617 0.046609599
0.33798993 -0.0044959453 0.048374332
-0.34156966 0.0056096902 0.04126469
0.33157587 0.0024205274 0.047655467
0.36114758 0.0092131607 0.045179926
0.34461409 0.010138619 0.049496926
-0.39787871 0.02528698 0.047727037
-0.37013406 0.020894459 0.046356715
0.36991751 0.025117215 0.045388021
0.37591642 0.024997752 0.045199044
-0.39782172 0.035711538 0.04381752
0.37936398 0.030709296 0.041648798
-0.44137806 0.048564434 0.046746906
0.42616433 0.047702119 0.044428185
0.44149822 0.067490771 0.042491112
0.44714117 0.070831247 0.047375333
0.15956727 -0.078443818 0.059909519
0.16475046 -0.060949132 0.053907815
-0.27592567 -0.0202167 0.057736307
-0.24617702 -0.0202167 0.059377559
-0.062407315 -0.0202167 0.054397821
-0.025928997 -0.0202167 0.052298419
-0.010937663 -0.0202167 0.058760997
0.02155865 -0.0202167 0.050052747
0.055254869 -0.0202167 0.050565876
0.1102528 -0.0202167 0.052327506
0.138273 -0.0202167 0.054866366
0.24066989 -0.0202167 0.052299492
0.29036394 -0.0202167 0.058321938
-0.22880271 -0.0109985 0.057298534
-0.20404953 -0.0109985 0.05848806
-0.066292621 -0.0109985 0.056466252
-0.040385891 -0.0109985 0.054970138
-0.039854843 -0.0109985 0.051171377
0.036186665 -0.0109985 0.05436749
0.22212824 -0.0109985 0.051552866
0.30854297 -0.0109985 0.050895788
-0.336384 -0.0076202131 0.055976965
0.31201217 -0.0091603752 0.054189857
0.32919347 -0.0097033754 0.050013125
0.36088204 0.0090559702 0.056882069
0.3466619 0.011350838 0.05045262
-0.39980814 0.026319575 0.052355118
-0.410478 0.03202951 0.056280449
-0.43636608 0.056336932 0.056322284
-0.45065141 0.063982077 0.054018404
0.17361894 -0.081661321 0.069135897
0.16257875 -0.078525327 0.067025542
0.17771736 -0.072770521 0.069135897
0.15445042 -0.064057127 0.064755067
-0.27253959 -0.0202167 0.069426678
-0.081268489 -0.0202167 0.067591749
-0.0053952187 -0.0202167 0.065037668
0.040397577 -0.0202167 0.062791772
0.17181626 -0.0202167 0.069950156
0.2229647 -0.0202167 0.060709707
-0.30788723 -0.0109985 0.063273877
-0.28963026 -0.010998501 0.067242883
-0.22374095 -0.0109985 0.069003172
-0.18600151 -0.0109985 0.068601996
-0.17973436 -0.010998501 0.062050313
-0.033510391 -0.010998501 0.064998411
-0.024868812 -0.0109985 0.0663912
0.011963397 -0.0109985 0.062324218
0.03364392 -0.010998501 0.064065903
0.086269259 -0.0109985 0.065935165
0.090332761 -0.0109985 0.062606514
0.16613761 -0.010998501 0.063873246
0.17941304 -0.0109985 0.068391167
0.20925525 -0.0109985 0.067621797
0.31034505 -0.01342751 0.066359162
0.32714498 -0.010916071 0.063866831
0.33193129 -0.0080826068 0.064102285
-0.3414517 0.0055465819 0.063887864
-0.37944704 0.015423069 0.068717264
-0.35060921 0.010446736 0.062902488
0.35421151 0.015819892 0.067990258
0.36022875 0.019381847 0.064567283
-0.36887583 0.020221183 0.06702473
-0.41369024 0.033748396 0.063636094
0.3965919 0.030195124 0.065308183
0.40302837 0.034005202 0.06820038
0.41217908 0.039422542 0.069169991
-0.40600145 0.040088702 0.067586504
0.42428762 0.046591055 0.066211581
-0.43353349 0.05482094 0.063765995
0.42235529 0.056159034 0.060213517
-0.44518673 0.061057728 0.066043101
0.44076893 0.06705907 0.063123122
-0.20386133 -0.084225021 0.077634417
0.16375044 -0.087588146 0.076993175
-0.21781082 -0.070411921 0.070987813
0.17887275 -0.0750852 0.072483726
-0.19633709 -0.048342496 0.073506743
-0.29240695 -0.0202167 0.07890477
-0.27410737 -0.0202167 0.076095864
-0.25903365 -0.0202167 0.07283783
-0.24019116 -0.0202167 0.077574328
-0.22844122 -0.0202167 0.076034941
-0.18321368 -0.0202167 0.079480745
-0.1008696 -0.0202167 0.072788924
-0.074103579 -0.0202167 0.077997088
0.10186714 -0.0202167 0.072162293
0.16013506 -0.0202167 0.070848241
-0.3136462 -0.016818805 0.07583759
-0.28662863 -0.0109985 0.070713893
-0.24068536 -0.0109985 0.072156958
-0.14644718 -0.0109985 0.071109213
-0.073808841 -0.0109985 0.071222395
-0.025498942 -0.0109985 0.072523594
0.0062683001 -0.010998501 0.075524703
0.17539512 -0.0109985 0.077611431
0.19093761 -0.0109985 0.077810794
0.23233685 -0.0109985 0.073774993
0.26141489 -0.0109985 0.077236995
0.32561645 -0.011820942 0.074760228
-0.34606999 -0.0024371874 0.077519201
0.32468343 -0.0016595209 0.074069075
-0.38097158 0.018001936 0.071104109
-0.34988689 0.010060223 0.076139688
0.36715978 0.012772338 0.072596863
-0.40272254 0.027879259 0.070913844
-0.39376968 0.023087952 0.075322002
-0.37507477 0.023538234 0.071749978
-0.42293596 0.049149659 0.072530419
0.4212625 0.044800151 0.079163007
0.42632389 0.058508258 0.073726773
-0.4473038 0.061018489 0.077324264
0.43441918 0.063300304 0.079425864
-0.20860958 -0.081788346 0.087572403
0.16619128 -0.087266788 0.084061757
-0.21659073 -0.064301103 0.086701199
0.16356124 -0.060508993 0.081242137
-0.29613596 -0.0202167 0.086729109
-0.27427787 -0.0202167 0.087780841
-0.20981953 -0.0202167 0.083309956
-0.16843997 -0.0202167 0.084711134
-0.10167767 -0.0202167 0.08222425
-0.096731216 -0.0202167 0.083879665
-0.047340132 -0.0202167 0.081301272
-0.038895637 -0.0202167 0.087963775
-0.018003486 -0.0202167 0.085973144
0.0046644434 -0.0202167 0.088273123
0.017689042 -0.0202167 0.089808494
0.045013331 -0.0202167 0.088298984
0.13800557 -0.0202167 0.089518763
0.16166902 -0.0202167 0.084026501
0.19749999 -0.0202167 0.089937434
0.2910611 -0.0202167 0.080358475
-0.20176584 -0.0109985 0.083016694
-0.1913697 -0.0109985 0.082736932
-0.078242458 -0.0109985 0.081690535
-0.06510485 -0.010998501 0.082840227
0.063979506 -0.0109985 0.084646583
0.14791241 -0.0109985 0.081339575
0.17195264 -0.010998499 0.088931039
0.18781188 -0.0109985 0.088744558
0.21255371 -0.0109985 0.080090471
0.29542673 -0.0109985 0.083707675
0.32795143 -0.010438653 0.089793123
-0.32317078 -0.0042355061 0.08472833
-0.33438334 0.0017643035 0.084618226
0.3523801 0.0040228879 0.087741554
-0.36327967 0.017226676 0.082975723
0.37143564 0.015303608 0.084715694
0.38091964 0.020917941 0.081752829
0.38964939 0.036798131 0.089070626
-0.42756093 0.051624451 0.082394838
0.4231472 0.056627788 0.083973438
-0.27448106 -0.0202167 0.090876006
-0.19482681 -0.0202167 0.099512875
-0.14387071 -0.0202167 0.090066865
-0.10107161 -0.0202167 0.097776711
-0.091873907 -0.0202167 0.096041389
-0.06991455 -0.0202167 0.095623672
-0.055284642 -0.0202167 0.090009421
0.0047397539 -0.0202167 0.096354134
0.020123549 -0.0202167 0.092273623
0.030769162 -0.0202167 0.097478181
0.053686284 -0.0202167 0.096651062
0.078803152 -0.0202167 0.090236232
0.09747313 -0.0202167 0.097093254
0.11564778 -0.0202167 0.09021806
0.24133064 -0.0202167 0.093851753
0.29904923 -0.0202167 0.094335213
-0.23529714 -0.0109985 0.095826
-0.21527928 -0.0109985 0.095337428
-0.18591167 -0.010998499 0.091133982
-0.15700617 -0.0109985 0.097343192
-0.12731263 -0.0109985 0.093797661
-0.096398354 -0.0109985 0.090399027
-0.080505297 -0.0109985 0.091381878
-0.064219669 -0.0109985 0.091275826
0.026808411 -0.0109985 0.092109255
0.16044228 -0.010998499 0.099825479
0.17073727 -0.0109985 0.091263227
0.18095565 -0.0109985 0.098857157
0.19862762 -0.0109985 0.0962926
0.23105817 -0.010998501 0.0978944
0.28510141 -0.0109985 0.09707243
-0.32430306 -0.0036296393 0.091516979
0.33397853 -0.0068706605 0.091735713
-0.36313435 0.0066940547 0.091043204
-0.38085771 0.026632903 0.097081549
0.40340057 0.034225512 0.092479706
-0.41559821 0.045223527 0.091664642
0.4170166 0.042286471 0.097172119
-0.23260686 -0.020216702 0.10106497
-0.19557762 -0.0202167 0.10451915
-0.17204751 -0.0202167 0.10365242
-0.16321874 -0.0202167 0.1012684
-0.1542069 -0.0202167 0.10296709
-0.082988903 -0.0202167 0.10434544
-0.31348857 -0.019475617 0.10494943
-0.26333237 -0.0109985 0.10335432
-0.25541386 -0.0109985 0.10409363
-0.15399119 -0.018810216 0.10600801
-0.12607805 -0.013959801 0.10600799
-0.11975647 -0.011743725 0.106008
-0.090583771 -0.01868182 0.106008
-0.05498708 -0.018912755 0.106008
-0.036342867 -0.011643373 0.106008
0.064430073 -0.015308715 0.106008
0.097784534 -0.0109985 0.10062129
0.13210198 -0.0109985 0.10339718
0.16509137 -0.017451979 0.10600799
0.19313583 -0.019338446 0.106008
0.25306508 -0.0109985 0.10595099
0.26985818 -0.0109985 0.10457018
-0.33362266 -0.0020594574 0.106008
-0.35832411 0.0057083634 0.10600801
-0.37311769 0.012036183 0.10325518
-0.36987767 0.01030243 0.10520323
0.36614355 0.012170741 0.10186192
0.37888336 0.019712562 0.10456233
0.38627329 0.024087027 0.10051407
0.38280338 0.032376554 0.10575116
0.40241879 0.044357389 0.10044256
