# .PCD v0.7 - Point Cloud Data file format
VERSION 0.7
FIELDS x y z
SIZE 4 4 4
TYPE F F F
COUNT 1 1 1
WIDTH 794
HEIGHT 1
VIEWPOINT 0 0 0 1 0 0 0
POINTS 794
DATA ascii
0.28296879 -0.016328983 -0.1115223
-0.153083 -0.0068555092 -0.11059844
-0.06972865 -0.00626797 -0.11333208
-0.054161169 -0.0067098606 -0.11130186
-0.022385232 -0.0062302737 -0.1135264
-0.0049220561 -0.0065801442 -0.11191849
0.027319804 -0.0065508513 -0.11206603
0.17948337 -0.0065819011 -0.11226418
0.20914526 -0.0079176649 -0.11197118
-0.33591288 -0.01137556 -0.10774772
-0.31184188 -0.01579114 -0.1020757
-0.30713582 -0.016015582 -0.10818151
-0.24355942 -0.012236949 -0.10457192
-0.23418821 -0.010923488 -0.10684112
-0.21669514 -0.01032046 -0.10159124
0.22359641 -0.010654027 -0.1021258
0.23999079 -0.011787764 -0.10456573
0.24463221 -0.012137566 -0.10621
0.27257279 -0.015950838 -0.10259001
0.29554725 -0.016749661 -0.10251395
-0.37446192 -0.0018812092 -0.10402177
-0.34596795 -0.0090522356 -0.10638627
-0.22701734 -0.0098170023 -0.10950166
-0.2128956 -0.0086308997 -0.10934064
-0.18752235 -0.0073831407 -0.10935126
-0.15137145 -0.0077575194 -0.10644672
-0.14846155 -0.0084529109 -0.10324587
-0.09297663 -0.0069937711 -0.10998172
-0.071064442 -0.0090143848 -0.10068101
-0.057795852 -0.0080990773 -0.10490083
-0.025368471 -0.0081583317 -0.10463992
-0.014792937 -0.008667781 -0.10229523
-0.0090648504 -0.0070602819 -0.10970559
0.0065479139 -0.0075378744 -0.10750788
0.072440676 -0.0072981324 -0.10863495
0.096937761 -0.0074305446 -0.10803498
0.12357415 -0.0086873621 -0.10224705
0.1329736 -0.0089745224 -0.10092337
0.15828413 -0.0081860991 -0.10456905
0.16092807 -0.0090959929 -0.10037113
0.17754355 -0.0086245947 -0.10267386
0.1821968 -0.0079400688 -0.10602738
0.35896826 -0.0056866435 -0.10982834
-0.30440485 -0.016577978 -0.095441386
-0.2837373 -0.016939331 -0.097416684
-0.27000871 -0.015899599 -0.098827034
-0.26507938 -0.015379669 -0.097758055
-0.19343913 -0.011263296 -0.091930255
-0.17567271 -0.010740311 -0.092760086
-0.16694155 -0.011038151 -0.091339737
-0.13913967 -0.010006055 -0.096095093
-0.078549214 -0.010618785 -0.09329053
-0.062612534 -0.010673249 -0.093040287
0.038857888 -0.010356903 -0.094523162
0.12003614 -0.010823213 -0.092390358
0.16745006 -0.010757687 -0.092702664
0.22128892 -0.012152346 -0.092183605
0.23550172 -0.013349222 -0.091662273
0.28394383 -0.017038165 -0.094985023
0.29668981 -0.016890708 -0.096503511
-0.37450963 -0.0021894195 -0.097394913
-0.1733833 -0.0092035979 -0.099781848
-0.11273126 -0.009529518 -0.099669024
-0.109883 -0.0099023627 -0.097952574
-0.046969764 -0.0096759247 -0.097639337
-0.0095308442 -0.0092283543 -0.099713169
0.054725036 -0.0093012154 -0.099396326
0.14906514 -0.0093637761 -0.099130392
0.19298473 -0.0099024493 -0.098273702
0.35872707 -0.0067671314 -0.092393875
0.36191028 -0.0055988799 -0.098582238
0.3748486 -0.0022135181 -0.095467113
0.38289392 3.5420613e-05 -0.091978431
-0.28883472 -0.017398084 -0.084616438
-0.27645427 -0.017071437 -0.087850884
-0.26597011 -0.016507484 -0.084053874
-0.25805005 -0.015788019 -0.086374491
-0.2422297 -0.014661726 -0.085542217
-0.23681441 -0.014776479 -0.082709357
-0.22854051 -0.014437767 -0.081897914
-0.18132949 -0.013184438 -0.081621163
-0.16061319 -0.012059575 -0.086640075
-0.14771521 -0.011589562 -0.088805795
-0.09365499 -0.012181255 -0.086089887
-0.013149585 -0.011737002 -0.088150211
0.02667837 -0.01187842 -0.087505348
0.033767674 -0.011562554 -0.088962696
0.043737799 -0.01220188 -0.086017922
0.05875288 -0.012362441 -0.08527936
0.078147113 -0.012069934 -0.08663024
0.083002403 -0.01251295 -0.084587008
0.10143528 -0.012009672 -0.086913109
0.11285007 -0.011999055 -0.086964063
0.12617601 -0.01282531 -0.08315438
0.1530205 -0.012900349 -0.082809687
0.18048707 -0.012743418 -0.083673581
0.19383681 -0.012764305 -0.084434785
0.2306942 -0.013445953 -0.088467225
0.24188489 -0.01520346 -0.080669865
0.3280412 -0.014246883 -0.080180727
0.33408031 -0.012941291 -0.083643317
-0.36556548 -0.005171475 -0.088396296
-0.41017044 0.0087044388 -0.081866927
-0.40518475 0.0070553771 -0.084270321
0.39325538 0.0032268534 -0.089243822
-0.41494361 0.010424568 -0.081692941
0.41590604 0.011025392 -0.08846385
-0.33073175 -0.014066493 -0.070993662
-0.32922789 -0.014022713 -0.07900048
-0.3153871 -0.016409477 -0.073372141
-0.2747885 -0.017867981 -0.072015271
-0.26910549 -0.017116886 -0.079539917
-0.2189547 -0.014833595 -0.076407403
-0.17885892 -0.014417511 -0.075882681
-0.1599808 -0.013616411 -0.079473644
-0.084266476 -0.014842906 -0.073831551
-0.057627231 -0.01391601 -0.078103304
0.0095753288 -0.015549107 -0.070582017
0.028471807 -0.01376591 -0.07880415
0.03336437 -0.015015539 -0.073042743
0.089737982 -0.01477285 -0.07416521
0.10429442 -0.013946771 -0.077976815
0.13472268 -0.014974782 -0.073235899
0.14555044 -0.01526484 -0.071897954
0.16546889 -0.014316868 -0.076274075
0.1779175 -0.014025709 -0.077618964
0.20244598 -0.014671272 -0.075352028
0.23329735 -0.01563086 -0.075015508
0.2447831 -0.016089257 -0.076155536
0.26341385 -0.017129684 -0.074122086
0.27835926 -0.017565558 -0.079057641
0.28642756 -0.017670188 -0.076757096
0.36238921 -0.0068058535 -0.07536377
-0.40325445 0.0059851743 -0.074618034
0.38677144 0.00052670715 -0.076686114
0.39657244 0.0035169292 -0.072012097
-0.43441457 0.017511614 -0.072940536
0.42961749 0.015781417 -0.077780128
-0.33731139 -0.013044409 -0.065785214
-0.30517274 -0.017623812 -0.064314112
-0.28991771 -0.017937813 -0.069125585
-0.26265553 -0.017914077 -0.062420692
-0.25772572 -0.017796895 -0.062302373
-0.24761221 -0.017150268 -0.068609834
-0.20318243 -0.015878098 -0.0693826
-0.15744722 -0.016464215 -0.064776286
-0.14464325 -0.016596358 -0.062755287
-0.11661685 -0.016773889 -0.064663336
-0.092075296 -0.016612209 -0.062504828
-0.071633041 -0.016104007 -0.068023443
-0.062892362 -0.015712051 -0.06982895
-0.042320646 -0.016720613 -0.060791746
0.036845468 -0.016761659 -0.060179405
0.049027231 -0.016493998 -0.06439355
0.06160289 -0.016699681 -0.061178066
0.088192701 -0.016699208 -0.061204724
0.12667462 -0.016556591 -0.063445821
0.13472246 -0.016258243 -0.066832177
0.15504657 -0.015692497 -0.069924399
0.16559398 -0.016494747 -0.064417467
0.19723269 -0.016610269 -0.062652878
0.21142238 -0.01651397 -0.064138986
0.22012797 -0.016466893 -0.067104302
0.24420641 -0.017103897 -0.066527814
0.31069386 -0.017332444 -0.066608801
0.33709648 -0.013126036 -0.066879079
-0.36702234 -0.0058688633 -0.064212248
-0.3520762 -0.0096551292 -0.069320254
0.37524658 -0.0035368868 -0.065015741
-0.39604896 0.0032131376 -0.06650462
-0.43059272 0.015811894 -0.068100989
0.41723728 0.010544721 -0.061187647
0.42372727 0.013084899 -0.065620735
0.4340907 0.017093003 -0.06493149
-0.34348145 -0.011958744 -0.057573345
-0.30115953 -0.018022913 -0.052483626
-0.27797371 -0.018538971 -0.052373104
-0.25615618 -0.01791605 -0.058178261
-0.2445423 -0.017586052 -0.059492394
-0.21598241 -0.017051954 -0.056623571
-0.19670694 -0.01687536 -0.058346298
-0.17618853 -0.016789934 -0.059696291
-0.14300142 -0.017252557 -0.052385543
-0.093134992 -0.017008949 -0.056235239
-0.074852943 -0.016889827 -0.058117688
-0.062246732 -0.016923018 -0.057593167
-0.025616331 -0.017094452 -0.054884024
-0.016886871 -0.017065395 -0.055343211
0.0020557924 -0.016999044 -0.056400605
0.018487383 -0.017145235 -0.054124758
0.025162553 -0.017109292 -0.054695547
0.037514038 -0.016971642 -0.056880839
0.040562999 -0.017375767 -0.050540343
0.077757031 -0.017247744 -0.052621741
0.087052993 -0.01685624 -0.058754817
0.095868714 -0.016940357 -0.05744445
0.10216646 -0.017199634 -0.053414028
0.11392885 -0.016998474 -0.056564964
0.12512679 -0.016932726 -0.057604149
0.1905261 -0.017155768 -0.054241959
0.25624979 -0.018031031 -0.053434134
0.28207821 -0.018450798 -0.054182414
0.30878097 -0.017707916 -0.053247616
0.32873389 -0.015009556 -0.054367129
-0.37168914 -0.0045302492 -0.055734478
-0.36465538 -0.0065936958 -0.056075271
0.36064607 -0.0078059137 -0.059053648
0.38083419 -0.0018440392 -0.058958322
-0.40361702 0.0057344711 -0.058519356
0.39448944 0.0025498744 -0.055735495
-0.42553937 0.013638988 -0.055391908
0.42381811 0.013008321 -0.059442982
-0.45068938 0.023697745 -0.054606855
0.44994515 0.023371637 -0.054134443
-0.34889793 -0.010976279 -0.04225418
-0.2735635 -0.018667504 -0.041672781
-0.26750171 -0.018593665 -0.043385155
-0.22454503 -0.017917171 -0.044613428
-0.1843352 -0.017670112 -0.045786984
-0.16988906 -0.018002838 -0.04052899
-0.14738584 -0.017451091 -0.049248151
-0.085116871 -0.01762745 -0.046461187
-0.075380668 -0.017802529 -0.043694418
-0.067551509 -0.017841812 -0.043073669
-0.05825587 -0.017779354 -0.044060662
-0.047997344 -0.017608643 -0.046758398
-0.021887423 -0.017831739 -0.043232821
0.006072666 -0.017893482 -0.042293232
0.02122202 -0.017483464 -0.048797715
0.031837825 -0.018026186 -0.040292297
0.066923343 -0.017433083 -0.049697939
0.07124719 -0.017951038 -0.04159027
0.096618578 -0.017749997 -0.044819027
0.11440224 -0.017669486 -0.046125442
0.1554857 -0.017882615 -0.042935539
0.16978887 -0.017884351 -0.042958364
0.17897488 -0.017551363 -0.048119504
0.18448915 -0.017661676 -0.046440229
0.20495234 -0.01763311 -0.046938401
0.21530873 -0.017796274 -0.044455759
0.24154064 -0.018035857 -0.048183072
0.2753785 -0.018434828 -0.048387446
0.34360161 -0.012289435 -0.045425292
0.36062664 -0.0079576932 -0.040852703
0.38335425 -0.0010933878 -0.045799121
-0.40411383 0.0058229025 -0.042515751
-0.39417377 0.0024988311 -0.047123305
0.39079553 0.0012937133 -0.041493673
0.40852222 0.007291072 -0.0453979
-0.42597255 0.013578583 -0.041972041
0.42959908 0.015028236 -0.049316078
0.43427259 0.016774748 -0.045809306
-0.46367526 0.028935175 -0.044288114
-0.45356876 0.024467019 -0.040832032
-0.30523932 -0.018328041 -0.0342803
-0.27903804 -0.018873367 -0.036882471
-0.20761001 -0.018044185 -0.039875612
-0.18674853 -0.018629508 -0.030625854
-0.17974396 -0.01859653 -0.031147016
-0.16275471 -0.01806099 -0.039610058
-0.14612082 -0.018568508 -0.031589787
-0.070354193 -0.01835094 -0.035028011
-0.051691465 -0.018469457 -0.033155121
-0.0082792547 -0.018207312 -0.037297737
0.0052470639 -0.018528998 -0.032244712
0.024280047 -0.018398428 -0.034393396
0.039778739 -0.018094512 -0.039235856
0.054834798 -0.018304644 -0.036000296
0.065273814 -0.018402014 -0.034515709
0.081857309 -0.018317359 -0.035905201
0.13215901 -0.018107329 -0.039375164
0.15512495 -0.018643623 -0.031157374
0.21225935 -0.018295774 -0.03676847
0.22481957 -0.018460236 -0.035574619
0.23599389 -0.018596089 -0.035384491
0.25226107 -0.01888798 -0.030043038
0.31775165 -0.017164644 -0.033341881
0.32265475 -0.016468771 -0.034873608
0.34899098 -0.011297315 -0.030221291
-0.37244308 -0.0043935468 -0.034765057
-0.36818486 -0.0056759659 -0.03525272
-0.3532733 -0.0099536497 -0.034309927
0.36350155 -0.0071674576 -0.038415566
-0.40019301 0.0044691567 -0.039861456
-0.39099464 0.0014267723 -0.038060367
-0.33603942 -0.014373254 -0.021425834
-0.28104433 -0.0191544 -0.020694608
-0.2645286 -0.019079449 -0.024538025
-0.23459287 -0.019125892 -0.02291758
-0.22529528 -0.019032869 -0.024503192
-0.19686753 -0.018986065 -0.024889147
-0.18298043 -0.0191544 -0.020470284
-0.16355163 -0.018755939 -0.028627884
-0.14552754 -0.019064527 -0.023751343
-0.046011593 -0.018730946 -0.029022852
-0.020483993 -0.018749205 -0.028734297
-0.0045739547 -0.018769955 -0.028406404
0.0084705111 -0.019157713 -0.022164937
0.017710231 -0.019004229 -0.023651613
0.042870205 -0.019170552 -0.022261538
0.052750193 -0.018926684 -0.026218157
0.081172727 -0.019185461 -0.02221553
0.091888249 -0.019132333 -0.023232274
0.1125749 -0.019142456 -0.023182146
0.12108827 -0.019200539 -0.021879755
0.15876575 -0.019095089 -0.024184927
0.18474215 -0.019224958 -0.022082364
0.2377248 -0.01921417 -0.022713663
0.30912766 -0.018163353 -0.028847823
0.31034291 -0.018181084 -0.020701025
0.33669657 -0.014313538 -0.02090461
-0.37253216 -0.0044155349 -0.023477688
-0.3541078 -0.0098228417 -0.025428826
0.36027068 -0.0082116006 -0.022269728
0.3772257 -0.0030541986 -0.028691994
0.38898033 0.00065138121 -0.025130369
0.42224446 0.011982502 -0.027376879
0.44137824 0.019220941 -0.027881777
-0.45473313 0.024478044 -0.025624987
-0.44480926 0.020550855 -0.029038267
0.47086525 0.03167345 -0.027871659
-0.34481359 -0.012364866 -0.01363281
-0.3246159 -0.016424868 -0.016335938
-0.30160615 -0.018823747 -0.019172706
-0.22816172 -0.0191544 -0.010291853
-0.21246272 -0.0191544 -0.016067617
-0.17274557 -0.0191544 -0.011416976
-0.16487895 -0.0191544 -0.016621612
-0.074203625 -0.0191544 -0.013251428
-0.046042759 -0.0191544 -0.012832643
-0.027247611 -0.0191544 -0.015295506
0.0047621527 -0.019156121 -0.013997501
0.018136058 -0.019161614 -0.016550448
0.07879521 -0.019184541 -0.013346917
0.090583056 -0.019189449 -0.017052067
0.10619842 -0.019194623 -0.016111977
0.11725646 -0.019198895 -0.016002698
0.12244074 -0.019201118 -0.014994488
0.16475683 -0.01921678 -0.014454177
0.19432741 -0.019228969 -0.014005488
0.24097672 -0.019222043 -0.014581302
0.28002816 -0.019104097 -0.013421057
0.29476944 -0.019015104 -0.017749529
0.30539119 -0.018557578 -0.014883895
0.32652754 -0.016179457 -0.010255743
0.35015607 -0.011102038 -0.012113411
-0.35711291 -0.0089955386 -0.010463202
-0.41434279 0.0091753919 -0.019257225
-0.44270369 0.019460546 -0.010075502
0.42459199 0.012773946 -0.018775214
0.4368785 0.017261064 -0.013315851
-0.46186072 0.027550798 -0.014967903
-0.44927964 0.022072036 -0.015256738
0.45178986 0.023114167 -0.016631726
0.47044802 0.031331975 -0.018010264
-0.34628886 -0.011999666 -0.0036464487
-0.33340681 -0.014896786 -0.0052616782
-0.31722355 -0.017461948 -0.008230024
-0.29479003 -0.019090265 -0.0062460061
-0.27102271 -0.0191544 -0.0035899254
-0.26399434 -0.0191544 -0.0016651908
-0.19859117 -0.0191544 -0.0014805654
-0.17115057 -0.0191544 -0.0022122804
-0.14567041 -0.0191544 -0.0070160516
-0.12643345 -0.0194523 -0.0042857337
-0.097317047 -0.0191544 -0.0058504744
-0.086522952 -0.0191544 -0.0046791923
-0.055477194 -0.0191544 -0.0058477847
-0.035355978 -0.0191544 -0.0042337058
-0.015932843 -0.0191544 -0.0082144644
-0.0040021557 -0.0191544 -0.0014767498
0.0058413101 -0.019156585 -0.0036612535
0.017359624 -0.019161316 -0.0058905887
0.044370126 -0.019171003 -0.0065092295
0.070294499 -0.019181259 -0.0013523167
0.099056378 -0.019192429 -0.0072705075
0.11670553 -0.019198684 -0.0016556125
0.17060703 -0.01921929 -0.00095032528
0.19083712 -0.019227471 -0.0037658261
0.22028382 -0.019239187 -0.00080587785
0.25535154 -0.019178465 -0.0076795402
0.26782712 -0.019141393 -0.0080294646
0.27079564 -0.019132344 -0.0017133402
0.29006046 -0.019072983 -0.00044095574
0.32855877 -0.015849628 -0.0076896311
-0.35785481 -0.0087818652 -0.00047910493
0.35459548 -0.0098644923 -0.0074882186
-0.39253217 0.0018668799 -0.0010015247
0.39174956 0.0015448008 -0.0096996538
0.40493062 0.0059230537 -0.0064020599
0.41882542 0.010723965 -0.0049916222
0.42872304 0.014263771 -0.005837067
0.4428142 0.019509573 -0.0069203172
-0.46270382 0.027949713 -0.0045131096
-0.45214218 0.023244243 -0.0074033826
-0.44965449 0.022225546 -0.009074986
0.44502166 0.020384019 -0.0079352139
0.46342501 0.028256558 -0.0040617553
-0.46808553 0.030377416 -0.00050313165
0.47088954 0.031635202 -0.0040835636
-0.33412108 -0.01473897 0.0054101967
-0.32867354 -0.015768219 0.0025557335
-0.30557457 -0.018589517 0.0023161303
-0.2500608 -0.0191544 0.0095872693
-0.18543926 -0.0191544 0.0044316417
-0.14314249 -0.0191544 0.0033699842
-0.091342881 -0.0191544 0.0055938317
-0.072762169 -0.0191544 0.0067874305
-0.056675088 -0.0191544 0.0041018445
-0.023103628 -0.0191544 0.0061747544
0.029761273 -0.019166104 0.0026844852
0.050637878 -0.019173307 0.0019238899
0.096029252 -0.01919152 0.0050246753
0.15386093 -0.019213393 0.0094873812
0.19857709 -0.019230792 0.0010068883
0.20337152 -0.019232655 0.0091649778
0.25933865 -0.019166529 0.0014313725
0.26389697 -0.019153031 0.004264609
0.27129659 -0.019130813 0.0088985004
0.30620134 -0.018513422 0.0028715685
0.31234759 -0.018007934 0.0028196871
0.32801798 -0.015945904 0.0074577448
-0.37438017 -0.0038548408 0.0057154596
0.35884207 -0.0086276764 1.9613188e-05
0.37071386 -0.0050798263 0.009146018
-0.40189126 0.004944528 0.0042600273
0.38893715 0.0006286272 0.0031144051
0.39647454 0.003090824 0.005798243
0.41190988 0.0083089806 0.0034801161
0.42456055 0.012762602 0.0035109208
0.45785505 0.025735449 0.0054665385
0.46222019 0.027711233 0.0044568731
-0.34452701 -0.012435808 0.01038971
-0.33038446 -0.015468724 0.017767673
-0.32053864 -0.017039141 0.010260803
-0.31502259 -0.017721985 0.015529746
-0.22903702 -0.0191544 0.012245771
-0.21330144 -0.0191544 0.012841712
-0.20442627 -0.0191544 0.012598101
-0.18438917 -0.0191544 0.012411382
-0.17398413 -0.0191544 0.015374771
-0.056437023 -0.0191544 0.012739066
-0.026878472 -0.0191544 0.011736786
-0.0064228866 -0.0191544 0.015192191
0.038184084 -0.019169144 0.018754285
0.07898207 -0.019184614 0.011385696
0.11913925 -0.019199705 0.018679406
0.15868662 -0.019214841 0.013399309
0.16281769 -0.019216083 0.016715057
0.22801267 -0.019241665 0.014028218
0.23642443 -0.019235561 0.016983621
0.28326142 -0.019094069 0.016142508
0.29082069 -0.019070627 0.016513241
0.30460602 -0.01861052 0.015894126
0.31590161 -0.017625904 0.011993077
0.32518584 -0.016386723 0.016218506
-0.37092325 -0.0049057333 0.018495515
-0.36280739 -0.0073307287 0.010642814
0.36388785 -0.0071349707 0.017273216
-0.39953369 0.0041618412 0.018770577
0.39438832 0.0024044216 0.016829716
0.41282728 0.0086268308 0.011184174
-0.43454334 0.016381126 0.016647983
-0.41689283 0.010065654 0.018173601
0.43999463 0.018439513 0.010812543
-0.44667169 0.021018438 0.010377282
0.44584751 0.020711236 0.012599288
0.45304105 0.023630824 0.018540176
0.4677515 0.030164953 0.014475776
-0.34391174 -0.012588117 0.02220952
-0.30668241 -0.018414175 0.026762102
-0.29593951 -0.018939817 0.026580475
-0.28610921 -0.019030228 0.028759845
-0.27675271 -0.019117286 0.02372133
-0.26411319 -0.019152932 0.021911697
-0.23219417 -0.0191544 0.022301355
-0.22404552 -0.019050224 0.023984974
-0.21232763 -0.018943738 0.025110148
-0.2076017 -0.018833168 0.02740477
-0.19559838 -0.018940568 0.02484913
-0.1884599 -0.018696316 0.029567752
-0.15282598 -0.018871108 0.026053129
-0.14303069 -0.018978246 0.025111232
-0.095708683 -0.019114196 0.022962991
-0.088827237 -0.018849306 0.027149688
-0.033094782 -0.019011118 0.024592204
-0.018229004 -0.0191544 0.022140838
-0.0053199301 -0.01892335 0.025517376
0.026515823 -0.019156871 0.022453282
0.043520339 -0.019170746 0.020165401
0.075461999 -0.019183256 0.020936256
0.09369354 -0.01887951 0.02718642
0.1061958 -0.018728852 0.029584337
0.16724308 -0.018868957 0.027720746
0.18952218 -0.019226905 0.022287942
0.19271502 -0.018759288 0.029552989
0.2028739 -0.019074291 0.024760302
0.23687872 -0.018966356 0.028172143
0.26395506 -0.019072637 0.024574643
0.27922857 -0.018955294 0.028868722
0.30930343 -0.018238012 0.023986664
0.32857588 -0.015791865 0.024531053
0.3308807 -0.015436253 0.02028431
0.34924167 -0.011344674 0.02290703
-0.36806276 -0.0057663345 0.022827089
0.36683822 -0.0062560602 0.02204081
0.37742096 -0.0029989458 0.027094817
0.38351417 -0.0010997002 0.023351802
-0.40163812 0.0048991339 0.029171549
0.40470016 0.0058722692 0.027876418
0.43756431 0.017650813 0.027003443
0.44329211 0.019821551 0.025156073
-0.34495848 -0.012066841 0.03513103
-0.33464685 -0.014324376 0.035375889
-0.30380714 -0.018397771 0.034490168
-0.28112277 -0.018935986 0.033641618
-0.25482953 -0.018740371 0.034517717
-0.23010236 -0.018436935 0.036482275
-0.21165009 -0.018461892 0.033272881
-0.20586355 -0.018361345 0.03486209
-0.18072084 -0.01839618 0.034311488
-0.15981238 -0.01863493 0.030538
-0.058160663 -0.018464085 0.033238254
-0.036466166 -0.018332642 0.035315756
-0.029114427 -0.018223096 0.037047137
-0.017559495 -0.018412933 0.034046713
-0.0067404537 -0.018072834 0.039422084
0.017635487 -0.018547224 0.032017704
0.023258977 -0.018604416 0.031140752
0.062003419 -0.018223833 0.037287783
0.078043424 -0.018304728 0.036094442
0.09550532 -0.018106231 0.039256182
0.11905558 -0.018123785 0.039062455
0.12240987 -0.018225007 0.037510403
0.13732509 -0.018103305 0.039466158
0.14131749 -0.018669624 0.030684609
0.1549392 -0.018604971 0.031750668
0.16613254 -0.01863699 0.031299163
0.17700362 -0.01822228 0.03775445
0.19198325 -0.018665165 0.030998234
0.20726193 -0.018257173 0.037353743
0.21180134 -0.018092113 0.039893672
0.2418133 -0.018579697 0.036289144
0.26572308 -0.018782195 0.033499036
0.27996746 -0.018817922 0.036116015
0.30831084 -0.018186117 0.031367373
-0.38104045 -0.0017506456 0.036628775
0.35847479 -0.0085340505 0.039725203
0.36590791 -0.0064571537 0.035503861
-0.41459599 0.0093369009 0.03015195
-0.39699334 0.0033904631 0.036051877
-0.42214242 0.012053843 0.032375246
-0.4176296 0.010443352 0.034266494
0.42303902 0.012438226 0.039111737
-0.46147642 0.027587399 0.032209307
-0.45781606 0.026020952 0.033113115
0.44299594 0.020178322 0.039631538
-0.34391534 -0.012105329 0.045863137
-0.31710333 -0.016858801 0.048193939
-0.2902528 -0.018549219 0.045669135
-0.27569386 -0.018602662 0.046594959
-0.26030111 -0.018474173 0.042355351
-0.24873039 -0.018299453 0.043034907
-0.2243377 -0.017970001 0.043497682
-0.21573041 -0.017768214 0.044523317
-0.19189087 -0.017856592 0.04283984
-0.18542051 -0.017550554 0.047676843
-0.16714877 -0.017753744 0.044465389
-0.14731766 -0.017680265 0.04562676
-0.12835407 -0.018305043 0.040463664
-0.09046638 -0.017421346 0.049719058
-0.084034644 -0.017561443 0.047504772
-0.079065755 -0.017777866 0.044084143
-0.034600869 -0.01786904 0.042643111
0.010849601 -0.017701 0.045337334
0.03631882 -0.017948734 0.041511122
0.041578591 -0.017454881 0.049298462
0.058425318 -0.017676907 0.045848038
0.069863163 -0.017988222 0.041007504
0.078438692 -0.01781942 0.04368696
0.081793599 -0.017645825 0.046400379
0.10020722 -0.017962338 0.041522998
0.11546515 -0.01795793 0.041637197
0.12500697 -0.017997447 0.041067321
0.14822342 -0.01746645 0.049370475
0.15376267 -0.017885586 0.042885423
0.22535181 -0.017927777 0.044303123
0.23773554 -0.017991612 0.048268136
0.29023021 -0.018545795 0.043495998
0.30441669 -0.018068252 0.044405002
0.33621556 -0.013776488 0.048668221
0.34446013 -0.012012113 0.049832858
0.35199088 -0.010262302 0.043411694
0.37655985 -0.0031965079 0.046555102
-0.41200501 0.0085818237 0.047567654
-0.40658426 0.0066531738 0.040624619
-0.39223683 0.0018542404 0.045768771
0.39316487 0.0020711515 0.043430321
0.40512788 0.0061150249 0.046003178
-0.428155 0.014492351 0.046993624
0.43325061 0.016345104 0.043230571
-0.32176131 -0.016123293 0.051515911
-0.30596983 -0.017742589 0.058247022
-0.28436506 -0.018492788 0.05415605
-0.27925879 -0.018616866 0.050172266
-0.26621681 -0.018225897 0.055265076
-0.093920305 -0.017314564 0.051406745
-0.076586261 -0.016794646 0.059624247
-0.027607389 -0.017083757 0.055054739
-0.0018851745 -0.017000942 0.056363665
0.023047743 -0.017017893 0.056132175
0.034959525 -0.016798344 0.059602246
0.062351663 -0.017408427 0.050073672
0.079942033 -0.016962916 0.057074904
0.16194856 -0.017006138 0.056510847
0.17322138 -0.017192416 0.053653002
0.18381131 -0.017220609 0.053239077
0.26257592 -0.018042849 0.056386378
0.27262166 -0.018226847 0.056252073
0.28470349 -0.018317513 0.058541182
0.30339608 -0.017852237 0.053911071
0.31176031 -0.017362073 0.058416776
0.32745248 -0.01520147 0.055524744
0.33228227 -0.014331371 0.056523919
0.34104756 -0.012574264 0.057820711
-0.37731808 -0.0028362363 0.050620358
-0.36393875 -0.0067784106 0.059774611
0.36390924 -0.0069539472 0.054353181
0.40460184 0.0059764348 0.053062651
-0.42467314 0.013258616 0.050906397
0.45162508 0.024092723 0.055109829
-0.33093256 -0.014216579 0.066840708
-0.31882885 -0.016323911 0.060496483
-0.28271204 -0.018236004 0.066106685
-0.23395383 -0.017211739 0.061802555
-0.22033748 -0.016947158 0.060248829
-0.21425267 -0.016419606 0.065982737
-0.19750491 -0.01652992 0.063808315
-0.16345865 -0.016618935 0.062401421
-0.15338705 -0.016342394 0.06677223
-0.084027268 -0.016427288 0.06543047
-0.013911127 -0.016764559 0.060099795
-0.0072230231 -0.016417356 0.065587431
0.0015429405 -0.016737152 0.060538355
0.03546783 -0.016498405 0.064319499
0.06492646 -0.016616445 0.062483527
0.092795193 -0.016640224 0.062127322
0.13330899 -0.016331177 0.066949591
0.15018217 -0.016426481 0.065473855
0.18652146 -0.016333109 0.066919833
0.20424879 -0.016353726 0.066603191
0.2335979 -0.017071927 0.063401677
0.24116054 -0.017108448 0.066925287
0.26693159 -0.017926328 0.063116439
0.28445157 -0.018157609 0.064632878
0.2980448 -0.017844187 0.062115688
0.33324438 -0.013946338 0.064756885
0.35067371 -0.010326173 0.062256392
-0.37771058 -0.0026743957 0.063734733
-0.36604998 -0.0061397571 0.065357827
-0.35340616 -0.0095538972 0.06105366
0.35748306 -0.008614229 0.060333878
0.36708471 -0.0059706829 0.065640666
0.37600124 -0.0033208749 0.061290693
0.38538438 -0.0003804006 0.065847263
-0.40989265 0.0079611018 0.060169313
0.39952317 0.0042877262 0.061926503
0.44747564 0.022533204 0.06327939
-0.34872833 -0.010164235 0.074599706
-0.33326456 -0.013469054 0.073846884
-0.29409075 -0.017589401 0.076482907
-0.27927154 -0.017999262 0.072021678
-0.26362947 -0.016788967 0.079688221
-0.24651496 -0.015684009 0.079688713
-0.20904279 -0.014492482 0.076744482
-0.19392869 -0.013990588 0.07855311
-0.17448823 -0.014801298 0.074014388
-0.16239128 -0.01381696 0.078546435
-0.15852167 -0.014633676 0.074786596
-0.045267045 -0.015241761 0.071993202
-0.033746932 -0.014804719 0.074007653
0.0059164353 -0.01419308 0.076829001
0.01335253 -0.015528446 0.070677616
0.021881575 -0.015209537 0.072149098
0.033515465 -0.014037469 0.077553384
0.051434748 -0.015099753 0.072655939
0.070329659 -0.015151748 0.072416432
0.093252912 -0.014529019 0.075289734
0.1620765 -0.013923943 0.078085981
0.19603825 -0.015194187 0.07259962
0.27305421 -0.017401319 0.078809939
-0.36585093 -0.0056754025 0.077531174
0.35958388 -0.0073304512 0.079011872
0.37522674 -0.0030626892 0.07674852
-0.43560189 0.018031215 0.074677743
0.41726702 0.011056558 0.076921709
0.42494351 0.013822612 0.073996119
0.43854809 0.019109577 0.07148613
-0.34584254 -0.010017585 0.089250356
-0.32600883 -0.014391044 0.083377466
-0.31006467 -0.016598806 0.086081937
-0.26512507 -0.016354825 0.086546928
-0.25689745 -0.015348813 0.088528641
-0.23757783 -0.01394082 0.088841841
-0.19749579 -0.012830725 0.084290549
-0.18821059 -0.012981158 0.082770541
-0.17466575 -0.012274097 0.085646741
-0.16314355 -0.012694234 0.083715014
-0.15721628 -0.012441648 0.084877826
-0.086445287 -0.012273548 0.085666485
-0.063412301 -0.011809835 0.08780729
-0.0051655266 -0.011406591 0.089672595
0.017100133 -0.01341233 0.080434144
0.039635133 -0.012368046 0.085251808
0.041101195 -0.011565014 0.088955
0.061156347 -0.013276068 0.081066675
0.083121121 -0.011504957 0.089239225
0.11040131 -0.011354133 0.089941412
0.13411427 -0.012245378 0.085833058
0.24891771 -0.015445696 0.08240322
0.30785346 -0.016810615 0.084309936
-0.35462227 -0.008170031 0.084876634
-0.40385556 0.0068207877 0.089773759
0.38747108 0.0011534803 0.085391663
0.40121752 0.0058619538 0.089461498
0.42188451 0.01305422 0.084104158
-0.21462044 -0.010823311 0.097929873
-0.2014295 -0.01057095 0.096180044
-0.19361424 -0.011030113 0.093076035
-0.18270934 -0.010125211 0.095856957
-0.11641441 -0.011326324 0.091395333
-0.094691142 -0.010336973 0.094586387
-0.04424331 -0.010948993 0.091776311
-0.024213864 -0.010395605 0.094329119
0.02695806 -0.010241173 0.095054507
0.035577878 -0.010425564 0.094206959
0.063253701 -0.011164224 0.090807453
0.07404013 -0.010575129 0.093526885
0.083094314 -0.01058524 0.093481645
0.12025021 -0.0105616 0.093600564
0.14114942 -0.010350741 0.09457878
0.25470158 -0.014785459 0.091178648
0.28938365 -0.017159875 0.090032831
0.30373451 -0.01671946 0.090944842
0.31696561 -0.015246807 0.099872842
0.32308894 -0.014405074 0.097531453
0.33694518 -0.012021599 0.090834714
0.34172836 -0.010826788 0.092406034
-0.37893716 -0.0012042007 0.090600826
-0.34702215 -0.0094501283 0.094727315
-0.15981629 -0.0098878127 0.096634671
-0.0091937948 -0.0094466088 0.098707542
0.0028989788 -0.0096318051 0.09785749
0.089481264 -0.0093980301 0.098960869
0.14472377 -0.0098966891 0.096674636
0.34511119 -0.0098390449 0.096162513
0.37309101 -0.0027390653 0.095455393
-0.4050017 0.0074034268 0.094369933
-0.33522639 -0.011792735 0.10194761
-0.311212 -0.015579509 0.10924853
-0.29277849 -0.016720735 0.10452369
-0.23873931 -0.010923107 0.10991227
-0.22328189 -0.010153815 0.10500333
0.24169171 -0.012144176 0.10337622
0.27263007 -0.015902333 0.10353501
0.294101 -0.016852228 0.10026957
0.31677631 -0.014935674 0.10842969
0.33022404 -0.012838699 0.10300177
0.34063599 -0.010604772 0.10141218
-0.20111243 -0.0084258765 0.10696959
-0.1991232 -0.0090950625 0.10290835
-0.17892995 -0.0080419146 0.10545771
-0.097019747 -0.0081349146 0.10472893
-0.082770333 -0.0082684588 0.104119
-0.073022932 -0.0089531261 0.10096784
-0.068226866 -0.0077688885 0.10642746
0.026917337 -0.0078129526 0.10624873
0.035065226 -0.0079636946 0.1055577
0.086901501 -0.0087197553 0.10208878
0.1332494 -0.0083080959 0.10400564
0.16806489 -0.0086381026 0.10249128
0.17713444 -0.0071537606 0.1094871
0.18112966 -0.0075252354 0.10796437
0.19654588 -0.0096337553 0.10010959
0.35142297 -0.0075697312 0.10949317
0.31885827 -0.014501632 0.11189194
-0.35362881 -0.0069640558 0.11078748
-0.083358265 -0.0063619418 0.1129022
-0.036118608 -0.0068366211 0.11073119
0.0059080375 -0.0065108961 0.11224686
0.021883599 -0.0069631771 0.11016449
0.053269688 -0.0066798199 0.1114842
0.061392084 -0.0064379545 0.1126032
0.19194919 -0.0070743994 0.11170955
