# .PCD v0.7 - Point Cloud Data file format
VERSION 0.7
FIELDS x y z
SIZE 4 4 4
TYPE F F F
COUNT 1 1 1
WIDTH 886
HEIGHT 1
VIEWPOINT 0 0 0 1 0 0 0
POINTS 886
DATA ascii
0.046144575 0.054650702 -0.14325437
0.10533059 0.056503218 -0.14181267
-0.089003302 0.062513962 -0.14108315
0.038883924 0.063418463 -0.14596578
-0.0088629574 0.0700913 -0.1465117
0.037406247 0.0700913 -0.14587018
0.10134441 0.0700913 -0.14192653
-0.39542705 -0.042537034 -0.137692
-0.38915369 -0.042309228 -0.13233475
0.40944833 -0.042471968 -0.134206
0.39327231 -0.034124885 -0.133947
-0.3910259 -0.027031559 -0.137692
-0.38290602 -0.029162806 -0.13013649
0.41424417 -0.023942888 -0.13901438
-0.12978515 0.054650702 -0.13646066
-0.072393954 0.054650702 -0.13043858
-0.064586625 0.054650702 -0.13564304
-0.049748745 0.054650702 -0.13036078
0.0064749438 0.054650702 -0.13119061
0.018303113 0.054650702 -0.13880475
0.055543616 0.054650702 -0.1347376
0.092192695 0.054650702 -0.13967374
0.11535023 0.054650702 -0.13766234
-0.1121297 0.061533466 -0.13896504
0.15005791 0.064484052 -0.13826147
0.19095884 0.064181738 -0.13453397
0.12101592 0.070091292 -0.13393962
0.15583286 0.070048831 -0.13776875
0.19043033 0.0700913 -0.13353823
-0.2308504 0.058477599 -0.12554
-0.12992486 0.054650702 -0.12443815
-0.00855962 0.054650702 -0.12793717
0.029995035 0.054650702 -0.12094486
0.038012598 0.054650702 -0.12816016
0.0752699 0.054650702 -0.12212063
0.11198298 0.054650702 -0.12695141
0.13040633 0.054650702 -0.12066781
0.14115234 0.054650702 -0.12742433
0.18513352 0.054650702 -0.12810704
-0.22488061 0.06653972 -0.12631857
0.23818575 0.067022659 -0.1295778
-0.25605148 0.0700913 -0.1202053
-0.2067064 0.0700913 -0.12856153
-0.19760747 0.0700913 -0.12027591
-0.18770774 0.0700913 -0.1213178
-0.065078847 0.0700913 -0.12907273
0.020274589 0.0700913 -0.12699671
0.06128253 0.0700913 -0.12674697
0.093205862 0.0700913 -0.12024283
0.12503193 0.0700913 -0.12551811
0.13646318 0.0700913 -0.12809858
0.17601371 0.0700913 -0.12416127
-0.4004038 -0.043408897 -0.11298347
-0.40918201 -0.03315017 -0.11468326
0.39232609 -0.036158718 -0.11391634
0.41387397 -0.035809763 -0.111854
-0.30769262 0.054650702 -0.11013763
-0.19231452 0.054650702 -0.11061784
-0.15183569 0.054650702 -0.11617874
-0.13784268 0.054650702 -0.11222011
-0.079487175 0.054650702 -0.11878554
-0.065812394 0.054650702 -0.11645281
0.024480015 0.054650698 -0.1173667
0.050965574 0.054650702 -0.1103043
0.07210844 0.054650702 -0.11243466
0.10099134 0.054650702 -0.11245253
0.16654815 0.054650702 -0.11393683
0.25145972 0.054650702 -0.11246818
0.28455633 0.054650702 -0.11470208
-0.28555408 0.065395653 -0.11795029
0.31797951 0.062962778 -0.11971761
-0.28607157 0.0700913 -0.11756461
-0.27605498 0.0700913 -0.11295
-0.25048175 0.0700913 -0.11360732
-0.24166702 0.0700913 -0.11401486
-0.20004617 0.0700913 -0.1132327
0.06700173 0.0700913 -0.1180905
0.11754087 0.0700913 -0.11049588
0.13974071 0.0700913 -0.11717464
0.15043835 0.0700913 -0.11663738
0.26548183 0.0700913 -0.11696016
0.30196491 0.0700913 -0.112989
-0.40888256 -0.026924659 -0.1088957
-0.32401046 0.054650702 -0.10482635
-0.24001023 0.054650702 -0.10034303
-0.21918234 0.054650705 -0.10177131
-0.15116525 0.054650702 -0.10469368
-0.11376373 0.054650702 -0.10529582
-0.058213681 0.054650702 -0.10121179
-0.047338348 0.054650702 -0.10461959
-0.020460015 0.054650702 -0.10663155
-0.0069016698 0.054650702 -0.1076715
0.022556541 0.054650702 -0.10742135
0.06413424 0.054650702 -0.10643797
0.077811845 0.054650702 -0.10353567
0.24813694 0.054650702 -0.10398516
0.25173885 0.054650702 -0.10457142
0.26335377 0.054650702 -0.10949511
0.29565606 0.054650702 -0.10340381
0.33142376 0.062022265 -0.10898731
-0.23339494 0.0700913 -0.10621786
-0.20821694 0.0700913 -0.10383838
-0.19775735 0.0700913 -0.10893325
-0.17805718 0.0700913 -0.10523698
-0.1153675 0.0700913 -0.10041861
-0.098273009 0.0700913 -0.10116607
0.053279914 0.0700913 -0.10898384
0.1394136 0.0700913 -0.10784058
0.15189277 0.0700913 -0.10678514
0.18430994 0.0700913 -0.10771896
0.31109926 0.0700913 -0.10093956
0.33337405 0.0700913 -0.10484674
-0.26885849 0.054650702 -0.093978278
-0.25889385 0.054650702 -0.092391506
-0.19801366 0.054650702 -0.092519231
-0.072869822 0.054650702 -0.09651453
-0.042476144 0.054650702 -0.098430067
-0.033699945 0.054650702 -0.090875849
-0.0076922011 0.054650702 -0.090582825
0.021024778 0.054650702 -0.093132697
0.076498471 0.054650702 -0.09241993
0.10657153 0.054650702 -0.095030069
0.12752742 0.054650702 -0.092716634
0.19678211 0.054650702 -0.096863888
0.27779046 0.054650702 -0.093568891
0.31026775 0.054650702 -0.091812983
-0.33811778 0.062651955 -0.094502151
-0.31922397 0.070091307 -0.09077616
-0.29716185 0.0700913 -0.095682852
-0.27322811 0.0700913 -0.099857658
-0.1590485 0.0700913 -0.091613583
-0.13707779 0.0700913 -0.099741712
-0.078194208 0.0700913 -0.091120392
-0.067962766 0.0700913 -0.095660485
-0.040631633 0.0700913 -0.097504884
-0.032715287 0.0700913 -0.092641905
-0.022998564 0.0700913 -0.092312127
0.12839687 0.0700913 -0.094491228
0.18333863 0.0700913 -0.092759445
0.32378384 0.0700913 -0.096848041
0.33573389 0.0700913 -0.090454124
-0.31661347 0.054650702 -0.080452032
-0.28560224 0.054650702 -0.089260824
-0.27362108 0.054650702 -0.086502001
-0.20514481 0.054650702 -0.084839441
-0.1041385 0.054650702 -0.088014752
0.053278632 0.054650702 -0.085907668
0.092082262 0.054650702 -0.080666222
0.17010441 0.054650702 -0.085300356
0.20748876 0.054650702 -0.088472523
0.23433426 0.054650702 -0.085733153
0.27707785 0.054650702 -0.0812096
0.34826541 0.054650702 -0.081604369
-0.3386398 0.0700913 -0.080556616
-0.30845848 0.0700913 -0.081744567
-0.27419263 0.0700913 -0.082358263
-0.26910174 0.0700913 -0.086154915
-0.21803631 0.0700913 -0.083471604
-0.068957329 0.0700913 -0.081607237
-0.046879802 0.0700913 -0.085360222
-0.03360955 0.0700913 -0.080461882
-0.028854338 0.0700913 -0.082056902
0.014518554 0.0700913 -0.081104055
0.038894914 0.0700913 -0.084823713
0.12375598 0.0700913 -0.082923457
0.15067795 0.0700913 -0.089445643
0.20989162 0.0700913 -0.085799821
0.21352048 0.0700913 -0.081914835
0.3383514 0.0700913 -0.087139964
0.34069014 0.0700913 -0.080352448
0.35621786 0.0700913 -0.081876829
-0.295165 0.054650702 -0.078191511
-0.24449258 0.054650702 -0.074166611
-0.16034772 0.054650702 -0.076950833
-0.13866322 0.054650702 -0.075107396
-0.072240114 0.054650702 -0.072943792
0.0052926354 0.054650702 -0.077645257
0.088301569 0.054650702 -0.075152703
0.25746739 0.054650702 -0.07085447
0.32892817 0.054650702 -0.079197928
-0.36656237 0.06910336 -0.07164406
0.36904374 0.06171383 -0.077006385
-0.34449261 0.0700913 -0.074491605
-0.30405101 0.0700913 -0.077433191
-0.22765407 0.0700913 -0.074111484
-0.1757499 0.0700913 -0.075129256
-0.1517494 0.0700913 -0.071856886
-0.13368961 0.0700913 -0.079675339
-0.070941791 0.0700913 -0.07447499
0.1676262 0.0700913 -0.072531462
0.1861937 0.0700913 -0.073142834
0.28706476 0.0700913 -0.070653312
0.35014215 0.0700913 -0.070342667
-0.36845386 0.054650702 -0.061870854
-0.20975608 0.054650702 -0.062886268
-0.11955842 0.054650702 -0.066699833
0.014066978 0.054650702 -0.068205051
0.040757157 0.054650702 -0.065747559
0.073114336 0.054650702 -0.066369124
0.11517458 0.054650702 -0.063122645
0.12773652 0.054650698 -0.06954477
0.13732997 0.054650702 -0.064989947
0.34437469 0.054650702 -0.061351728
0.42742604 0.058011755 -0.06035693
0.38705996 0.063676588 -0.068569019
0.40263623 0.066971213 -0.063794702
-0.38031769 0.0700913 -0.064243436
-0.29092073 0.0700913 -0.060298301
-0.2346743 0.0700913 -0.065342866
-0.22593451 0.0700913 -0.065578528
-0.21396154 0.070091307 -0.067993045
-0.019182408 0.0700913 -0.06762585
0.0042746831 0.0700913 -0.063800514
0.026393518 0.070091292 -0.068075001
0.043453977 0.0700913 -0.068301409
0.10444656 0.0700913 -0.063665584
0.11624321 0.0700913 -0.0694637
0.13026199 0.0700913 -0.06960623
0.17521438 0.0700913 -0.063078225
0.19540408 0.0700913 -0.065939106
0.3213315 0.0700913 -0.063007906
-0.449536 0.055881575 -0.050757341
-0.4028545 0.054650702 -0.053571254
-0.39086771 0.054650702 -0.050583478
-0.36291394 0.054650702 -0.051054455
-0.3484025 0.054650702 -0.051605567
-0.33750632 0.054650702 -0.055463176
-0.29858059 0.054650702 -0.05146338
-0.28662741 0.054650702 -0.054647908
-0.24705875 0.054650702 -0.057484291
-0.15135932 0.054650702 -0.051620983
-0.14531823 0.054650702 -0.054106679
-0.1393465 0.054650702 -0.059034728
-0.052954204 0.054650702 -0.057202417
0.030026201 0.054650702 -0.052493494
0.054776445 0.054650702 -0.059150096
0.060402557 0.054650702 -0.055604242
0.070088118 0.054650702 -0.053114034
0.083970353 0.054650702 -0.051168174
0.1054059 0.054650702 -0.054692283
0.18437597 0.054650702 -0.058005922
0.27142102 0.054650702 -0.054707613
0.31615871 0.054650702 -0.053870507
0.34172544 0.054650702 -0.052603729
0.40356141 0.054650702 -0.056420814
0.43758506 0.054650702 -0.050147586
-0.41369218 0.061721426 -0.054807778
-0.4179596 0.0700913 -0.052781437
-0.12261359 0.0700913 -0.050766625
-0.047099598 0.0700913 -0.054956675
-0.0047698622 0.0700913 -0.05721695
0.013845295 0.0700913 -0.05560983
0.025453337 0.0700913 -0.059856389
0.037119403 0.0700913 -0.05627631
0.093461886 0.0700913 -0.055905126
0.1482521 0.0700913 -0.054674849
0.19206056 0.070091292 -0.051901676
0.20709234 0.0700913 -0.058413334
0.22552258 0.0700913 -0.054653302
0.31293178 0.0700913 -0.052473407
0.34571618 0.0700913 -0.051610664
0.35539189 0.0700913 -0.052070599
0.40146923 0.0700913 -0.051311508
-0.23632289 0.054650702 -0.049894314
-0.13676454 0.054650702 -0.043752428
-0.12291369 0.054650702 -0.044023268
-0.032375779 0.054650702 -0.041059636
0.015275607 0.054650702 -0.045340285
0.10106751 0.054650702 -0.045898613
0.17741448 0.054650702 -0.044051923
0.20702213 0.054650702 -0.046832651
0.21169168 0.054650702 -0.041243389
0.29383248 0.054650702 -0.042495653
0.32443213 0.054650702 -0.044455897
0.357979 0.054650702 -0.046831608
0.38489389 0.054650702 -0.04783804
0.41711518 0.054650702 -0.045833632
0.43317208 0.054650702 -0.041958511
0.44208306 0.054650702 -0.045790799
-0.45260376 0.065324195 -0.04471172
-0.41816485 0.0700913 -0.046622872
-0.37683558 0.0700913 -0.047649652
-0.28682241 0.0700913 -0.046038285
-0.21509281 0.070091307 -0.047919445
-0.20899913 0.0700913 -0.045804936
-0.13676038 0.0700913 -0.046913657
-0.12177049 0.0700913 -0.042141479
-0.11710747 0.0700913 -0.041836038
-0.10828865 0.0700913 -0.045864467
-0.093683422 0.0700913 -0.044794466
-0.083401375 0.0700913 -0.048479978
-0.032570869 0.0700913 -0.043037072
0.029213428 0.0700913 -0.046827026
0.074311689 0.0700913 -0.042620156
0.13141248 0.0700913 -0.049092967
0.14786087 0.070091307 -0.041986551
0.17601022 0.0700913 -0.049944215
0.24899715 0.0700913 -0.048454169
0.30844492 0.0700913 -0.042221509
0.33755165 0.070091307 -0.044099405
0.34018654 0.0700913 -0.048762113
-0.35191858 0.054650702 -0.035231773
-0.30487889 0.054650702 -0.037966244
-0.16221718 0.054650702 -0.035015553
-0.1158625 0.054650702 -0.038168281
-0.043972623 0.054650702 -0.031890001
-0.038471129 0.054650702 -0.032195453
0.055351228 0.054650702 -0.038792111
0.10290356 0.054650702 -0.030338813
0.11521932 0.054650702 -0.034028936
0.12156222 0.054650702 -0.03750696
0.21155691 0.054650702 -0.037152901
0.33803749 0.054650702 -0.036395106
0.42656896 0.054650702 -0.037900671
0.43348187 0.054650702 -0.032549057
0.44634396 0.054650702 -0.034379072
-0.43849039 0.0700913 -0.038626373
-0.35918552 0.0700913 -0.036413036
-0.31050178 0.0700913 -0.031011511
-0.17075518 0.0700913 -0.031638086
-0.16244149 0.0700913 -0.030510448
-0.058373373 0.0700913 -0.035054095
-0.044530623 0.0700913 -0.037829772
0.05711164 0.0700913 -0.037366688
0.10113442 0.0700913 -0.035861433
0.11990556 0.0700913 -0.031428982
0.15181732 0.0700913 -0.030615874
0.18221989 0.0700913 -0.032653153
0.30899891 0.0700913 -0.039571445
0.4277578 0.0700913 -0.035131574
0.43530414 0.0700913 -0.035507392
-0.40543741 0.054650702 -0.027795184
-0.37488678 0.054650702 -0.027162056
-0.32089457 0.054650702 -0.02823613
-0.29853395 0.054650702 -0.0231004
-0.10819072 0.054650705 -0.02472003
-0.078466929 0.054650702 -0.027663855
0.044407535 0.054650702 -0.022899032
0.068658158 0.054650702 -0.020467367
0.10384412 0.054650702 -0.023384793
0.23596582 0.054650702 -0.026867155
0.3248834 0.054650702 -0.029147357
0.40571821 0.054650702 -0.029085252
0.41377309 0.054650702 -0.024844684
0.42389435 0.054650702 -0.021024302
0.43375385 0.054650702 -0.023042476
0.44364807 0.054650702 -0.022218633
-0.46034673 0.069953948 -0.021418383
-0.44676176 0.0700913 -0.02605591
-0.4357698 0.0700913 -0.029472481
-0.35665029 0.0700913 -0.021346815
-0.3266319 0.0700913 -0.020703442
-0.29521653 0.0700913 -0.023336548
-0.13531296 0.0700913 -0.02682133
-0.11036308 0.0700913 -0.028920233
0.0034248289 0.0700913 -0.027865691
0.023298122 0.0700913 -0.026477054
0.039852269 0.0700913 -0.02202015
0.24403498 0.0700913 -0.024431713
0.36389881 0.0700913 -0.023274923
0.41560781 0.0700913 -0.02284665
0.44857737 0.0700913 -0.027781591
-0.46170235 0.054650702 -0.010135942
-0.4455806 0.054650702 -0.011139854
-0.43219873 0.054650702 -0.010481937
-0.35325956 0.054650702 -0.011351789
-0.33704638 0.054650702 -0.015094277
-0.30208683 0.054650702 -0.016708639
-0.27683231 0.054650702 -0.014589019
-0.21179959 0.054650702 -0.010924153
-0.13393171 0.054650702 -0.016243488
-0.095710337 0.054650702 -0.015745942
-0.078605399 0.054650702 -0.016638096
-0.030623857 0.054650702 -0.012670323
-0.0094199134 0.054650702 -0.010105751
0.022609755 0.054650702 -0.019467387
0.057879109 0.054650702 -0.017403293
0.092012309 0.054650702 -0.017819559
0.10429905 0.054650702 -0.010560991
0.19294265 0.054650702 -0.019480759
0.3105607 0.054650702 -0.019747477
0.34759757 0.054650702 -0.018869864
0.39605552 0.054650702 -0.018817145
-0.46148777 0.068558641 -0.016167311
-0.44058061 0.0700913 -0.013310406
-0.43655804 0.0700913 -0.017931303
-0.38038984 0.0700913 -0.012431975
-0.14425364 0.0700913 -0.015074272
-0.088059232 0.0700913 -0.0158531
0.02568702 0.070091307 -0.014916405
0.044463784 0.0700913 -0.016889308
0.056251194 0.0700913 -0.014162797
0.132112 0.0700913 -0.013845991
0.14742735 0.0700913 -0.011186875
0.21983317 0.0700913 -0.015357174
0.24130121 0.0700913 -0.018369455
0.32421607 0.0700913 -0.010512304
0.38438708 0.0700913 -0.01841177
0.45418879 0.0700913 -0.011866841
-0.44638598 0.054650702 -0.0017799027
-0.41220936 0.054650702 -0.0095524006
-0.37410647 0.054650702 -0.0034788814
-0.19033703 0.054650702 -0.0071283393
-0.033900343 0.054650702 -0.0039769858
0.034207564 0.054650702 -0.0045987107
0.13275957 0.054650702 -0.0079719424
0.15217429 0.054650702 -0.007934887
0.2224676 0.054650702 -0.0070760176
0.23067054 0.054650702 -0.0030164719
0.25231808 0.054650702 -0.0064299442
0.28564787 0.054650702 -0.0083888099
0.29519287 0.054650705 -0.00633334
0.33855709 0.054650702 -0.0087052435
0.35979569 0.054650702 -0.0044987258
0.41409463 0.054650702 -0.005713054
0.43921965 0.054650702 -0.0034428854
0.44319531 0.054650702 -0.0098184608
-0.36484343 0.0700913 -0.0031654518
-0.34413698 0.0700913 -0.00068863854
-0.25555128 0.0700913 -0.0032386333
-0.19083899 0.0700913 -0.0072125206
-0.12954685 0.0700913 -0.007098034
-0.11355394 0.0700913 -0.0070834048
-0.08697857 0.0700913 -0.0074379295
-0.04750856 0.0700913 -0.00032307208
0.13329263 0.070091292 -0.0024444684
0.22583675 0.0700913 -0.0038862266
0.26171166 0.0700913 -0.0064778337
0.29667923 0.0700913 -0.003997474
-0.39373988 0.054650702 0.0023484826
-0.33817869 0.054650702 0.0034431107
-0.26682073 0.054650702 0.0088310018
-0.22463185 0.054650702 0.0015177429
-0.15027171 0.054650702 0.008746786
-0.11555142 0.054650702 0.0045718774
-0.070480056 0.054650702 0.00054818392
-0.065559112 0.054650702 0.006683588
-0.011734893 0.054650702 0.00052437186
-0.0018602776 0.054650702 0.0032178238
0.029600833 0.054650702 0.0095135123
0.044931956 0.054650702 0.0019245148
0.14838707 0.054650702 0.0086439662
0.21913931 0.054650702 0.0018588267
0.24096006 0.054650702 0.0068197735
0.26369232 0.054650702 0.0018376559
0.3103058 0.054650702 0.0069874786
0.34576046 0.054650702 0.005781088
-0.42215157 0.0700913 0.0085294023
-0.36292928 0.0700913 4.9967086e-05
-0.35428405 0.0700913 0.009574973
-0.29164517 0.0700913 0.0076497383
-0.18093961 0.0700913 0.0093198232
-0.13316497 0.0700913 0.0011484772
-0.11860131 0.0700913 0.00079101883
0.017433042 0.0700913 0.0085904747
0.031714924 0.0700913 0.00025547482
0.045977455 0.0700913 0.003183566
0.13979815 0.0700913 0.003325576
0.16939867 0.0700913 0.0096571427
0.1770016 0.0700913 0.0097311512
0.18922888 0.0700913 0.0027851763
0.25683355 0.0700913 0.0067500183
0.28806058 0.0700913 0.0095313303
0.30376378 0.0700913 0.0025434531
0.32546455 0.0700913 0.0056262836
0.3489204 0.0700913 0.0022556025
0.36201492 0.0700913 0.0088378135
0.41844052 0.0700913 0.0014952202
-0.39833897 0.054650702 0.016001616
-0.35690355 0.054650702 0.011769872
-0.3126139 0.054650702 0.018441837
-0.28811121 0.054650702 0.017211445
-0.27348781 0.054650702 0.010937877
-0.25488248 0.054650702 0.019075885
-0.21555169 0.054650705 0.01421954
-0.18953037 0.054650702 0.019535638
-0.083889097 0.054650702 0.013387561
-0.077598609 0.054650702 0.014481455
0.093970135 0.054650702 0.016731221
0.10789447 0.054650702 0.016708316
0.11267488 0.054650702 0.014292672
0.13530028 0.054650702 0.017896816
0.20746192 0.054650702 0.015541896
0.21156853 0.054650702 0.017154232
0.254619 0.054650702 0.01841668
-0.44396573 0.0700913 0.010879821
-0.41459021 0.0700913 0.013785534
-0.39654645 0.0700913 0.018750813
-0.32569784 0.0700913 0.01326782
-0.31983176 0.0700913 0.016031615
-0.29660606 0.0700913 0.014186442
-0.28725365 0.0700913 0.013127357
-0.25461888 0.0700913 0.016912278
-0.20535332 0.0700913 0.014724623
-0.15083289 0.0700913 0.010877877
-0.054311622 0.0700913 0.018870477
-0.036749601 0.0700913 0.018850133
-0.028556027 0.0700913 0.010294564
0.025510112 0.0700913 0.013367422
0.11642013 0.0700913 0.013959326
0.12922473 0.0700913 0.016143136
0.13236745 0.0700913 0.01748248
0.18603218 0.0700913 0.013968818
0.26246217 0.0700913 0.010518126
0.28739396 0.0700913 0.012336701
0.30891955 0.0700913 0.013109099
0.32693538 0.070091292 0.018701062
0.34977466 0.0700913 0.017625228
-0.41823477 0.054650702 0.023778036
-0.34682643 0.054650702 0.02351803
-0.26989621 0.054650702 0.025557617
-0.25648543 0.054650702 0.025727279
-0.2118112 0.054650702 0.023327751
-0.16496477 0.054650702 0.025749488
-0.14456344 0.054650702 0.02407448
-0.11946312 0.054650702 0.023457319
-0.063343339 0.054650702 0.020255424
0.040255297 0.054650702 0.026345704
0.08465194 0.054650702 0.022498133
0.12771645 0.054650702 0.02471767
0.15249674 0.054650702 0.02052635
0.16576761 0.054650702 0.025039967
0.18951906 0.054650702 0.022615463
0.20571479 0.054650702 0.023389461
0.25898188 0.054650702 0.024264051
0.29780716 0.054650702 0.02139945
0.3074646 0.054650702 0.028849144
0.32959694 0.054650702 0.022569127
-0.45864221 0.070091292 0.024739634
-0.4427143 0.0700913 0.029204782
-0.42826802 0.0700913 0.021552689
-0.38531074 0.0700913 0.022455791
-0.31426668 0.0700913 0.027754012
-0.28488284 0.0700913 0.022040525
-0.26968426 0.0700913 0.021957602
-0.24026448 0.0700913 0.023420848
-0.12521519 0.0700913 0.029945081
-0.11730507 0.0700913 0.024357833
-0.10976049 0.0700913 0.025732251
0.044050988 0.0700913 0.028773561
0.12236989 0.070091307 0.020289108
0.17616987 0.0700913 0.022549722
0.19672757 0.0700913 0.028909104
0.29219544 0.0700913 0.027864585
0.30985981 0.0700913 0.029881747
0.38355231 0.0700913 0.02712024
0.3900381 0.0700913 0.023955356
-0.30879757 0.054650702 0.030145239
-0.27972946 0.054650702 0.032324601
-0.21599364 0.054650702 0.033357155
-0.20251578 0.054650702 0.031685125
-0.19141613 0.054650702 0.030285515
-0.1896745 0.054650702 0.03299164
-0.11039104 0.054650702 0.035308018
0.049685977 0.054650702 0.033089615
0.053889487 0.054650702 0.032580707
0.10729512 0.054650702 0.037726343
0.12522233 0.054650702 0.037155997
0.18208535 0.054650702 0.034651484
0.25132406 0.054650702 0.030254396
0.41468954 0.054650702 0.032404706
0.45776272 0.067176595 0.031740624
-0.44053459 0.0700913 0.030476995
-0.39393306 0.0700913 0.036576543
-0.37596831 0.0700913 0.037363071
-0.34259546 0.0700913 0.038680732
-0.32834157 0.0700913 0.035139032
-0.23995681 0.0700913 0.032815535
-0.19555329 0.0700913 0.030101577
-0.14846006 0.0700913 0.035452709
-0.13271528 0.0700913 0.039601039
-0.058011476 0.0700913 0.031389758
-0.044916712 0.070091292 0.03416907
0.010007939 0.0700913 0.039517581
0.036976188 0.0700913 0.032232285
0.09082827 0.0700913 0.033945784
0.14622431 0.0700913 0.034508597
0.17722492 0.0700913 0.03584918
0.19944082 0.0700913 0.033259615
0.20876442 0.0700913 0.034993932
0.28686774 0.0700913 0.033233736
0.36524105 0.0700913 0.039673194
0.38137686 0.0700913 0.031530432
0.40413383 0.0700913 0.032463536
-0.4285953 0.054650702 0.04444664
-0.39819202 0.054650702 0.046876311
-0.36546314 0.054650702 0.045876689
-0.2174301 0.054650702 0.040507987
-0.16653198 0.054650702 0.04747232
-0.12651381 0.054650702 0.049150176
-0.069844894 0.054650702 0.041565642
-0.013234373 0.054650702 0.046381287
0.066847786 0.054650702 0.044883609
0.093713515 0.054650702 0.045632601
0.19400656 0.054650702 0.042791471
0.2718859 0.054650702 0.049668364
0.30795246 0.054650702 0.047349799
0.37684068 0.054650702 0.044494946
0.45328087 0.054650702 0.043705121
0.45391595 0.063872628 0.042215005
-0.43905616 0.0700913 0.043203671
-0.39640665 0.070091307 0.041728437
-0.29706612 0.070091292 0.044226702
-0.14563203 0.0700913 0.046423681
-0.039787889 0.0700913 0.042288873
-0.015399926 0.0700913 0.04240125
0.13369012 0.0700913 0.045928013
0.17377168 0.0700913 0.045579869
0.29917046 0.0700913 0.042877246
0.37629992 0.0700913 0.043861713
0.4137049 0.0700913 0.048239887
0.43607521 0.0700913 0.046374321
0.44709206 0.0700913 0.041761734
-0.34893566 0.054650702 0.057070032
-0.2060083 0.054650702 0.055640332
-0.14260404 0.054650702 0.059194542
-0.13652512 0.054650702 0.055414274
-0.047985479 0.054650702 0.057387307
0.034382429 0.054650702 0.05452127
0.068355314 0.054650702 0.051883113
0.099966213 0.054650702 0.059279338
0.18271048 0.054650702 0.054711822
0.27800071 0.054650702 0.058870837
0.31205022 0.054650702 0.055419099
0.35225156 0.054650702 0.052754078
0.39830339 0.055435713 0.055940107
0.41913012 0.058205456 0.054872938
0.45000255 0.057841659 0.050516002
-0.40705788 0.0700913 0.056921318
-0.39528945 0.0700913 0.052789398
-0.36109206 0.070091307 0.051030472
-0.26183584 0.0700913 0.057620917
-0.25102675 0.0700913 0.050671138
-0.20515719 0.0700913 0.051873714
-0.19216113 0.0700913 0.050750721
-0.16532505 0.0700913 0.057462707
-0.11758482 0.0700913 0.059301045
0.089446843 0.0700913 0.051004037
0.11565292 0.0700913 0.054319866
0.12906846 0.0700913 0.059386786
0.18309686 0.0700913 0.050130084
0.19667067 0.0700913 0.059065301
0.21365754 0.070091307 0.059212513
0.32547933 0.0700913 0.058280721
0.34237805 0.0700913 0.056798082
-0.41673964 0.057330169 0.061968941
-0.32350412 0.054650702 0.066895708
-0.28183973 0.054650702 0.067928255
-0.19317569 0.054650702 0.060947422
-0.1846026 0.054650702 0.060990896
-0.14429155 0.054650702 0.064099193
-0.085589007 0.054650702 0.063022107
-0.059245758 0.054650702 0.063894838
-0.014498877 0.054650705 0.066120543
0.19322355 0.054650702 0.069806673
0.2339443 0.054650702 0.061163906
0.36876729 0.054650702 0.06617777
0.37856033 0.054650702 0.063035682
-0.43782121 0.061115935 0.060970083
0.38019291 0.063061103 0.065316066
-0.36372802 0.0700913 0.063715741
-0.35253772 0.0700913 0.061383791
-0.29260817 0.0700913 0.06872765
-0.28468177 0.0700913 0.065662883
-0.1630149 0.0700913 0.063725859
-0.11817139 0.0700913 0.069215313
-0.064166948 0.0700913 0.065366641
-0.050384264 0.0700913 0.063814156
-0.023738645 0.0700913 0.062286086
0.13524485 0.0700913 0.062142789
0.1735805 0.0700913 0.064453162
0.21504356 0.0700913 0.068640992
0.22267562 0.0700913 0.060656905
0.28282982 0.0700913 0.065954633
0.34949705 0.0700913 0.068005711
0.37203264 0.070091307 0.064857513
-0.29353738 0.054650702 0.076555744
-0.27984732 0.054650702 0.078153096
-0.2525267 0.054650702 0.070239216
-0.22475128 0.054650702 0.072549701
-0.20137855 0.054650702 0.072903268
-0.1936236 0.054650702 0.073359489
-0.12175551 0.054650702 0.077271469
-0.094004847 0.054650702 0.075436115
0.087404661 0.054650702 0.074815303
0.098863088 0.054650702 0.074394956
0.21838959 0.054650702 0.073251627
0.26750496 0.054650702 0.077482872
0.27590898 0.054650705 0.07517828
0.308166 0.054650702 0.070326686
-0.38530734 0.060248349 0.070015587
0.3562901 0.061440796 0.079105869
-0.28926224 0.070091292 0.07819698
-0.26375332 0.0700913 0.07805872
-0.22350858 0.0700913 0.072481766
-0.15903941 0.0700913 0.079226322
-0.039238825 0.0700913 0.073392823
-0.0029349746 0.0700913 0.070826933
0.029431501 0.0700913 0.072581507
0.1422123 0.0700913 0.079963386
0.15997265 0.0700913 0.070438512
0.24434431 0.0700913 0.078356743
0.28027549 0.0700913 0.075999476
0.34041077 0.0700913 0.078538403
-0.36373207 0.055501178 0.080958702
-0.31657147 0.054650702 0.084656075
-0.24654208 0.054650702 0.089399524
-0.22940284 0.054650702 0.08946798
-0.21963003 0.054650702 0.085729577
-0.20861156 0.054650702 0.082379982
-0.19071808 0.054650702 0.081487566
-0.10719289 0.054650702 0.084856346
-0.09814766 0.054650702 0.089343868
-0.051108461 0.054650702 0.084355026
0.0080025401 0.054650702 0.08055225
0.032670386 0.054650702 0.087357171
0.041624121 0.054650702 0.08609613
0.14254244 0.054650702 0.081884913
0.15459661 0.054650702 0.089955449
0.1984656 0.054650702 0.084199935
0.20326488 0.054650702 0.086533159
0.24459785 0.054650702 0.08773268
0.27927533 0.054650702 0.085986994
0.30639902 0.054650702 0.081095234
0.32065022 0.054650702 0.089337222
-0.34278846 0.0700913 0.080339082
-0.31773058 0.0700913 0.08187747
-0.29733199 0.0700913 0.086652115
-0.26683003 0.0700913 0.080787316
-0.24909575 0.0700913 0.082782291
-0.21099639 0.0700913 0.089492254
-0.072614469 0.070091307 0.087106138
-0.046288501 0.0700913 0.083722383
0.0076117008 0.0700913 0.080417424
0.034362935 0.0700913 0.082360707
0.048523039 0.0700913 0.088808283
0.084132366 0.070091292 0.089986302
0.13228586 0.0700913 0.085269988
0.14580804 0.0700913 0.086673915
0.19916378 0.0700913 0.086224928
0.33352202 0.0700913 0.081516445
-0.29389781 0.054650702 0.091138482
-0.22602934 0.054650702 0.098207802
-0.16900212 0.054650702 0.097738273
-0.1440299 0.054650702 0.091990918
-0.13842779 0.054650702 0.09104766
-0.10472597 0.054650702 0.095188566
-0.070629038 0.054650702 0.091394797
-0.031354316 0.054650702 0.095758483
-0.017676154 0.054650702 0.097044811
0.013865162 0.054650702 0.093902566
0.053206086 0.054650702 0.097284146
0.092859246 0.054650702 0.090269223
0.11171069 0.054650702 0.093584701
0.15086341 0.054650702 0.094856858
0.19593526 0.054650702 0.09046904
0.23082241 0.054650702 0.0959564
0.29361823 0.054650702 0.092580818
0.30677289 0.054650702 0.094578311
0.34075832 0.064124733 0.09250129
-0.32498693 0.0700913 0.092405036
-0.27222842 0.0700913 0.093927681
-0.19125961 0.0700913 0.095845789
-0.11516066 0.0700913 0.095993817
-0.04526908 0.0700913 0.097864017
-0.018206794 0.0700913 0.0956081
0.060734831 0.0700913 0.092317656
0.14873503 0.0700913 0.090889364
0.16272211 0.070091292 0.099470429
0.19224137 0.0700913 0.099654369
0.21611559 0.0700913 0.09077581
0.23408115 0.0700913 0.09381327
0.33221877 0.0700913 0.094075993
0.41278508 -0.033108398 0.107836
-0.25825208 0.054650702 0.10879538
-0.14534461 0.054650702 0.10930145
-0.10970249 0.054650702 0.10300298
-0.047935788 0.054650702 0.100403
0.017287815 0.054650702 0.10626454
0.041170143 0.054650702 0.109014
0.081174627 0.054650702 0.10899974
0.10857348 0.054650702 0.10589577
0.12701637 0.054650702 0.10862316
0.13096009 0.054650702 0.10119211
0.14452548 0.054650702 0.10615224
0.15042126 0.054650702 0.10782912
0.17840859 0.054650702 0.10328001
0.25750047 0.054650702 0.10269996
0.26699746 0.054650702 0.10610017
0.28911132 0.054650702 0.10862822
-0.32909238 0.0700913 0.1048337
-0.26292109 0.0700913 0.1010578
-0.23049918 0.0700913 0.10687508
-0.10189085 0.0700913 0.1065545
0.02181343 0.0700913 0.10734534
0.064206988 0.0700913 0.10718303
0.17581481 0.0700913 0.10429689
0.20907745 0.0700913 0.10855322
0.24395455 0.0700913 0.10745215
-0.40074003 -0.043270592 0.11781031
-0.40587115 -0.03843645 0.111595
0.40661797 -0.02025331 0.11236893
-0.31626597 0.054650702 0.11398091
-0.29239866 0.054650702 0.11812721
-0.27362889 0.054650702 0.11914408
-0.2220756 0.054650702 0.110605
-0.21646132 0.054650702 0.11889213
-0.19930267 0.054650702 0.11400481
-0.16333695 0.054650702 0.11364684
-0.15644379 0.054650702 0.11404745
-0.11632766 0.054650702 0.11847735
-0.10103577 0.054650702 0.11733881
-0.09491092 0.054650702 0.11207741
-0.065550297 0.054650702 0.1102974
-0.019302592 0.054650702 0.1191141
0.027707899 0.054650702 0.1138166
0.032876782 0.054650702 0.11145698
0.047036044 0.054650702 0.11555262
0.068923496 0.054650702 0.11817563
0.15580435 0.054650702 0.11166025
0.20847255 0.054650702 0.11203618
0.24113303 0.054650702 0.11502571
0.26690868 0.054650702 0.11575816
0.2743718 0.056967746 0.11919062
0.28478968 0.055747617 0.11529778
0.29943866 0.060364053 0.11603326
0.30860037 0.064907685 0.1148123
-0.302163 0.070091307 0.11469036
-0.27984697 0.0700913 0.1111187
-0.16262622 0.0700913 0.11884443
-0.13187544 0.0700913 0.11982938
-0.11405308 0.0700913 0.11237908
-0.095665783 0.0700913 0.11752153
0.12470446 0.0700913 0.11013737
0.14269099 0.0700913 0.11531036
0.23134057 0.0700913 0.11574212
0.2614432 0.0700913 0.1139204
0.27959776 0.070091307 0.11837976
-0.29052439 0.054650702 0.1220329
-0.21278943 0.054650702 0.12954305
-0.10119711 0.054650702 0.12183923
-0.096005738 0.054650702 0.12869814
-0.062723123 0.054650702 0.12184387
-0.014300988 0.054650702 0.12310641
0.038273744 0.054650702 0.12624559
0.093391173 0.054650702 0.12217426
0.23285948 0.054872099 0.12251614
-0.25828356 0.065226257 0.12652841
-0.2386463 0.061951991 0.12837861
0.19857816 0.069226436 0.12760644
-0.158268 0.0700913 0.122091
-0.14724651 0.070091307 0.12177655
-0.1163349 0.0700913 0.12848365
-0.032476917 0.0700913 0.12627029
-0.0055890502 0.0700913 0.12761204
0.010163135 0.0700913 0.12387066
0.13057122 0.0700913 0.1224733
0.16779852 0.0700913 0.12343793
-0.39899915 -0.043844111 0.13750206
0.41054124 -0.042486399 0.130187
0.39802593 -0.030587131 0.13743199
-0.39125136 -0.028836854 0.13634907
-0.38583535 -0.02216254 0.13504937
-0.205736 0.059446458 0.13119504
-0.17114197 0.056802407 0.13382336
-0.1025762 0.054945804 0.13704354
-0.094682068 0.057830021 0.13838041
-0.089858457 0.054650702 0.13280396
0.028890094 0.054650702 0.13051397
0.074359633 0.055520359 0.13586293
0.086445563 0.054650702 0.13678634
0.12279099 0.054650702 0.13044631
0.16073789 0.058605481 0.13119519
-0.19394352 0.069407925 0.13214035
-0.15364511 0.06763956 0.13501805
-0.11427505 0.067887299 0.1373836
-0.10038456 0.066731244 0.13810417
-0.091924831 0.060365826 0.13851398
0.1182078 0.069629684 0.13468507
0.13285278 0.064073101 0.13355279
0.068094276 0.0700913 0.13094229
-0.39565581 -0.036816277 0.141709
-0.013503471 0.055682883 0.1409651
0.028039116 0.060173944 0.14039008
0.03342681 0.065901645 0.14010181
-0.054107107 0.0700913 0.14003551
