# .PCD v0.7 - Point Cloud Data file format
VERSION 0.7
FIELDS x y z
SIZE 4 4 4
TYPE F F F
COUNT 1 1 1
WIDTH 903
HEIGHT 1
VIEWPOINT 0 0 0 1 0 0 0
POINTS 903
DATA ascii
-0.21462044 -0.00187742 -0.13056812
-0.081350468 -0.0016095338 -0.132964
-0.029811613 -0.0018774201 -0.13274546
0.0014245957 -0.00038883858 -0.132964
0.28291643 -0.0018774201 -0.13163626
0.31961226 -0.0018774199 -0.13176487
-0.29875329 0.0043848297 -0.132964
-0.27460086 0.0065523959 -0.132964
-0.16874658 0.0099311043 -0.132964
-0.14196473 0.0048030866 -0.132964
0.038431294 0.0046389978 -0.132964
0.056650296 0.0013012765 -0.132964
0.12906238 0.007428701 -0.132964
0.14774927 0.00050089601 -0.132964
0.21992199 0.0095250672 -0.132964
0.27201277 0.0035127965 -0.132964
0.37076104 0.0039414722 -0.13127744
-0.27472678 0.014859946 -0.132964
-0.24005263 0.015652642 -0.132964
-0.13683334 0.011128381 -0.132964
0.0078944657 0.010773062 -0.132964
0.038552895 0.010391101 -0.132964
0.059796989 0.019472839 -0.132964
0.11607899 0.019477617 -0.132964
0.12252437 0.015522581 -0.132964
0.13609877 0.011603633 -0.132964
0.2147572 0.010839124 -0.132964
0.30009565 0.014493708 -0.132964
0.36381441 0.011527226 -0.13163325
-0.35948473 0.025536001 -0.13185802
-0.34961745 0.023411393 -0.13232404
-0.14632893 0.0220566 -0.13107254
0.040492028 0.0220566 -0.13253389
0.081007183 0.022041887 -0.132964
0.091241255 0.020911278 -0.132964
0.2093522 0.0220566 -0.13142619
0.37519923 0.025252348 -0.13027322
-0.29207981 -0.00187742 -0.12527549
-0.28039363 -0.00187742 -0.12629794
-0.25911975 -0.0018774201 -0.12248862
-0.23350807 -0.0018774201 -0.1236371
-0.074187033 -0.0018774201 -0.12523858
-0.046663865 -0.00187742 -0.12636435
0.063217483 -0.00187742 -0.12546179
0.084531285 -0.0018774201 -0.12401536
0.15173724 -0.00187742 -0.12003925
0.16950297 -0.0018774199 -0.12784831
0.20179054 -0.0018774199 -0.12776364
0.22271314 -0.00187742 -0.12972546
0.33645731 -0.0018122782 -0.12041709
-0.39039809 0.0076811537 -0.12398019
0.39165664 0.0073878812 -0.12326724
0.40465105 0.019089837 -0.12020722
-0.39516705 0.02667167 -0.12348133
-0.38309222 0.026131457 -0.12759416
-0.34580892 0.023770107 -0.12975305
-0.31270963 0.0220566 -0.12808563
-0.26772347 0.0220566 -0.12992586
-0.056832761 0.022056598 -0.12925209
-0.030040562 0.0220566 -0.12948664
-0.028606772 0.0220566 -0.12930441
0.051005516 0.0220566 -0.12163758
0.066364214 0.0220566 -0.12840389
0.10679833 0.022056598 -0.12343557
0.13480632 0.0220566 -0.12229556
0.20024848 0.0220566 -0.12942605
0.33608434 0.022059649 -0.12811719
0.37844664 0.029512113 -0.1265986
-0.26201397 -0.0018774201 -0.11275921
-0.25713608 -0.0018774201 -0.11304279
-0.22840866 -0.0018774201 -0.11715211
-0.18396401 -0.0018774201 -0.11907812
-0.11550815 -0.0018774199 -0.11304013
-0.060657509 -0.0018774201 -0.11280657
0.030965824 -0.0018774199 -0.11807702
0.071619734 -0.00187742 -0.11761148
0.15112936 -0.0018774201 -0.11362074
0.16262135 -0.00187742 -0.11606798
0.18736702 -0.0018774199 -0.11706692
0.21444288 -0.0018774201 -0.11078389
0.24628638 -0.00187742 -0.1100527
0.30864334 -0.0018774201 -0.11262596
-0.36316401 0.0028899279 -0.11152845
0.35768268 0.0017255973 -0.11615416
0.38886759 0.0069232471 -0.11309236
-0.41627622 0.027090997 -0.11292635
-0.30068889 0.0220566 -0.11070711
-0.28381726 0.0220566 -0.11238274
-0.19764188 0.022056602 -0.117274
-0.18092948 0.022056602 -0.11218318
-0.042811424 0.0220566 -0.11960538
-0.021436172 0.0220566 -0.11820846
0.057426006 0.0220566 -0.11751322
0.11059751 0.0220566 -0.1148428
0.1494893 0.0220566 -0.11668993
0.15203844 0.0220566 -0.11995117
0.30917612 0.0220566 -0.11446668
0.41988513 0.02745283 -0.11038753
0.41210994 0.035434574 -0.11295378
-0.33594483 -0.00187742 -0.10899082
-0.28031191 -0.0018774201 -0.1081099
-0.27514726 -0.00187742 -0.10524061
-0.050998028 -0.00187742 -0.10253726
-0.047638372 -0.00187742 -0.10101518
0.0962383 -0.00187742 -0.10347463
0.1985186 -0.0018774201 -0.10625742
0.28618425 -0.0018774199 -0.10896382
0.29693586 -0.0018774199 -0.10895045
-0.3971988 0.0088775065 -0.10483863
0.35908467 0.001959315 -0.10177086
0.38850319 0.0068624704 -0.10076547
0.39933422 0.00866755 -0.10804747
0.33606702 0.010583228 -0.10273441
0.41970539 0.012062795 -0.1001533
-0.081476748 0.0220566 -0.10422802
-0.073138177 0.0220566 -0.10679473
-0.050332911 0.022056602 -0.10478137
-0.020882115 0.0220566 -0.10321166
0.015948124 0.0220566 -0.10311709
0.10066168 0.0220566 -0.10976125
0.13001311 0.0220566 -0.10406284
0.15507586 0.022056598 -0.10740717
0.19986272 0.022056598 -0.10009385
0.29950547 0.0220566 -0.10434351
0.31391045 0.0220566 -0.10180273
0.43340725 0.028749425 -0.10097513
0.38621697 0.03087908 -0.10209565
-0.23236579 -0.032089327 -0.095907405
-0.23112199 -0.025890479 -0.090328455
-0.3301872 -0.00187742 -0.095514968
-0.32540056 -0.0018774199 -0.094529159
-0.27978131 -0.00187742 -0.091952614
-0.18678015 -0.00187742 -0.097255804
-0.016333241 -0.0018774201 -0.091005221
0.0055657215 -0.00187742 -0.099090643
0.28786477 -0.0018774201 -0.093282431
0.32074773 -0.0018774199 -0.093210682
0.39665505 0.0082212267 -0.097656213
-0.43736777 0.017777732 -0.097936288
-0.42977333 0.014607882 -0.099009976
0.42929229 0.013660655 -0.099604569
-0.31799525 0.0220566 -0.093490459
-0.25325269 0.0220566 -0.097374737
-0.18428099 0.0220566 -0.093529597
-0.11553763 0.022056598 -0.099837057
-0.06552875 0.0220566 -0.096360698
-0.043643557 0.0220566 -0.0939776
0.014583394 0.0220566 -0.091154292
0.065867707 0.0220566 -0.09690161
0.088387594 0.0220566 -0.09893252
0.2216628 0.0220566 -0.090276651
0.28570998 0.0220566 -0.095147975
0.44235498 0.026158279 -0.091797546
-0.44348645 0.030166689 -0.090452649
-0.39980799 0.033270255 -0.097082287
-0.38476402 0.03062363 -0.093311541
0.41809672 0.036487654 -0.096754797
0.26353136 -0.0337888 -0.080200441
-0.32884169 -0.0018774201 -0.084939212
-0.28586653 -0.00187742 -0.085397422
-0.27680966 -0.0018774199 -0.08874505
-0.12775975 -0.0018774199 -0.081266083
-0.056779984 -0.0018774199 -0.082648098
-0.014084563 -0.0018774201 -0.087033853
0.012732722 -0.00187742 -0.08101631
0.3245579 -0.0018774201 -0.081854314
-0.40390217 0.010056973 -0.08093825
-0.33606696 0.016074982 -0.085432164
0.41134101 0.010668682 -0.082153693
-0.26634905 0.0220566 -0.085266858
-0.216178 0.0220566 -0.080348112
-0.17394444 0.0220566 -0.085866481
-0.10708744 0.0220566 -0.080017537
-0.061818741 0.0220566 -0.084325254
-0.033425748 0.0220566 -0.08040192
0.055472866 0.0220566 -0.084209703
0.098043956 0.0220566 -0.080924466
0.14465857 0.0220566 -0.086203523
0.15167531 0.0220566 -0.088717066
0.17359416 0.0220566 -0.085824788
0.34195432 0.023092255 -0.081919745
0.354516 0.025302039 -0.085080117
0.45135224 0.028727645 -0.080797218
-0.40021297 0.033341497 -0.088041067
0.42851186 0.038319834 -0.081390351
-0.24308902 -0.030703381 -0.075015694
-0.3076407 -0.00187742 -0.07039991
-0.28847623 -0.00187742 -0.077075146
-0.27572 -0.0018774199 -0.074107677
-0.25459945 -0.0018774199 -0.071626812
-0.085102022 -0.00187742 -0.076647401
-0.044412807 -0.00187742 -0.074053623
-0.033445593 -0.00187742 -0.072127432
-0.02782776 -0.0018774201 -0.076763347
0.03697674 -0.00187742 -0.079015777
0.10027948 -0.00187742 -0.075054467
0.13837995 -0.0018774201 -0.078869909
0.14846194 -0.0018774199 -0.079928152
0.39570534 0.0080627212 -0.07474941
0.43422368 0.014482931 -0.076128148
-0.4563221 0.026811223 -0.074753582
-0.36694485 0.027488727 -0.072642922
-0.29613832 0.0220566 -0.070239566
-0.28689229 0.0220566 -0.070153564
-0.26300651 0.0220566 -0.077984259
-0.24963085 0.0220566 -0.077178761
-0.13708213 0.0220566 -0.077702023
0.27252221 0.0220566 -0.071403854
0.31347337 0.0220566 -0.07087215
0.32378182 0.022056602 -0.079324313
0.34588069 0.023782959 -0.076336376
0.36231956 0.026674809 -0.073084071
-0.43291563 0.039094128 -0.079289421
-0.41177863 0.03537605 -0.074034676
0.42932594 0.038463045 -0.078592993
-0.29597044 -0.00187742 -0.067477703
-0.21171188 -0.00187742 -0.062047902
-0.12733611 -0.00187742 -0.061737947
-0.10166364 -0.0018774201 -0.066026047
-0.040973485 -0.0018774201 -0.06225466
-0.027174603 -0.0018774201 -0.061497234
0.030212436 -0.0018774201 -0.069861487
0.081116766 -0.00187742 -0.06255348
0.11576867 -0.0018774201 -0.060047776
0.19584394 -0.0018774201 -0.060202725
0.26559135 -0.0018774201 -0.067741089
0.30436185 -0.0018774199 -0.061963029
-0.36427659 0.0030857427 -0.069746718
-0.35449153 0.0013642315 -0.062961347
0.36194 0.0024353361 -0.067684896
0.38547978 0.0063583949 -0.064431198
-0.4577103 0.01952331 -0.060178742
0.44456348 0.016205877 -0.063471988
-0.24233356 0.0220566 -0.067778833
-0.11128168 0.0220566 -0.062057003
0.015687743 0.0220566 -0.062783465
0.038941994 0.022056602 -0.067755476
0.065205052 0.0220566 -0.060755704
0.079376683 0.0220566 -0.068684518
0.23261243 0.0220566 -0.066056818
0.46227425 0.035986796 -0.06498301
0.25632107 -0.0337888 -0.056178607
0.26119724 -0.0337888 -0.053640515
-0.24070552 -0.0218213 -0.052864082
-0.23112202 -0.024684899 -0.053048506
-0.3304739 -0.00187742 -0.057060808
-0.23238751 -0.0018774201 -0.050362311
-0.1301199 -0.00187742 -0.059674729
-0.12904072 -0.00187742 -0.051802274
-0.11659767 -0.00187742 -0.0589865
-0.089608416 -0.00187742 -0.059135176
-0.044877894 -0.0018774199 -0.051214233
-0.035436947 -0.00187742 -0.058398537
0.0051086508 -0.0018774201 -0.052865446
0.054118827 -0.00187742 -0.051337246
0.14729753 -0.0018774199 -0.050584517
0.16797674 -0.00187742 -0.052598558
0.29766563 -0.0018774199 -0.059496038
-0.35433918 0.0013374919 -0.056678951
0.36815849 0.0034716646 -0.055121418
0.38164663 0.0057196738 -0.059504915
0.40303752 0.0092850085 -0.056521982
-0.42953637 0.014566112 -0.05707654
-0.31398228 0.022056598 -0.057887685
-0.29003417 0.0220566 -0.059699442
-0.25481996 0.0220566 -0.054235406
-0.18622786 0.0220566 -0.055139564
-0.13220733 0.0220566 -0.05121566
0.051521409 0.0220566 -0.057150748
0.12367392 0.022056598 -0.056700565
0.15531702 0.0220566 -0.050776355
0.18694425 0.0220566 -0.05010502
0.20477119 0.0220566 -0.054936074
0.219881 0.0220566 -0.058062345
0.30014262 0.022056602 -0.056843832
-0.40870145 0.034834765 -0.059097476
0.42608571 0.037893038 -0.05614537
0.45741016 0.043403473 -0.055540655
0.25568292 -0.0337888 -0.041164991
0.26049966 -0.0337888 -0.04934036
-0.3245272 -0.00187742 -0.042328157
-0.31299654 -0.0018774199 -0.046172049
-0.22513309 -0.0018774201 -0.043395899
-0.15499626 -0.0018774201 -0.040842783
-0.12615335 -0.00187742 -0.045484297
-0.063836813 -0.0018774199 -0.048353568
0.0091647133 -0.0018774199 -0.043425441
0.065736115 -0.00187742 -0.044042461
0.07345818 -0.00187742 -0.048831701
0.083827384 -0.00187742 -0.045842528
0.24400081 -0.0018774199 -0.045078352
0.28899455 -0.00187742 -0.041645981
-0.37118131 0.0043004565 -0.042638157
0.33606699 0.015778514 -0.048882656
0.43492395 0.014599548 -0.04892502
-0.1344028 0.0220566 -0.04502748
-0.12344007 0.0220566 -0.04705764
-0.094437867 0.0220566 -0.044653017
-0.01082398 0.022056598 -0.048372701
0.001879096 0.0220566 -0.042658005
0.051912136 0.0220566 -0.044049002
0.11628788 0.0220566 -0.046220042
0.12166813 0.022056602 -0.045987792
0.17508893 0.0220566 -0.048440851
0.24263233 0.022056602 -0.04654026
0.27601966 0.022056602 -0.042562272
0.34547436 0.023711473 -0.046548296
-0.42451546 0.037616506 -0.04375606
0.39144731 0.031799294 -0.049387489
-0.231122 -0.0320943 -0.036884036
0.25476271 -0.0337888 -0.035390865
-0.28525141 -0.00187742 -0.030277323
-0.21063575 -0.0018774199 -0.032578241
-0.19579759 -0.00187742 -0.03096802
-0.17189188 -0.00187742 -0.032970913
-0.15195341 -0.00187742 -0.039285786
0.0078932196 -0.0018774199 -0.032211378
0.081526354 -0.0018774199 -0.036593273
0.10268798 -0.0018774201 -0.032509442
0.12113391 -0.0018774201 -0.037068561
0.20309809 -0.00187742 -0.032939594
0.24804139 -0.0018774199 -0.034827244
-0.39383054 0.0082852058 -0.038315017
-0.38107392 0.0060405936 -0.030413616
-0.37222207 0.0044835475 -0.03818002
0.35012078 0.00046546492 -0.03327658
0.37339586 0.0043443879 -0.033177719
0.38885558 0.0069210469 -0.033768781
-0.43284544 0.015148238 -0.036880899
0.41757011 0.011706632 -0.032025024
-0.47292051 0.022198793 -0.036303967
-0.22874884 0.0220566 -0.030531436
-0.049432065 0.0220566 -0.03633808
0.065566249 0.022056598 -0.038547657
0.083839372 0.0220566 -0.036820862
0.11004318 0.0220566 -0.03966555
0.16969302 0.0220566 -0.037224159
0.1709491 0.0220566 -0.037720527
0.2174198 0.0220566 -0.03794514
0.25413308 0.0220566 -0.033052988
0.33944803 0.022651345 -0.031804539
0.35005587 0.024517421 -0.031256396
-0.4753423 0.036776841 -0.031494163
-0.41967708 0.036765415 -0.030147258
-0.40393013 0.033995442 -0.036211472
0.39592332 0.032586798 -0.033690426
0.40398124 0.034004495 -0.034698587
0.42733067 0.038112044 -0.036591098
0.43666959 0.039754901 -0.038116835
0.47490123 0.033105686 -0.03469025
0.44926012 0.04196975 -0.038527697
-0.231122 -0.021912444 -0.020980347
-0.2128084 -0.0032071399 -0.022381911
-0.12448893 -0.0018774201 -0.021251146
-0.041785929 -0.0018774201 -0.021220261
-0.028995721 -0.00187742 -0.025998127
0.073645204 -0.0018774201 -0.028130218
0.14392373 -0.00187742 -0.026442176
0.22980918 -0.0018774199 -0.025022145
0.27556512 -0.0032071401 -0.021666391
0.31193453 -0.0018774199 -0.025546832
0.39117882 0.0073082354 -0.0270836
-0.43260074 0.015105192 -0.020147095
-0.40490085 0.010232667 -0.026518665
0.40905783 0.010288249 -0.022833042
0.41611719 0.011464549 -0.026250562
-0.32557786 0.0220566 -0.02553425
-0.30580035 0.022056598 -0.02851646
-0.29167902 0.0220566 -0.021582413
-0.20382901 0.022056598 -0.029171612
-0.094855875 0.0220566 -0.022002855
0.025248509 0.022056598 -0.022825662
0.047533765 0.022056598 -0.021129774
0.14533865 0.0220566 -0.023642264
0.26744613 0.0220566 -0.023506436
-0.42868221 0.038349457 -0.020378735
-0.47566134 0.042860568 -0.02917145
-0.44601285 0.041398406 -0.021395851
0.44287294 0.040846158 -0.028594663
-0.23650964 -0.0218213 -0.019077964
0.26373899 -0.029068824 -0.017305832
-0.26979047 -0.011829671 -0.010632545
-0.26738513 -0.0018774199 -0.018411176
-0.25507465 -0.0032071399 -0.018874915
-0.22528017 -0.0028140363 -0.015137039
-0.1690748 -0.00187742 -0.016867071
-0.14560494 -0.0018774201 -0.017479006
-0.074819192 -0.0018774201 -0.015138536
-0.015133209 -0.0018774199 -0.014307976
0.0046019489 -0.00187742 -0.01917259
0.031969696 -0.00187742 -0.017122993
0.15201838 -0.0018774201 -0.013061166
0.18629667 -0.00187742 -0.01339808
0.19233535 -0.0018774199 -0.016210631
0.20925885 -0.00187742 -0.011657238
0.23477811 -0.0018774201 -0.015456792
0.2872926 -0.0025422801 -0.016982749
0.29053771 -0.00187742 -0.010722812
0.31430474 -0.0018774201 -0.017106481
0.33106518 -0.0018774201 -0.010818442
0.35370597 0.0010628762 -0.017317606
0.36009511 0.0021277959 -0.014895675
0.39616337 0.0081391782 -0.017615557
0.40710974 0.0099636381 -0.019465372
-0.4549962 0.019045785 -0.017031789
-0.42512149 0.01378946 -0.017191723
-0.41052678 0.01122227 -0.01565814
0.41295746 0.010938065 -0.014062604
0.43970224 0.015395965 -0.018066492
0.44852418 0.016865956 -0.012133573
-0.46144778 0.020180818 -0.016038176
-0.35671884 0.025689576 -0.016722064
-0.30662125 0.0220566 -0.014480206
-0.27667964 0.022056602 -0.010100727
-0.25145757 0.0220566 -0.015693158
-0.10660417 0.0220566 -0.013743268
-0.08555536 0.0220566 -0.017692793
-0.020508274 0.0220566 -0.014548338
0.050663106 0.0220566 -0.015479716
0.077563696 0.022056598 -0.012919418
0.16896623 0.0220566 -0.016123176
0.31833497 0.0220566 -0.019418683
0.33606699 0.021149855 -0.014999975
-0.43732268 0.039869454 -0.015392605
-0.42898667 0.038403008 -0.010526044
-0.41429555 0.035818785 -0.018375486
-0.40442649 0.034082763 -0.016048338
0.43030676 0.038635582 -0.016351979
0.44630596 0.041450076 -0.011521265
0.26162887 -0.0337888 -0.0054712472
0.24337843 -0.024346499 -0.0021772222
0.27370012 -0.025280211 -0.0012293553
-0.26201984 -0.015264365 -0.0031562739
-0.24885669 -0.0151737 -0.00085459702
-0.2207671 -0.017833101 -0.0064852652
0.23069102 -0.011137411 -0.0061314357
0.24707046 -0.0151737 -0.00064352842
0.28003275 -0.0138444 -0.0041647856
-0.19861843 -0.0018774201 -0.0024168473
-0.10174463 -0.0018774201 -0.005885229
0.12612239 -0.00187742 -0.00028753281
-0.45107234 0.018355403 -0.0015055202
-0.41164887 0.011419631 -0.0032048784
-0.40456778 0.010174072 -0.0021121725
-0.47943005 0.029108426 -0.0017324548
-0.3725071 0.028467335 -0.00061026309
-0.36853635 0.027768739 -0.0044510439
-0.35749671 0.02582643 -0.0059538484
-0.30554315 0.022056602 -0.002795862
-0.16676845 0.0220566 -0.0024373131
-0.14646862 0.0220566 -0.0061428328
-0.076844379 0.0220566 -0.0013100801
-0.0081918463 0.022056598 -0.003741039
0.023303375 0.022056598 -0.00041217078
0.12459029 0.0220566 -0.0056593036
0.18209465 0.0220566 -0.0091178585
0.31630087 0.0220566 -0.0055896863
0.35393661 0.025200091 -0.0015578046
-0.4790163 0.039184038 -0.004744783
-0.421067 0.03700991 -0.0072248243
-0.44308525 0.040883325 -0.0072841011
0.47614938 0.046700601 -0.0056076227
0.26382118 -0.033737861 0.0039651785
-0.24523909 -0.020601772 0.0025981632
-0.22352763 -0.025796413 0.003515074
0.26373899 -0.02546186 0.0059143165
-0.2569209 -0.015047053 0.0078266859
0.24517709 -0.01462836 0.00642438
0.28234592 -0.01578285 0.0034847695
-0.33290792 -0.00187742 0.0035715401
-0.31817532 -0.0018774199 0.005821228
-0.28921038 -0.0018774199 0.0041096322
-0.18404445 -0.0018774199 0.0026082536
-0.17756943 -0.00187742 0.0026242656
-0.13426639 -0.00187742 0.0024107369
-0.054979458 -0.0018774201 0.0053286748
0.019983215 -0.00187742 0.0069136182
0.033312395 -0.00187742 0.0064337733
0.059401833 -0.0018774199 0.0023346245
0.10362983 -0.0018774201 0.0069419369
0.11761276 -0.00187742 0.003489621
0.22257495 -0.00187742 0.009057587
0.25549644 -0.0018774201 0.0045427876
0.36380219 0.0027454477 0.0066166366
0.37752822 0.0050332681 0.0044069178
-0.47932783 0.026645929 0.0024766296
-0.36650959 0.027412144 0.0065799104
-0.34453166 0.02354537 0.0074622515
-0.26576585 0.0220566 0.0074872943
-0.20233572 0.0220566 0.0073147146
-0.18353461 0.022056602 0.0089223161
-0.11366134 0.0220566 0.00996585
-0.020950906 0.0220566 0.0073726722
0.043567371 0.0220566 0.0077362843
0.11862034 0.0220566 0.0074092168
0.34655845 0.023902163 0.0025247559
0.4703232 0.020498715 0.0036325436
-0.47554287 0.046593864 0.0090045426
-0.46129128 0.044086333 0.0075877812
-0.43961352 0.040272504 0.003389704
-0.23424496 -0.0025422799 0.013393122
-0.22673292 -0.00187742 0.017728018
-0.16245422 -0.0018774201 0.018442083
-0.13388233 -0.0018774201 0.019781008
-0.12961704 -0.0018774199 0.011005339
0.082702622 -0.0018774201 0.013397204
0.23428446 -0.0046548108 0.015199979
0.27690071 -0.0064998819 0.014219429
0.293704 -0.0086713918 0.012226811
0.39038396 0.0071759596 0.018540414
-0.44713077 0.017661927 0.018565802
-0.40520483 0.010286139 0.013405478
-0.19026497 0.0220566 0.01779389
-0.18613604 0.0220566 0.012865357
-0.12479875 0.0220566 0.016691517
-0.03658738 0.022056602 0.015173502
0.081492782 0.0220566 0.01904819
0.13878112 0.0220566 0.016815919
0.26887494 0.0220566 0.016426371
0.29724932 0.0220566 0.015187102
0.30569443 0.022056602 0.015412963
0.32780761 0.0220566 0.019954126
-0.39656162 0.03269913 0.014514217
-0.38776976 0.031152422 0.016877996
0.4259783 0.037874147 0.01905578
0.44285125 0.040842339 0.017087823
0.45622045 0.043194175 0.017720282
-0.24398151 -0.031900421 0.021632951
-0.24342743 -0.026115825 0.022892985
-0.23697293 -0.0218213 0.026230663
0.25875473 -0.0218213 0.02179575
-0.22173241 -0.0018774201 0.02125966
-0.082327172 -0.0018774199 0.029870678
0.0079186754 -0.00187742 0.023665143
0.059083961 -0.0018774199 0.028243136
0.074603572 -0.0018774201 0.024479263
0.098269641 -0.0018774199 0.023027517
0.26645362 -0.0032071397 0.028840901
0.29353359 -0.0032071399 0.026041728
-0.439257 0.016276397 0.026319047
0.46079287 0.018910065 0.023069493
-0.35693565 0.025727715 0.022095151
-0.34191728 0.023085397 0.020626348
-0.26624739 0.0220566 0.028814869
-0.21100456 0.0220566 0.023389902
-0.14077936 0.0220566 0.029481502
0.14777049 0.0220566 0.029458368
0.32939658 0.0220566 0.0269139
-0.38611162 0.030860711 0.025548795
0.39492381 0.032410946 0.020649873
-0.4742482 0.046365883 0.024369616
0.47131562 0.045850426 0.02680245
-0.29167861 -0.0018774201 0.034519739
-0.26864856 -0.00187742 0.038851313
-0.25491664 -0.00187742 0.038278334
-0.23241642 -0.0021281668 0.033240601
-0.1829513 -0.00187742 0.037332591
-0.14598642 -0.00187742 0.035566613
-0.038136516 -0.00187742 0.035300698
0.21723643 -0.00187742 0.031683162
0.23118903 -0.00187742 0.032793622
0.24227181 -0.0021606029 0.0331266
0.2699132 -0.0032071399 0.031735219
0.27784127 -0.0032071399 0.03140004
0.3107329 -0.00187742 0.030261625
0.32763255 -0.0018774199 0.033994935
-0.40353328 0.0099921003 0.032441687
0.35450044 0.0011951115 0.033430804
0.3817552 0.0057380823 0.033061262
0.43424785 0.014486326 0.031102788
0.45380419 0.01774573 0.038633753
0.46055681 0.018870717 0.038170267
-0.46850851 0.021422757 0.034210358
-0.37808084 0.029447898 0.035928898
-0.36494684 0.027137201 0.036520146
-0.25419313 0.0220566 0.036653202
-0.23854224 0.0220566 0.034402631
-0.17178464 0.0220566 0.038000602
-0.16899195 0.022056598 0.031818114
-0.099539556 0.0220566 0.031642012
-0.026262321 0.0220566 0.036556177
0.059239447 0.022056598 0.038030546
0.22158124 0.0220566 0.031897463
0.26972911 0.0220566 0.034149691
0.31832719 0.0220566 0.039346993
-0.41593748 0.036107607 0.039394997
0.40166533 0.033597041 0.032993875
0.47495559 0.0391853 0.034299456
0.44053096 0.040434174 0.038574472
0.26272595 -0.0337888 0.041669261
-0.33606696 -0.00021724956 0.042506322
-0.30668002 -0.0018774201 0.042745326
-0.27433988 -0.00187742 0.042164728
-0.2407504 -0.00187742 0.046506912
-0.23389694 -0.00187742 0.045112584
-0.21062419 -0.0018774199 0.048640665
-0.19120289 -0.00187742 0.047761347
-0.16461383 -0.0018774199 0.04124207
-0.1509442 -0.0018774199 0.041696101
-0.11807159 -0.00187742 0.048466977
0.13154706 -0.0018774199 0.041376151
0.14873029 -0.00187742 0.045974404
0.18773106 -0.0018774199 0.041005321
0.26679575 -0.00187742 0.040318549
-0.36883402 0.0038875127 0.04074451
-0.33606699 0.0045424155 0.044277448
-0.41567332 0.012127495 0.041923087
-0.40723732 0.010643675 0.047810636
-0.46958107 0.025431594 0.048193894
-0.34767163 0.024097815 0.044154797
-0.31411248 0.0220566 0.043586276
-0.21312389 0.022056598 0.04285638
-0.1732116 0.0220566 0.044934656
-0.047018688 0.0220566 0.040988475
-0.035090309 0.022056598 0.041722409
-0.026371703 0.0220566 0.043075792
0.034833621 0.0220566 0.041310593
0.058380201 0.022056602 0.043154918
0.1268547 0.0220566 0.049767062
0.23467065 0.0220566 0.047527011
0.25591958 0.0220566 0.040752038
0.26903096 0.0220566 0.043795899
0.2980516 0.0220566 0.04197428
0.30546871 0.0220566 0.045631167
0.31274563 0.0220566 0.040016357
0.33931667 0.022628203 0.045658205
0.47253746 0.025145793 0.04136325
-0.40931761 0.034943145 0.046912685
-0.38715267 0.031043861 0.043947726
0.47093201 0.033103559 0.04506395
-0.45254883 0.042548351 0.04761051
0.44902915 0.041929122 0.048411168
-0.21811444 -0.0018774199 0.055180255
-0.14238524 -0.00187742 0.054879315
-0.11841419 -0.0018774199 0.059975639
-0.064775787 -0.0018774199 0.054207079
-0.054216247 -0.00187742 0.056540616
-0.008465901 -0.00187742 0.057101134
0.13053098 -0.0018774201 0.052146241
0.18586126 -0.0018774199 0.056831598
0.19415691 -0.0018774199 0.052846223
0.33606699 0.0089620491 0.053289555
0.35837305 0.0018406236 0.057359807
0.38400647 0.0061132954 0.054967251
-0.40541267 0.010322699 0.052111808
-0.34451956 0.023543242 0.058694102
-0.24427658 0.022056602 0.053979743
-0.1405105 0.0220566 0.050668951
-0.101556 0.0220566 0.058011394
-0.096981734 0.0220566 0.059361987
-0.0031434149 0.0220566 0.055308476
0.021386497 0.0220566 0.052420981
0.15325007 0.0220566 0.058612559
0.18082187 0.022056602 0.058853876
0.26361483 0.0220566 0.055892073
0.28283468 0.0220566 0.05552157
0.4654994 0.028733466 0.057548426
0.39837602 0.033018325 0.054790508
0.4426192 0.040801518 0.056047838
-0.33306348 -0.00187742 0.068145104
-0.10262297 -0.0018774199 0.066822849
-0.021633107 -0.00187742 0.060159359
0.14232679 -0.0018774201 0.06532906
0.1581023 -0.00187742 0.062342621
0.17418554 -0.0018774199 0.063950442
0.19754937 -0.00187742 0.068916067
-0.38242015 0.0062773968 0.066012956
-0.35272437 0.0010531988 0.067204081
-0.4499929 0.018165495 0.060823981
0.41959757 0.012044362 0.068654485
0.44170704 0.015729774 0.06290257
-0.36811846 0.027695214 0.069638632
-0.32057229 0.0220566 0.065331459
-0.31521413 0.0220566 0.062019292
-0.23361903 0.022056602 0.06804347
-0.22911245 0.0220566 0.064351685
-0.21132641 0.0220566 0.060306959
-0.094697975 0.0220566 0.066691428
-0.060850099 0.0220566 0.068539195
0.082471043 0.0220566 0.063308641
0.1113088 0.0220566 0.06146327
0.15987313 0.0220566 0.069841042
0.24466777 0.0220566 0.069637939
0.26826817 0.0220566 0.063215584
0.28208396 0.022056598 0.06357678
0.33409977 0.021269042 0.066947639
0.34036601 0.022812799 0.064990163
0.35629761 0.02561543 0.061458133
0.36521107 0.027183466 0.064212672
0.41652444 0.036211066 0.069573805
0.25866732 -0.0337888 0.076444902
0.26272795 -0.0337888 0.071214698
-0.34415084 -0.00045518449 0.075906634
-0.33814088 -0.0015125514 0.079602391
-0.26278079 -0.00187742 0.074376754
-0.22657551 -0.0018774201 0.071939394
-0.18165341 -0.00187742 0.075699374
-0.17979532 -0.00187742 0.072163478
-0.09512949 -0.0018774201 0.071125403
-0.086479276 -0.00187742 0.074493505
-0.033946563 -0.0018774201 0.072574511
-0.0076149902 -0.00187742 0.074940354
0.011221998 -0.00187742 0.079485133
0.061651278 -0.0018774199 0.072571039
0.19742358 -0.00187742 0.074331164
0.22196652 -0.00187742 0.077096775
0.25937709 -0.00187742 0.078500748
-0.38368925 0.0065007163 0.078628853
0.33606699 0.0092283431 0.076052308
-0.40551254 0.01034026 0.078883484
-0.3303954 0.0220566 0.078723125
-0.20556438 0.0220566 0.071356446
-0.11602887 0.022056598 0.079989359
-0.012844577 0.0220566 0.073367506
0.038812786 0.022056602 0.077002376
0.066551022 0.0220566 0.075243503
0.094435364 0.0220566 0.077480368
0.19115505 0.0220566 0.071991332
0.2241638 0.0220566 0.073786825
0.32207817 0.0220566 0.075842671
0.34576055 0.023761775 0.077091888
0.37488404 0.028885182 0.076335527
-0.40058324 0.033406641 0.073005848
-0.38282678 0.03028282 0.076699294
0.43531007 0.039515745 0.074041747
0.45339113 0.037491634 0.078324452
-0.23438203 -0.0337888 0.086107448
-0.33606699 -0.00046785746 0.081765763
-0.30058774 -0.0018774201 0.08087308
-0.24356303 -0.0018774199 0.088436589
-0.18472573 -0.00187742 0.084413216
-0.11174558 -0.00187742 0.086457044
-0.092014454 -0.00187742 0.089309327
-0.061671797 -0.00187742 0.087191395
0.030267391 -0.00187742 0.084892757
0.045387279 -0.00187742 0.080520608
0.14267957 -0.00187742 0.088993609
0.23148222 -0.0018774201 0.085538603
0.24846646 -0.00187742 0.083128706
0.25455463 -0.00187742 0.088913567
0.28023374 -0.0018774199 0.082319207
0.29742515 -0.00187742 0.085062087
-0.36088499 0.0024890695 0.084845044
-0.4378106 0.016021818 0.085964233
-0.33606699 0.015518784 0.086767048
-0.34057865 0.022849886 0.082683735
-0.32331365 0.0220566 0.084159434
-0.22787024 0.0220566 0.080992721
-0.048265383 0.0220566 0.089960605
-0.01102981 0.0220566 0.085414685
-0.0010620765 0.0220566 0.088229902
0.0034688832 0.0220566 0.083231226
0.01702261 0.0220566 0.080294237
0.07491415 0.0220566 0.086475708
0.083500914 0.0220566 0.082714997
0.10107002 0.0220566 0.084607914
0.17252594 0.0220566 0.085721679
0.22950946 0.0220566 0.087390743
0.30714989 0.0220566 0.083901629
0.35592526 0.025549931 0.081801489
0.38053337 0.029879112 0.084756084
-0.45087618 0.036915965 0.081414379
-0.24308899 -0.031766493 0.094404861
-0.24303633 -0.02278349 0.090664774
-0.34212601 -0.00081142597 0.098070398
-0.33116686 -0.0018774199 0.092936888
-0.32160711 -0.00187742 0.092815757
-0.28045321 -0.00187742 0.093918614
-0.20488423 -0.0018774201 0.094501361
-0.17608795 -0.00187742 0.095592879
-0.12359545 -0.0018774201 0.091206796
-0.079826258 -0.0018774199 0.090009816
0.042039748 -0.0018774199 0.093364038
0.10494422 -0.0018774199 0.091118261
0.21900013 -0.0018774201 0.09586519
0.31566381 -0.0018774201 0.090934612
0.34427524 -0.00050925452 0.094398506
0.39361972 0.0077152052 0.094986096
0.40212655 0.0091329142 0.091410294
0.41377017 0.011073219 0.090562262
-0.33310822 0.0220566 0.092951342
-0.31143007 0.0220566 0.093154378
-0.22579181 0.022056602 0.09690921
-0.21341452 0.022056602 0.091180816
-0.18186067 0.0220566 0.093158834
-0.15160087 0.0220566 0.09521655
-0.10850464 0.0220566 0.095818505
0.010516718 0.0220566 0.091770239
0.071568742 0.0220566 0.093527228
0.097560287 0.0220566 0.098542303
0.20958045 0.0220566 0.098492861
0.30089825 0.0220566 0.097471744
0.36048201 0.026351543 0.095555186
-0.39926043 0.033173919 0.098538391
0.38603228 0.03084659 0.094513968
-0.34546235 -0.00022444315 0.1003967
-0.31425443 -0.00187742 0.10066533
-0.28875712 -0.00187742 0.10765971
-0.26880705 -0.0018774199 0.10146008
-0.1723974 -0.0018774199 0.10017355
-0.16098243 -0.00187742 0.10578898
-0.14108777 -0.0018774201 0.1072407
-0.0087361969 -0.0018774201 0.10120128
0.094844788 -0.00187742 0.10473747
0.1011636 -0.0018774201 0.10866068
0.14907287 -0.00187742 0.10350551
0.17935787 -0.00187742 0.10296612
0.18181346 -0.00187742 0.1046829
0.1944381 -0.0018774201 0.10767734
0.24223378 -0.00187742 0.10328571
0.2896435 -0.00187742 0.10826861
-0.37213302 0.0044678748 0.10062063
-0.35783374 0.0019521199 0.10554692
-0.34764731 0.00015996717 0.10694093
0.42252183 0.016556347 0.1085218
-0.43392617 0.023157042 0.10064519
-0.29425651 0.0220566 0.10366952
-0.23336139 0.0220566 0.10374887
-0.12737972 0.0220566 0.10927462
0.04425022 0.0220566 0.10059153
0.12387382 0.0220566 0.10559523
0.29617956 0.0220566 0.10834813
-0.31991881 -0.0018774201 0.1162266
-0.27538788 -0.0018774201 0.11969613
-0.035481073 -0.0018774199 0.11857365
-0.026108496 -0.0018774201 0.11921047
0.016083501 -0.0018774201 0.11567397
0.22326732 -0.00187742 0.11032507
0.27102274 -0.0018774199 0.11879135
0.30225039 -0.00187742 0.11342869
0.32671446 -0.00187742 0.1145103
-0.35673004 0.0017579388 0.11005244
0.33606699 0.010694573 0.11104007
-0.36199814 0.026618408 0.11986284
-0.34833476 0.024214488 0.11988399
-0.33763748 0.0223327 0.11210949
-0.18218262 0.0220566 0.11837773
-0.075025991 0.022056602 0.11408373
0.0097040087 0.0220566 0.11116624
0.10979883 0.0220566 0.11913013
0.11072125 0.0220566 0.11190915
0.16242667 0.0220566 0.11863141
0.20011252 0.022056598 0.11060853
0.24606158 0.0220566 0.1141189
0.41746652 0.024550654 0.11206414
-0.42042547 0.032422394 0.11003922
-0.38746449 0.031098716 0.11354066
0.388953 0.031360451 0.11556642
-0.28154662 -0.0018774199 0.12310047
-0.27373672 -0.0018774199 0.12527995
-0.25084263 -0.00187742 0.12395701
-0.16525193 -0.0018774199 0.12198665
-0.10308054 -0.00187742 0.12659341
0.0038029347 -0.00187742 0.12451394
0.040722467 -0.00187742 0.12331489
0.061899759 -0.0018774199 0.12242974
0.24014722 -0.0018774199 0.12621011
-0.37253463 0.0045385063 0.12151152
0.35128397 0.00065886509 0.12035774
-0.38558429 0.029912015 0.12674533
-0.37431997 0.028786259 0.12289986
-0.2349951 0.0220566 0.1244796
-0.22851665 0.022056598 0.12970482
-0.19306177 0.0220566 0.12415715
-0.15306199 0.0220566 0.12232651
-0.10691189 0.0220566 0.12918013
-0.076268539 0.0220566 0.129419
-0.054961964 0.022056598 0.12107581
-0.024485558 0.0220566 0.12140685
0.038885608 0.022056602 0.12406546
0.13541831 0.0220566 0.12608987
0.23718821 0.0220566 0.12911953
0.32848352 0.0220566 0.12317132
0.37790069 0.027702507 0.12935716
0.38924333 0.021603337 0.12547031
-0.30238515 -0.0012318437 0.132964
-0.23155934 -0.00023810274 0.132964
-0.2161407 -0.00155184 0.132964
-0.26378977 0.0021132871 0.132964
-0.25211588 0.0030183173 0.132964
-0.2081074 0.0040177843 0.132964
0.015961304 0.0014200597 0.132964
0.027051419 0.003864476 0.132964
0.037704334 0.0082040597 0.132964
0.085654318 0.0048017427 0.132964
0.17496173 0.0064081121 0.132964
0.33150598 0.001723376 0.132964
-0.26012903 0.012000435 0.132964
-0.24977764 0.018260298 0.132964
-0.038175166 0.013391902 0.132964
0.014693499 0.01263545 0.132964
0.023915214 0.011193315 0.132964
0.10195404 0.011686472 0.132964
0.17110845 0.015872588 0.132964
0.27566212 0.011049402 0.132964
0.31630924 0.018593354 0.132964
-0.3314977 0.0220566 0.13243607
-0.24324183 0.021678159 0.13154225
-0.18589489 0.0220566 0.13140476
0.34838325 0.023721209 0.13238129
0.35664624 0.024540734 0.13110837
0.36130187 0.021052988 0.13176112
0.37106761 0.024296584 0.13130298
