# .PCD v0.7 - Point Cloud Data file format
VERSION 0.7
FIELDS x y z
SIZE 4 4 4
TYPE F F F
COUNT 1 1 1
WIDTH 922
HEIGHT 1
VIEWPOINT 0 0 0 1 0 0 0
POINTS 922
DATA ascii
-0.17260179 0.0049907696 -0.18055689
0.12574992 0.00499077 -0.18231596
0.25593218 0.0088700652 -0.18438099
0.26161516 0.0072028516 -0.18438098
0.29052415 0.00499077 -0.18377224
-0.23196487 0.015724311 -0.18438099
-0.06613408 0.01440811 -0.18438099
-0.032594591 0.01132429 -0.18438099
-0.011212647 0.014485609 -0.18438099
0.058603644 0.015597912 -0.18438101
0.12863988 0.015169188 -0.18438099
0.13725223 0.011947657 -0.18438099
0.21155266 0.012978827 -0.18438099
0.24495019 0.010593108 -0.18438098
0.25077435 0.013205618 -0.18438099
0.30913678 0.010599283 -0.18438099
-0.24108961 0.020358499 -0.18342599
-0.22778277 0.020358499 -0.18346874
-0.13396564 0.020358499 -0.18025048
0.064267457 0.020358499 -0.1803717
-0.2198087 0.00499077 -0.17971373
-0.1978057 0.00499077 -0.1728296
-0.18354557 0.0049907705 -0.17775419
-0.038468242 0.0049907696 -0.17421532
0.022414066 0.0049907705 -0.17555559
0.19313164 0.00499077 -0.17314261
0.31532302 0.0068467092 -0.17192647
-0.33418927 0.011702007 -0.17549057
-0.321877 0.02498994 -0.17256051
-0.31039387 0.022210555 -0.1749692
-0.17143014 0.020358499 -0.17117773
-0.15085049 0.020358499 -0.17425129
-0.12892504 0.020358499 -0.17130423
-0.10318601 0.020358499 -0.17393905
-0.066802077 0.020358499 -0.17723149
-0.0033986568 0.020358499 -0.17503679
0.11300152 0.020358499 -0.17167637
0.28125116 0.020358499 -0.17096943
0.29035553 0.020358501 -0.17285559
-0.22515199 0.00499077 -0.16295896
-0.11609761 0.00499077 -0.16721068
0.15561235 0.00499077 -0.16106793
0.29698831 0.0049907696 -0.16636246
0.31824493 0.0077063222 -0.16543038
-0.19493708 0.020358499 -0.16312458
-0.12737469 0.020358499 -0.16399936
0.064353593 0.020358499 -0.16142872
0.081338115 0.020358499 -0.16227052
0.10997061 0.020358499 -0.16426383
0.11748209 0.020358499 -0.16463087
0.35204077 0.034130588 -0.16329795
-0.033034116 0.00499077 -0.15605347
0.063298427 0.00499077 -0.1536037
0.22160228 0.00499077 -0.15875375
-0.34749699 0.014923066 -0.15796377
0.32715014 0.010326195 -0.15430515
-0.3071329 0.021421276 -0.15034097
-0.1478841 0.020358499 -0.15645009
-0.10875878 0.020358499 -0.1595386
-0.088648066 0.020358499 -0.15833321
-0.039555646 0.020358499 -0.159711
-0.37453511 0.037735134 -0.1537203
0.36699945 0.038531549 -0.15170321
-0.18355462 0.00499077 -0.14547655
-0.010217452 0.00499077 -0.14263012
0.045627348 0.0049907705 -0.14993422
0.10255135 0.00499077 -0.14546737
0.23557162 0.00499077 -0.14637348
0.3112376 0.0056447941 -0.1467299
0.34257066 0.014862843 -0.14658481
-0.30689868 0.021364585 -0.14184596
-0.2830441 0.020358499 -0.1406621
-0.18276089 0.020358499 -0.14188646
-0.13539399 0.020358499 -0.14540018
-0.09444008 0.020358499 -0.14332476
-0.024342611 0.020358499 -0.14152171
0.048009053 0.020358499 -0.14024019
0.050055102 0.020358499 -0.14323133
0.067415267 0.020358499 -0.14225762
0.30678302 0.020358499 -0.14300524
0.31524217 0.023304392 -0.14706223
0.38528243 0.027428694 -0.14750886
-0.35439605 0.032860789 -0.14632383
0.37706536 0.04149301 -0.14990632
-0.28685579 0.00499077 -0.13792074
-0.062058523 0.00499077 -0.13711798
0.017229099 0.00499077 -0.13613521
0.036176883 0.00499077 -0.13636801
0.19060457 0.00499077 -0.13653125
0.21474797 0.00499077 -0.13901675
0.26266426 0.00499077 -0.13243073
0.30364668 0.0049907696 -0.1379869
0.32506841 0.0097137624 -0.13217223
-0.35787219 0.017434156 -0.13492264
-0.38717055 0.024525171 -0.13696201
-0.27689838 0.020358499 -0.13273402
-0.26091498 0.020358499 -0.13132785
-0.21568456 0.020358499 -0.13245188
-0.19960637 0.020358499 -0.13418174
-0.0099934638 0.020358499 -0.13694397
1.5541911e-05 0.020358499 -0.13972542
0.086415112 0.020358499 -0.13489968
0.13497293 0.020358499 -0.13250569
0.36380634 0.021110382 -0.13987342
-0.34781384 0.031267684 -0.13533179
0.39833134 0.036427554 -0.13824265
-0.30586836 0.00499077 -0.12471847
-0.27786705 0.00499077 -0.12315615
-0.26736847 0.00499077 -0.12105365
-0.2014402 0.00499077 -0.12325764
0.0029727852 0.00499077 -0.12654555
0.016364697 0.00499077 -0.12087088
0.030386552 0.0049907705 -0.12330809
0.28789538 0.00499077 -0.12017042
-0.33026129 0.027019287 -0.12358069
-0.010056019 0.020358499 -0.12061144
0.014177993 0.020358499 -0.12029208
0.048681587 0.020358499 -0.12964194
0.052414611 0.020358499 -0.12144307
0.10999851 0.020358499 -0.12531923
0.15069553 0.020358499 -0.1264527
0.20715547 0.020358499 -0.12622543
0.2471747 0.020358499 -0.1224264
0.26142415 0.020358499 -0.12511054
0.29923412 0.020358499 -0.12437159
0.39097768 0.029104253 -0.12448691
0.40620089 0.04613971 -0.12876606
0.41271493 0.050561585 -0.12186197
-0.19296449 -0.063525654 -0.11122805
0.21124846 -0.042437598 -0.111144
-0.19854765 -0.0238022 -0.11179599
0.19583711 -0.014633587 -0.11114399
0.18842351 -0.0076852664 -0.11114401
-0.31271908 0.0065052612 -0.11317553
0.036643155 0.00499077 -0.11686842
0.20490918 0.00499077 -0.11736664
0.28308544 0.00499077 -0.11456089
0.30354828 0.00499077 -0.11895256
-0.26774439 0.020358499 -0.11652653
-0.17392713 0.020358499 -0.11947256
-0.12825027 0.020358499 -0.11143972
-0.060443729 0.020358499 -0.1121764
-0.037969187 0.020358499 -0.11414213
0.0062664002 0.020358499 -0.11014043
0.03317003 0.020358499 -0.11525932
0.049189255 0.020358499 -0.11558253
0.077142209 0.020358499 -0.11321698
0.11282662 0.020358499 -0.11523259
0.12280438 0.020358499 -0.11471847
0.24744958 0.020358499 -0.11633141
0.27230915 0.020358499 -0.11156709
0.30034289 0.020358499 -0.11527293
0.314004 0.022940122 -0.11598729
-0.41806144 0.032001846 -0.11407476
0.34682912 0.032597281 -0.11651506
0.4218961 0.03977124 -0.11340421
0.37977087 0.042288993 -0.11247198
-0.231519 -0.035168175 -0.10863027
-0.168815 -0.035055377 -0.10681382
0.23361681 -0.032041959 -0.10442172
-0.2188894 -0.0076047159 -0.10690408
-0.20333193 -0.00164581 -0.10978235
0.18237454 -0.0086188717 -0.10235725
0.20164658 -0.0014010193 -0.10461311
-0.25724372 0.00499077 -0.10938183
-0.18142919 0.00499077 -0.10449207
0.054823261 0.00499077 -0.10197429
0.073436856 0.0049907696 -0.10140182
-0.34157151 0.029756811 -0.1004677
-0.25941411 0.020358499 -0.10885436
0.06677331 0.020358499 -0.10281406
0.11936654 0.020358499 -0.10811593
0.12293924 0.020358499 -0.10493471
0.2647346 0.020358499 -0.10656834
0.30511379 0.020324612 -0.10128
0.38066798 0.026071114 -0.10318648
-0.41389707 0.030993914 -0.10964768
-0.37648827 0.038207859 -0.10559674
0.35355884 0.034577228 -0.10339563
0.42605126 0.039423093 -0.10152571
-0.22217965 -0.055293631 -0.099147402
0.21999255 -0.058402456 -0.098494098
0.21732721 -0.0329559 -0.093397915
0.1967354 -0.028577918 -0.098494098
0.20407739 -0.024510063 -0.098494098
-0.1915295 -0.01421534 -0.099147402
0.21127182 -0.014263232 -0.098494098
0.21242483 -0.0057966905 -0.098658413
-0.30001438 0.00499077 -0.09187603
-0.25111169 0.00499077 -0.098701805
0.011702433 0.00499077 -0.095327646
0.037532516 0.00499077 -0.099401966
0.050821971 0.00499077 -0.097968876
0.092562601 0.00499077 -0.094997585
0.14986938 0.00499077 -0.096248746
0.29220951 0.00499077 -0.098884515
0.30304196 0.00499077 -0.098600462
-0.33792287 0.028873682 -0.094041578
-0.18538198 0.020358499 -0.094749115
-0.045345619 0.020358499 -0.094682455
0.11108545 0.020358499 -0.098225355
0.14738591 0.020358499 -0.098872185
0.1917468 0.020358499 -0.095225312
0.25889444 0.020358499 -0.097296759
0.3085191 0.020358499 -0.093146585
0.36433643 0.021266326 -0.091305688
-0.3458721 0.030797709 -0.098412946
-0.43245521 0.046999179 -0.09276668
0.4078961 0.050563503 -0.097019091
-0.18550777 -0.032762393 -0.084530652
0.1867003 -0.031831272 -0.082444735
0.21643996 -0.031398967 -0.086218543
-0.32582051 0.0096763959 -0.087363139
-0.052979361 0.00499077 -0.089483663
-0.013244249 0.00499077 -0.086917482
0.15352978 0.00499077 -0.085930422
0.238574 0.00499077 -0.08604037
0.25500968 0.00499077 -0.084739476
0.29943013 0.00499077 -0.087195635
-0.39055428 0.025344152 -0.080074832
-0.2015346 0.020358499 -0.081876971
-0.19628763 0.020358499 -0.080551699
-0.16810626 0.020358499 -0.087157927
-0.11725378 0.020358499 -0.083575137
-0.062712386 0.020358499 -0.086772881
-0.0071576238 0.020358499 -0.083700858
0.0021321476 0.020358499 -0.081375003
0.093656532 0.020358499 -0.084348604
0.2950002 0.020358499 -0.084951885
0.31690958 0.023794938 -0.086858451
0.38257396 0.043113679 -0.088819213
0.42719197 0.056240171 -0.084663264
-0.20210755 -0.040094752 -0.079434231
-0.20339334 -0.032997601 -0.076976754
-0.2044546 -0.029522549 -0.075467475
-0.31850496 0.007905703 -0.079451665
-0.29363942 0.00499077 -0.073319852
-0.27399519 0.00499077 -0.078796312
-0.18119532 0.0019731221 -0.076344967
-0.097026721 0.00499077 -0.077226013
-0.05046881 0.00499077 -0.071109533
0.21805425 0.00089798705 -0.073870495
0.23643725 0.00499077 -0.073441938
0.2888357 0.0049907696 -0.078902766
-0.35856313 0.01760138 -0.078423738
-0.40349245 0.028475637 -0.07136026
-0.26286313 0.020358499 -0.074134797
-0.16227829 0.020358499 -0.077514738
0.14991398 0.020358499 -0.07850337
0.29865062 0.020358499 -0.072735086
-0.37681866 0.038287822 -0.078840397
-0.4205482 0.04887192 -0.077562876
-0.38943213 0.041340724 -0.070340067
-0.43284726 0.051848777 -0.078497469
0.43014818 0.05710984 -0.076638728
-0.21729155 -0.033768192 -0.061688758
-0.19038793 -0.036828764 -0.060403205
0.20042938 -0.0329559 -0.069010131
-0.20269728 -0.027740315 -0.066014618
-0.19210204 -0.027633006 -0.066830121
-0.2099385 -0.00040047546 -0.06859307
0.20387536 -0.001004277 -0.065197803
-0.29905692 0.00499077 -0.068278633
-0.13702816 0.00499077 -0.062227309
-0.10861909 0.00499077 -0.065683402
0.083468743 0.00499077 -0.063219205
0.27145928 0.00499077 -0.066169262
-0.35491049 0.016717341 -0.067393385
-0.33136418 0.011018205 -0.062616743
-0.3370375 0.0286594 -0.066124395
-0.20618242 0.020358499 -0.068240136
-0.17662649 0.020358499 -0.065403722
-0.048619259 0.020358499 -0.066117823
0.14389178 0.020358499 -0.067135163
0.24541207 0.020358499 -0.063596308
0.25085104 0.020358499 -0.063307881
0.38712069 0.027969513 -0.062304087
-0.44597316 0.038783014 -0.068925798
0.3620556 0.037077039 -0.069196761
-0.38654047 0.040640831 -0.067427009
0.38510826 0.043859273 -0.064195916
0.40182662 0.048777856 -0.064133123
-0.18637717 -0.035157636 -0.059429772
0.20662403 -0.0329559 -0.053266242
-0.21215619 -0.025151253 -0.055322979
-0.20017689 -0.025709152 -0.05685778
-0.19603604 -0.0255928 -0.058860861
-0.20527631 -0.0039954176 -0.051382259
-0.19011626 -0.0024269279 -0.058891416
-0.18696968 -0.00085229008 -0.059436653
0.2148315 -0.002891385 -0.055618439
-0.30416673 0.00499077 -0.058847446
-0.28966826 0.00499077 -0.053141568
-0.25117198 0.00499077 -0.059240963
-0.13705274 0.00499077 -0.050080448
-0.12038034 0.00499077 -0.052855015
-0.1082121 0.00499077 -0.059819862
0.11407318 0.00499077 -0.057762951
0.18258251 0.00499077 -0.050918587
0.23161705 0.0049907696 -0.056366839
0.27191281 0.0049907705 -0.050300948
0.30789435 0.0050005405 -0.058346607
0.32606798 0.010007832 -0.053115122
-0.40276903 0.028300542 -0.05912181
-0.29003021 0.020358499 -0.05914231
-0.26801693 0.020358499 -0.053980425
0.062899388 0.020358499 -0.053251561
0.19578943 0.020358499 -0.0562464
0.36297479 0.020865731 -0.056325812
-0.43595821 0.036333561 -0.052338995
-0.35247833 0.032396641 -0.059281304
0.35789931 0.035854217 -0.059673775
0.36324936 0.037428237 -0.056820571
0.4044413 0.033065267 -0.050810963
-0.42876506 0.050860718 -0.053359959
0.42590198 0.055860676 -0.057082906
0.431348 0.057462811 -0.059261091
0.44222456 0.06066284 -0.059341006
-0.20497876 -0.02431584 -0.047522619
0.20685069 -0.026677459 -0.046931952
-0.18119299 0.0021121486 -0.040706944
-0.061237413 0.00499077 -0.047442351
0.093827017 0.00499077 -0.046859518
0.25394398 0.00499077 -0.04261975
0.28684145 0.0049907696 -0.042552065
0.30511135 0.00499077 -0.041191965
0.32254532 0.0089714816 -0.044629682
-0.3384912 0.012743266 -0.048058718
-0.33758155 0.028791079 -0.043620653
-0.30647808 0.021262787 -0.041731596
-0.27436152 0.020358499 -0.042238191
-0.26395485 0.020358499 -0.04442947
-0.21974106 0.020358499 -0.044442587
-0.16547588 0.020358499 -0.044790395
-0.12359033 0.020358499 -0.04735456
-0.03091961 0.020358499 -0.042833768
0.0878499 0.020358499 -0.045939665
0.095229357 0.020358499 -0.04938912
0.21691662 0.020358499 -0.049509291
0.26834372 0.020358499 -0.044390529
0.28221217 0.020358499 -0.049959127
0.31123331 0.020358499 -0.044340096
0.36519837 0.021519916 -0.049723066
0.38312525 0.026794042 -0.047656879
-0.37478262 0.037795037 -0.049204059
-0.41295305 0.047033597 -0.046049293
0.45123884 0.059889186 -0.044929799
-0.21268509 -0.032997601 -0.034579933
-0.1884018 -0.032997601 -0.035605129
0.19924396 -0.039647371 -0.035453916
0.20926486 -0.037900455 -0.031454798
0.183185 -0.028569698 -0.033898138
0.21694526 -0.021673994 -0.035318844
-0.19449839 -0.0063910414 -0.034148879
-0.0086563323 0.00499077 -0.033230297
0.017414082 0.00499077 -0.034207884
0.034921944 0.00499077 -0.038795542
0.067216843 0.00499077 -0.035571374
0.15992469 0.00499077 -0.033083938
0.25362006 0.00499077 -0.037822016
-0.36675653 0.019584408 -0.037571166
-0.32654783 0.026120475 -0.035975501
-0.30201226 0.020358499 -0.035882205
-0.28972787 0.020358499 -0.031055614
-0.18091063 0.020358499 -0.034003213
0.24528946 0.020358499 -0.032694604
0.38793311 0.028208531 -0.035704676
-0.44146314 0.037665993 -0.036496654
0.42288703 0.038492128 -0.034908511
-0.41148028 0.046677142 -0.032070197
0.43285614 0.041425195 -0.03979307
0.44161767 0.04400298 -0.039921425
0.45299497 0.060171939 -0.032394581
0.18318498 -0.030976372 -0.026273087
0.21301118 -0.036049828 -0.025473053
-0.21788698 -0.020768782 -0.026648305
0.20785728 -0.01847134 -0.023116441
0.183185 -0.0020269894 -0.025310308
0.20489888 -0.0091578569 -0.026283234
-0.25868776 0.00499077 -0.023625799
-0.14037821 0.0049907705 -0.023995508
-0.12193125 0.00499077 -0.029691979
0.017329678 0.0049907696 -0.028401513
0.22639135 0.00499077 -0.029117856
-0.25928307 0.020358499 -0.025647461
-0.21916632 0.020358499 -0.021095732
-0.13690436 0.020358499 -0.025795624
-0.075898059 0.020358499 -0.020236097
-0.039074376 0.020358499 -0.025233351
0.028658673 0.020358499 -0.029101167
0.068360746 0.020358499 -0.020214723
0.17294253 0.020358499 -0.023094624
-0.44108498 0.037574455 -0.027800059
-0.45309696 0.040482044 -0.022551307
0.43558481 0.042228021 -0.028187182
-0.44028041 0.053647876 -0.026625527
0.40902671 0.050896138 -0.022679063
0.44540295 0.06159804 -0.020038322
0.183185 -0.031357598 -0.017479192
-0.21311572 -0.020583332 -0.012884415
-0.20370965 -0.017208608 -0.018147197
0.19363463 -0.012719242 -0.01571339
-0.18268633 -0.0064111184 -0.014572356
-0.28027269 0.00499077 -0.014810255
0.050649915 0.00499077 -0.01930354
0.064626649 0.00499077 -0.017268695
0.2244423 0.00499077 -0.014328055
0.30100697 0.00499077 -0.018097401
0.33935466 0.013916709 -0.0129705
-0.31812862 0.024082679 -0.010329358
-0.22653921 0.020358499 -0.016920988
-0.20709455 0.020358499 -0.019554075
-0.13835298 0.020358499 -0.016634788
-0.061373301 0.020358499 -0.014881015
0.16183171 0.020358499 -0.019180102
0.17561069 0.020358499 -0.010588601
0.19593838 0.020358499 -0.014336622
0.22828199 0.020358499 -0.018762011
0.36458272 0.021338796 -0.019622751
-0.342664 0.030021235 -0.011093251
-0.41877314 0.048442289 -0.018217362
-0.40639746 0.045446917 -0.018092263
-0.38829541 0.041065596 -0.015541679
0.45596838 0.048225082 -0.011493721
0.20749295 -0.038638748 -0.0021972805
-0.21884006 -0.027384831 -0.0018202225
0.18363562 -0.014970016 -0.0023082304
0.21961945 -0.015344667 -0.0070829662
-0.2973215 0.0049907696 -0.0048304275
0.021760292 0.0049907696 -0.0053366274
0.066571414 0.0049907696 -0.0021445337
0.17001119 0.0049907696 -0.0049285553
0.34350681 0.015138255 -0.0075808465
-0.24234083 0.020358499 -0.0065165907
-0.2338182 0.020358499 -0.004488524
-0.2234458 0.020358499 -0.0078457929
-0.057680123 0.020358499 -0.0035563037
0.0066389143 0.020358499 -0.0091217607
0.025806347 0.020358499 -0.0041240086
0.15061699 0.020358499 -0.0023066811
0.37663415 0.024884351 -0.0068236515
-0.35703197 0.033498779 -0.0032714447
0.39923817 0.031534497 -0.0060276128
-0.40438733 0.044960395 -0.0087978467
0.42283827 0.054959375 -0.0021982081
-0.18945377 -0.033301201 0.0041071498
0.202158 -0.038942799 0.0019545769
-0.21897563 -0.027253885 0.0042470554
-0.18125166 -0.024138324 0.0054192981
0.20556757 -0.0172686 7.5368211e-05
-0.29778299 0.00499077 0.0081658959
-0.2446554 0.0049907696 0.0043739192
-0.11874704 0.00499077 0.0076736808
-0.038632672 0.00499077 0.0038490375
-0.0065581962 0.00499077 0.0081200004
0.074964643 0.00499077 0.0037077088
0.098196328 0.00499077 0.0018342994
0.1477993 0.00499077 0.0080488659
-0.26181781 0.020358499 0.0057701916
-0.2532925 0.020358499 0.0094461069
-0.24140123 0.020358499 0.0037566498
-0.16654421 0.020358499 0.0067971386
-0.089818329 0.020358499 0.00044218823
0.32642815 0.026595302 0.00020878762
-0.356186 0.033294022 0.0069070011
0.40502957 0.033238351 0.0086336555
-0.41578186 0.047718287 0.00038010627
-0.4294889 0.051035929 0.0063644834
0.43617916 0.058884084 0.0068236999
-0.19378898 -0.032997601 0.01266432
0.19882099 -0.0329559 0.019845121
-0.19154847 -0.0171862 0.012299587
-0.18251716 -0.019280136 0.012166642
0.21268047 -0.0172686 0.014565511
-0.25642931 0.00499077 0.010846592
-0.17890112 0.0049907696 0.017630767
-0.10094099 0.00499077 0.0174729
-0.040861189 0.00499077 0.010891242
-0.022902466 0.00499077 0.015264768
0.081595853 0.00499077 0.017452564
0.124189 0.00499077 0.015687894
0.27837443 0.00499077 0.017173402
0.3555195 0.018672371 0.01197822
-0.24721366 0.020358499 0.013330989
-0.028130457 0.020358499 0.01606898
-0.0090138167 0.020358499 0.01747334
0.0019857567 0.020358499 0.016834196
0.018175796 0.020358499 0.011916234
0.25505549 0.020358499 0.016154014
0.28610858 0.020358499 0.018794671
0.31793746 0.024097338 0.014184579
0.32380584 0.02582382 0.015271299
0.37026417 0.023010291 0.012230249
-0.41954911 0.032361917 0.010550167
-0.39769033 0.043339491 0.011356052
0.39080456 0.04553514 0.014006702
0.4577612 0.049204484 0.019671213
-0.19988045 -0.035282336 0.027880572
0.21149625 -0.036970727 0.024735272
0.20085001 -0.025222734 0.024711162
-0.19318327 -0.017864821 0.020792898
0.20649317 -0.01428336 0.024414051
0.19087233 -0.0097049903 0.022833109
-0.23150727 0.00499077 0.02843353
-0.21914101 0.0022376627 0.022689918
-0.081066906 0.00499077 0.027105011
-0.038044304 0.00499077 0.029769633
0.11988421 0.00499077 0.025889607
0.22113201 0.0014594945 0.029935529
0.30861408 0.0048729763 0.026063763
-0.33661446 0.012289008 0.025073484
-0.23377904 0.020358499 0.029977035
0.023013741 0.020358499 0.022867598
0.10082692 0.020358499 0.023926504
0.31009984 0.020358499 0.024263971
-0.44501656 0.038526125 0.024589872
0.34572116 0.032271318 0.024290875
0.39483857 0.030240128 0.025527332
-0.4113048 0.046634674 0.02017685
0.39329425 0.046267606 0.027380023
-0.21914101 -0.026960373 0.038010836
-0.19326884 -0.020642426 0.034409698
0.19915245 -0.0068861851 0.039417565
-0.26614815 0.00499077 0.030748034
-0.17523681 0.00499077 0.031970188
-0.16609509 0.00499077 0.039128035
-0.034077838 0.00499077 0.036639445
-0.0079105236 0.00499077 0.032370243
0.0020850077 0.00499077 0.039293095
0.032802418 0.00499077 0.036847513
0.10489267 0.00499077 0.03326425
0.1334832 0.0049907696 0.037199892
0.1515601 0.00499077 0.037228186
-0.36760968 0.019790892 0.031246211
-0.3905834 0.025351195 0.039477065
-0.32142377 0.024880245 0.03380172
-0.29112047 0.020358499 0.030377215
-0.26407489 0.020358499 0.033764575
-0.2452188 0.020358499 0.036553051
-0.14572258 0.020358499 0.035819292
0.29990348 0.020358499 0.034745507
0.30005711 0.020358499 0.030985616
-0.3851918 0.040314417 0.031144418
0.42297122 0.05499848 0.032430205
0.45157659 0.06171833 0.039909948
-0.19257912 -0.032997601 0.040436793
0.21795851 -0.0329559 0.046500847
-0.18119299 -0.025114255 0.043786809
0.18974739 -0.022867832 0.045735985
0.22109963 -0.025270881 0.04975608
-0.19522336 -0.0064466731 0.040575143
0.20473751 -0.0053185318 0.046883956
0.21478626 -0.0030021737 0.04839921
-0.28743517 0.00499077 0.044990651
-0.1618734 0.00499077 0.046427727
-0.13420953 0.0049907705 0.041776471
-0.086475238 0.00499077 0.046292376
-0.023565453 0.00499077 0.044483926
0.024248678 0.00499077 0.047220245
0.10557705 0.00499077 0.046593644
0.14855942 0.00499077 0.040000454
0.15621123 0.00499077 0.044786911
0.221132 0.0037611497 0.040199906
0.24537541 0.00499077 0.046930056
-0.36152309 0.018317781 0.046201829
-0.34249565 0.029980484 0.045583289
-0.32272804 0.02519593 0.041080572
-0.31816977 0.024092644 0.046557739
-0.29662767 0.020358499 0.048725359
-0.19106433 0.020358499 0.043556195
-0.13799182 0.020358499 0.046012767
-0.065041907 0.020358499 0.041031722
0.054819435 0.020358499 0.0495666
0.079379328 0.020358499 0.042311653
0.22947374 0.020358499 0.04307197
0.30952397 0.02092224 0.045768324
0.31114212 0.020358499 0.046585616
-0.42448577 0.033556785 0.049981605
0.36440662 0.037768714 0.040539425
0.41868395 0.037255507 0.044867247
-0.38674748 0.040690947 0.044087827
-0.44453764 0.054678261 0.042764563
-0.43091524 0.051381156 0.040203344
-0.19140047 -0.037250642 0.052907288
0.19871806 -0.039428234 0.056822158
0.21485287 -0.03557216 0.057339787
0.221132 -0.032126345 0.05783027
-0.21712938 -0.02447382 0.050138563
-0.20275003 -0.025112219 0.05748228
0.19580048 -0.028366778 0.054205708
0.18966265 -0.0035428533 0.054558709
0.21909589 -0.0022633616 0.052797701
-0.30209535 0.00499077 0.05111675
-0.26619267 0.00499077 0.056629334
-0.18119299 0.0046456191 0.051957846
0.039209861 0.00499077 0.051188584
0.13510865 0.00499077 0.05849934
0.15048881 0.00499077 0.052770726
0.23462746 0.00499077 0.058512393
0.30320579 0.00499077 0.050196793
0.35161495 0.017523648 0.056666631
-0.39636797 0.026751272 0.050141592
-0.30619514 0.0211943 0.057078838
-0.20183754 0.020358499 0.056534186
-0.012763947 0.020358499 0.057451371
0.14682274 0.020358499 0.059253719
0.30710188 0.020909514 0.057996619
-0.43496811 0.036093924 0.053249903
0.3495667 0.033402704 0.052560512
-0.4405587 0.053715236 0.051377393
-0.43720448 0.052903391 0.0583761
0.44674009 0.061991476 0.050461505
-0.19268717 -0.032997601 0.06525287
-0.18316649 -0.033819877 0.062151369
-0.20664239 -0.026957814 0.064903483
-0.19882773 -0.027108334 0.061675098
-0.18119299 -0.02974809 0.066492513
-0.19057995 -0.00082077872 0.067509018
0.18620825 -0.0013872799 0.063996322
0.21949278 -0.00070169207 0.066436775
-0.27240688 0.00499077 0.062337928
-0.21914101 0.0022042459 0.066007964
-0.15195566 0.00499077 0.065551028
-0.12557192 0.00499077 0.066358224
-0.025580237 0.0049907696 0.06814222
0.015761988 0.00499077 0.065339714
0.047619402 0.00499077 0.069131002
0.14172941 0.00499077 0.067964114
0.23260036 0.00499077 0.065935835
0.28951257 0.00499077 0.067742966
0.29363891 0.00499077 0.066871583
0.30701515 0.0049907696 0.066484429
0.31092677 0.017531127 0.065364011
-0.37450099 0.02145878 0.065470137
-0.16586202 0.020358499 0.060942166
-0.047709197 0.020358499 0.069253862
0.01544987 0.020358499 0.061933167
0.025942102 0.020358499 0.060983364
0.096249215 0.020358499 0.063973114
0.22738284 0.020358499 0.069002405
0.26899672 0.020358499 0.066031128
0.32883799 0.027304275 0.063503131
-0.36136723 0.034548059 0.062277909
0.42147464 0.038076576 0.0698255
-0.413672 0.04720762 0.065336913
0.37339181 0.040412225 0.068259344
0.43055421 0.057229299 0.068570673
0.4456369 0.056763403 0.061571587
-0.20028904 -0.030235775 0.075197354
-0.18553448 -0.031674646 0.077992409
0.20046112 -0.0329559 0.071310006
-0.21370155 -0.028552815 0.07208465
-0.18473548 -0.028448345 0.073100761
0.20895535 -0.028101057 0.072958112
-0.21941105 0.00499077 0.07794895
-0.19432287 0.0017290611 0.075812414
-0.14286685 0.00499077 0.079572596
-0.086489744 0.00499077 0.072772332
0.069928922 0.0049907705 0.074348748
0.086663954 0.00499077 0.07140214
0.12357631 0.00499077 0.078208469
0.15789321 0.00499077 0.073924474
0.16155843 0.00499077 0.073940873
0.17088978 0.00499077 0.07200487
0.20299333 0.0011576898 0.073164798
0.21322645 0.00067125505 0.07026884
-0.34850141 0.015166164 0.077864997
-0.28393042 0.020358499 0.074379973
-0.17037585 0.020358499 0.078345075
-0.16495652 0.020358499 0.072193198
0.044975098 0.020358499 0.071669549
0.087513871 0.020358499 0.072517201
0.14665261 0.020358499 0.073690571
0.16108733 0.020358499 0.079195514
0.18062779 0.020358499 0.079875335
0.20595115 0.020358499 0.077562995
0.39204508 0.029418284 0.070247851
0.33994412 0.030571705 0.078779563
0.40617794 0.033576194 0.074898928
-0.2062002 -0.03174575 0.08462362
-0.1835746 -0.031768244 0.089430846
-0.19367287 -0.028585061 0.08455389
-0.32058924 0.0084101958 0.086477116
-0.10063114 0.00499077 0.080609627
-0.038159784 0.00499077 0.088083133
0.026315499 0.00499077 0.08795137
0.030764401 0.00499077 0.08076603
0.054881636 0.00499077 0.082781181
0.0899662 0.00499077 0.0836595
0.19675148 0.0030953754 0.085551068
0.29278445 0.00499077 0.08799769
-0.20762633 0.020358499 0.086862333
0.03995432 0.020358499 0.08270137
0.18908571 0.020358499 0.08637844
0.2999478 0.020358499 0.081587367
-0.42785722 0.034372814 0.089493409
0.21784401 -0.0329559 0.092977062
-0.19397193 -0.02819553 0.093026638
-0.20540287 0.0046905829 0.093784019
-0.12579621 0.00499077 0.090038918
-0.11573936 0.0049907705 0.090488672
-0.051903468 0.00499077 0.09879183
-0.034129769 0.00499077 0.097108275
-0.023597717 0.00499077 0.096138857
0.10987849 0.00499077 0.095684998
0.1273035 0.00499077 0.09086176
0.18325914 0.0049854293 0.095953099
0.22963688 0.00499077 0.092690997
0.30855539 0.0077320728 0.093388289
-0.40871239 0.029739039 0.097501747
-0.3241331 0.025536012 0.097258084
-0.16180702 0.020358499 0.092360854
-0.096851595 0.020358499 0.093214229
-0.050820433 0.020358499 0.092929624
-0.044355497 0.020358499 0.095497884
-0.037769526 0.020358499 0.098140255
-0.0068490878 0.020358499 0.095016621
-0.42740536 0.034263443 0.091292366
-0.4178026 0.031939194 0.09618298
-0.41151986 0.046686716 0.094274953
0.43312952 0.045236338 0.094745696
-0.21414869 -0.031592652 0.10007499
0.19743164 -0.039209243 0.10858531
0.17764634 -0.026653361 0.100728
0.20814726 -0.022149142 0.100728
-0.21224973 -0.010170911 0.100075
0.22658804 -0.013292544 0.10727502
0.19200818 -0.0032253466 0.10770544
-0.26357019 0.00499077 0.10904592
-0.1503312 0.00499077 0.10339413
-0.094133034 0.00499077 0.10153265
-0.023691067 0.00499077 0.10170384
0.079947606 0.00499077 0.10179508
0.13008718 0.00499077 0.1079611
0.21938618 0.00499077 0.10304514
0.34273148 0.014910149 0.10109851
-0.40718043 0.029368255 0.101685
-0.3964828 0.026779063 0.10015088
-0.25358525 0.020358499 0.10613963
-0.1988114 0.020358499 0.10234263
-0.056554012 0.020358499 0.10880524
-0.04767672 0.020358499 0.1048653
0.016432978 0.020358499 0.10185745
0.089467719 0.020358499 0.1041549
0.37836814 0.02539449 0.10766843
-0.37962624 0.038967356 0.10055996
-0.42547628 0.045469936 0.10369992
0.37706792 0.041493762 0.10479184
0.1772823 -0.049601998 0.113378
-0.17048265 -0.039394677 0.112724
0.22012711 -0.038488068 0.113378
0.22337937 -0.022384189 0.113378
-0.21144477 -0.01505743 0.112724
-0.21586001 -0.0055624144 0.1110727
-0.19698979 -0.002976568 0.11272401
-0.32477385 0.0094230575 0.11255044
-0.25997025 0.00499077 0.11019377
-0.24539888 0.00499077 0.11336289
-0.23353864 0.00499077 0.11674035
-0.22480114 0.00499077 0.11378232
-0.19925064 0.00499077 0.11525582
-0.18518133 0.0049907705 0.11535534
0.0099027231 0.00499077 0.11659987
0.011654109 0.00499077 0.11737823
0.040626042 0.00499077 0.11682677
0.17435706 0.00499077 0.11153563
0.22545111 0.00499077 0.11904283
0.29197514 0.00499077 0.11727736
0.33675313 0.013151355 0.11727926
-0.3257992 0.025939276 0.11215317
-0.28267717 0.020358499 0.1196153
-0.20582639 0.020358499 0.11579053
-0.19582392 0.020358499 0.11022887
-0.060624264 0.020358499 0.11763209
-0.053403296 0.020358499 0.11479182
0.17375207 0.020358499 0.11615332
0.39317724 0.02975136 0.11552165
-0.41503084 0.044300534 0.11613519
-0.31306916 0.0065900069 0.1258603
-0.29746285 0.00499077 0.12609388
-0.12668705 0.0049907696 0.12743613
0.058774788 0.00499077 0.12731399
0.072622612 0.00499077 0.1254794
0.17295527 0.00499077 0.12960894
0.20485553 0.00499077 0.12034222
0.27535701 0.00499077 0.12294598
0.31396726 0.0064478535 0.12753004
0.32130384 0.0086062513 0.12595265
-0.34909162 0.015309016 0.12376234
0.3323361 0.011851878 0.12523794
-0.34241268 0.029960407 0.12251157
-0.11092533 0.020358499 0.12452041
0.0013007522 0.020358499 0.12575069
0.10686671 0.020358499 0.12242092
0.1535929 0.020358499 0.12840822
0.17573205 0.020358499 0.12276306
0.31553745 0.02339126 0.12877184
-0.41640937 0.035820033 0.12023801
-0.38112602 0.039330352 0.12099802
0.34800684 0.032943785 0.12715854
0.39557844 0.030457795 0.12602207
-0.39534551 0.042771958 0.12556666
0.38644588 0.044252805 0.1208178
-0.32386577 0.009203258 0.13815956
0.037405178 0.00499077 0.13306963
0.081698768 0.00499077 0.13385187
0.26918367 0.00499077 0.13442132
-0.30020571 0.020358499 0.13662983
-0.21027046 0.020358499 0.13886768
-0.15188295 0.020358499 0.13343753
-0.13675055 0.020358499 0.13266607
0.0022741631 0.020358499 0.1319896
0.040787049 0.020358499 0.13089928
0.10026361 0.020358499 0.13619089
0.17328894 0.020358499 0.13556741
0.1902837 0.020358499 0.13933845
0.30936533 0.021575416 0.13380605
-0.36422995 0.03524093 0.13975507
0.38589752 0.044091482 0.13202865
-0.25830966 0.00499077 0.14913668
-0.1334904 0.00499077 0.14916936
-0.12908033 0.00499077 0.14010359
-0.050508484 0.00499077 0.14673726
0.075431302 0.00499077 0.14361867
0.10506583 0.00499077 0.14283209
0.13087408 0.00499077 0.14269298
0.23553129 0.00499077 0.14281213
0.26285625 0.00499077 0.14729437
0.27432147 0.00499077 0.14184599
0.3160513 0.0070609637 0.14701238
0.33814773 0.013561635 0.14246169
-0.29687396 0.020358499 0.1412465
-0.24006982 0.020358499 0.1445649
-0.18933597 0.020358499 0.14575508
-0.1761286 0.020358499 0.14839925
-0.14991556 0.020358499 0.14935768
-0.081822269 0.020358499 0.14762375
-0.015204892 0.020358499 0.14315489
0.13375349 0.020358499 0.14761552
0.17254582 0.020358499 0.14473821
0.38547817 0.043968119 0.14675704
0.39203569 0.045043461 0.14128995
-0.3231712 0.0090351505 0.15906447
-0.31252876 0.0064591994 0.15456641
-0.12376998 0.00499077 0.15981472
-0.0081130564 0.00499077 0.15670979
0.01135309 0.00499077 0.154062
0.066050947 0.00499077 0.15259819
0.11661202 0.0049907705 0.15460217
0.18251166 0.0049907705 0.15007482
0.19254443 0.00499077 0.15498875
0.23341595 0.00499077 0.15179437
0.29265797 0.00499077 0.15175371
-0.33288869 0.011387207 0.15674117
-0.30365655 0.02057986 0.15064684
-0.26066345 0.020358499 0.15424241
-0.21358353 0.020358499 0.15007663
-0.20989111 0.020358499 0.15317142
-0.17268836 0.020358499 0.15387499
-0.13708076 0.020358499 0.15028065
-0.091191389 0.020358499 0.15027818
-0.059686437 0.020358499 0.15885843
-0.0038165599 0.020358499 0.15513636
0.14301533 0.020358499 0.15943187
0.15059881 0.020358499 0.1594895
-0.37929434 0.038887024 0.15216394
0.37137365 0.039818477 0.15411602
-0.25862917 0.0049907696 0.16747177
-0.17203087 0.00499077 0.16930017
-0.036931686 0.00499077 0.16981104
-0.024203762 0.00499077 0.16119748
0.001710549 0.00499077 0.16975132
0.066277109 0.00499077 0.16716015
0.18924572 0.00499077 0.16461319
0.23959553 0.00499077 0.1652343
0.31096646 0.017695177 0.16211843
-0.29156074 0.020358499 0.16218238
-0.17629004 0.020358499 0.16737515
-0.15607622 0.020358499 0.16382149
-0.1204984 0.020358499 0.16180274
-0.099773809 0.020358499 0.168788
0.097046554 0.020358499 0.16132034
0.13001727 0.020358499 0.1628395
0.22865516 0.020358499 0.16510591
-0.35682249 0.03344807 0.16496672
-0.25348616 0.00499077 0.17043923
-0.21590954 0.00499077 0.17213969
-0.19589949 0.00499077 0.17295665
-0.091020525 0.00499077 0.17035225
-0.065534689 0.0049907696 0.17921028
0.077594608 0.0049907705 0.17211124
0.1727896 0.00499077 0.17662781
0.19849877 0.0049907696 0.17537959
0.23432992 0.00499077 0.17121375
0.2921578 0.00499077 0.17764369
-0.33444285 0.017129276 0.17627656
-0.30482337 0.021064052 0.17334203
-0.20357318 0.020358499 0.17150874
-0.18146476 0.020358499 0.17487037
-0.1165963 0.020358499 0.17286724
-0.019660816 0.020358499 0.17778197
0.0076948404 0.020358499 0.17710546
0.035521403 0.020358499 0.17258739
0.077238478 0.020358499 0.1747818
0.10705196 0.020358499 0.17466478
0.30434784 0.020099273 0.17268237
-0.27049807 0.0060165664 0.184655
-0.1816228 0.00499077 0.18068793
-0.00464008 0.0083275745 0.18465498
0.046983246 0.0065544266 0.184655
0.14950128 0.0070521794 0.184655
0.18008971 0.00499077 0.18025957
-0.31766662 0.013254067 0.18107677
0.088900551 0.011128942 0.184655
0.094861865 0.016625343 0.18465501
0.14485547 0.010453073 0.184655
0.2166694 0.012555878 0.184655
0.24204592 0.018892396 0.184655
-0.31880563 0.022994447 0.18012927
-0.1729618 0.020358499 0.18361568
0.11491387 0.020358499 0.18281245
0.24930812 0.020358497 0.18299094
