# .PCD v0.7 - Point Cloud Data file format
VERSION 0.7
FIELDS x y z
SIZE 4 4 4
TYPE F F F
COUNT 1 1 1
WIDTH 797
HEIGHT 1
VIEWPOINT 0 0 0 1 0 0 0
POINTS 797
DATA ascii
-0.25755447 0.046027813 -0.12352331
-0.17041394 0.0435526 -0.12027493
-0.16774221 0.046135344 -0.12240519
-0.055509124 0.0435526 -0.12050857
-0.032870758 0.046416968 -0.1246728
0.056194589 0.046021506 -0.12027013
0.24807218 0.0435526 -0.12709627
0.26272833 0.046435401 -0.12012859
0.37446445 -0.022948643 -0.11345363
-0.3012577 0.04465986 -0.11609037
-0.28170246 0.04578374 -0.11460689
-0.27774382 0.045747578 -0.11222
-0.17284189 0.045945618 -0.11387713
-0.16642994 0.0435526 -0.1197678
-0.15908042 0.0435526 -0.11151634
-0.14486843 0.046081077 -0.11869889
-0.11402301 0.0435526 -0.11651446
-0.084913358 0.0435526 -0.11047775
-0.070960708 0.044836238 -0.11454794
-0.061867408 0.046211753 -0.11862343
-0.02739878 0.0435526 -0.11797462
0.067936279 0.045886464 -0.11950178
0.084381461 0.0435526 -0.11743608
0.12002143 0.045745 -0.11489473
0.15294591 0.045745376 -0.1113736
0.24147213 0.044687986 -0.111838
0.29542115 0.04476963 -0.11397159
0.3043479 0.0435526 -0.11938476
0.32307446 0.044503644 -0.11331383
0.36218509 -0.036368635 -0.10714833
-0.37333956 -0.016324516 -0.10972036
-0.34601551 0.045584381 -0.10331501
-0.28735504 0.045649301 -0.10751232
-0.25666797 0.044219553 -0.10494316
-0.17600355 0.0435526 -0.10312283
-0.16202906 0.045575701 -0.1035163
-0.15960638 0.0435526 -0.10574771
-0.1168089 0.0435526 -0.10455762
-0.10779003 0.045649305 -0.1070146
-0.060165115 0.045649301 -0.10926113
-0.056632571 0.0435526 -0.10001315
-0.045411617 0.0435526 -0.10161076
-0.036366984 0.04545214 -0.10004777
0.0090827197 0.0435526 -0.10850899
0.013674654 0.0435526 -0.1059597
0.023567058 0.045634106 -0.10692061
0.040971398 0.045649301 -0.10789137
0.092201941 0.0435526 -0.10666797
0.12778069 0.0435526 -0.10914764
0.14366497 0.0435526 -0.10688883
0.15316661 0.043552596 -0.10711966
0.1967034 0.045573272 -0.10528958
0.2014426 0.045462016 -0.10098499
0.21702553 0.04554886 -0.10432927
0.24501365 0.045652572 -0.10982273
0.25537971 0.045527 -0.1035995
-0.37150654 -0.022870773 -0.092123285
0.3608638 -0.021261521 -0.095157251
-0.37846541 0.045222774 -0.091042325
-0.32372618 0.0435526 -0.096355215
-0.29224902 0.045389738 -0.097195536
-0.27930146 0.0435526 -0.096790202
-0.2670548 0.045322184 -0.094691284
-0.25229648 0.0435526 -0.09021458
-0.23920536 0.045371674 -0.096652269
-0.22063832 0.0435526 -0.090755165
-0.21076825 0.044463709 -0.093530215
-0.15025578 0.045343723 -0.095770814
-0.14095789 0.0435526 -0.099111676
-0.10714813 0.04527469 -0.093166932
-0.074505866 0.0435526 -0.096505761
-0.052581027 0.0435526 -0.091637656
-0.030049264 0.045214504 -0.090830915
-0.010596655 0.0435526 -0.097008415
0.017895501 0.0435526 -0.097358242
0.08282721 0.0435526 -0.097079389
0.12804548 0.044384822 -0.092748374
0.13427573 0.0435526 -0.096023634
0.15366174 0.045266882 -0.09299624
0.16703643 0.045198359 -0.090263918
0.20568782 0.045239512 -0.091917589
0.26238889 0.0435526 -0.090075701
0.28820476 0.0435526 -0.098076388
0.32934341 0.045197885 -0.090294078
-0.39219892 0.045043178 -0.084156021
-0.35430062 0.0435526 -0.086762309
-0.34757102 0.0435526 -0.081833012
-0.27381063 0.0435526 -0.086415797
-0.26887682 0.0435526 -0.083392859
-0.24594843 0.045105994 -0.085906655
-0.20548391 0.0435526 -0.08301378
-0.17803594 0.045133784 -0.087604083
-0.10952502 0.0435526 -0.085719191
-0.084841907 0.045038991 -0.082562178
-0.073991083 0.0435526 -0.087993711
-0.036182519 0.0435526 -0.08415661
-0.022100627 0.0435526 -0.081745192
-0.017323613 0.0435526 -0.082784727
0.025060315 0.0435526 -0.087491907
0.035412274 0.0435526 -0.083093636
0.051486731 0.0435526 -0.088464893
0.071769059 0.0435526 -0.08082974
0.087901182 0.0435526 -0.089162841
0.095754012 0.045071393 -0.083117962
0.14933705 0.0451243 -0.086451881
0.19675143 0.0435526 -0.087292537
0.20960513 0.0435526 -0.082219169
0.26361117 0.044572908 -0.084301315
0.3100546 0.0450509 -0.080837756
0.351982 0.0435526 -0.087282196
0.3730171 0.044941008 -0.085294098
-0.40110952 0.0435526 -0.078805372
-0.37810987 0.0435526 -0.072290018
-0.34069714 0.044849023 -0.076225594
-0.33870128 0.044716462 -0.070693709
-0.32909641 0.0435526 -0.07973586
-0.29125264 0.0435526 -0.077002935
-0.28428513 0.044824637 -0.074882492
-0.22472176 0.044809081 -0.074006647
-0.20801511 0.044736341 -0.070845179
-0.1847201 0.044221375 -0.074265689
-0.16108423 0.0435526 -0.079304673
-0.13868059 0.044796564 -0.073169455
-0.093794264 0.04442535 -0.075326473
-0.084128782 0.044782422 -0.072170481
-0.075546294 0.0435526 -0.075568751
-0.042773575 0.044842236 -0.074175991
0.024215475 0.044804312 -0.072530687
0.036177918 0.044877753 -0.075326785
0.056261614 0.044829555 -0.073164821
0.076545998 0.044762012 -0.070605926
0.089636356 0.04495243 -0.077852227
0.093858495 0.0435526 -0.072089627
0.11316648 0.0435526 -0.072071657
0.13542074 0.044198167 -0.073029831
0.14448963 0.0435526 -0.074127041
0.17746124 0.044993918 -0.079108223
0.24696273 0.0435526 -0.0762944
0.27353138 0.044860236 -0.07344497
0.28489122 0.0435526 -0.070626251
0.31011787 0.0435526 -0.071898729
0.32114506 0.044997916 -0.078346074
0.36410952 0.044199254 -0.074882492
-0.36029398 0.044600699 -0.064568907
-0.35079888 0.0435526 -0.060615242
-0.32121575 0.044121206 -0.06954056
-0.31917915 0.044600699 -0.061145969
-0.30656332 0.044600699 -0.064137742
-0.28563339 0.0435526 -0.068719693
-0.27257887 0.0435526 -0.067940429
-0.26088569 0.044680551 -0.06877093
-0.21314308 0.0435526 -0.063537091
-0.20113215 0.044600695 -0.065235078
-0.12574065 0.0435526 -0.069089256
-0.11504982 0.044619847 -0.067731485
-0.10007109 0.0435526 -0.060302921
-0.066223353 0.044619896 -0.067859381
-0.02064468 0.044625856 -0.068117648
0.00035218894 0.0435526 -0.060730778
0.026163206 0.044600699 -0.0639797
0.032756615 0.044600699 -0.064474225
0.055165499 0.044600699 -0.06127581
0.083467022 0.0435526 -0.062638618
0.093530789 0.0435526 -0.061734423
0.10884546 0.0435526 -0.067229629
0.17534631 0.0435526 -0.060835905
0.18719947 0.0435526 -0.0664391
0.19788778 0.044600699 -0.062552944
0.20831658 0.0435526 -0.066072218
0.22096281 0.044600695 -0.064646989
0.25125304 0.0435526 -0.06725841
0.29307818 0.0435526 -0.062821932
0.3305971 0.044600699 -0.062961765
0.37819099 0.044600703 -0.060626544
0.40601748 0.0435526 -0.067864932
-0.40061998 0.0435526 -0.053195909
-0.39508057 0.044600703 -0.054522093
-0.37649614 0.044600699 -0.058498591
-0.36787689 0.0435526 -0.056212671
-0.34985355 0.0435526 -0.051279061
-0.33961365 0.0435526 -0.053166829
-0.26735243 0.044600699 -0.050566424
-0.25956428 0.044600699 -0.0509599
-0.21855085 0.044600699 -0.055111811
-0.20393509 0.044076651 -0.05516132
-0.17168021 0.0435526 -0.054065879
-0.16494203 0.0435526 -0.058020625
-0.15635258 0.044600699 -0.057083748
-0.048522294 0.0435526 -0.056898013
-0.030379303 0.044600699 -0.05927043
-0.022224933 0.0435526 -0.052897755
0.00081896782 0.0435526 -0.054780334
0.021792769 0.044600699 -0.05732397
0.076203182 0.044600695 -0.055009864
0.14014044 0.0435526 -0.05078676
0.21680909 0.0435526 -0.059841014
0.23339742 0.0435526 -0.056613039
0.25108361 0.0435526 -0.058649875
0.26221526 0.044076651 -0.055170894
0.27491045 0.0435526 -0.057795435
0.33307999 0.044600695 -0.054852646
0.34310076 0.044076651 -0.052802391
0.36779568 0.0435526 -0.052858878
0.4269444 0.043593168 -0.052201964
0.43651706 0.044043459 -0.057572015
-0.4441635 0.045614511 -0.046155609
-0.40905097 0.044600699 -0.042278338
-0.3954165 0.044076651 -0.0458211
-0.32249737 0.044600699 -0.042035606
-0.29495838 0.0435526 -0.043563962
-0.28441149 0.0435526 -0.041514065
-0.26945639 0.0435526 -0.040434781
-0.22238502 0.0435526 -0.047715619
-0.21466297 0.0435526 -0.043384448
-0.19470319 0.044600699 -0.04221078
-0.071725354 0.0435526 -0.043973356
-0.051901955 0.044076651 -0.044769585
-0.044312477 0.044600699 -0.046889313
-0.038975831 0.044251334 -0.044978995
-0.028096201 0.044076651 -0.043910056
-0.0050257184 0.0435526 -0.043945946
0.001179859 0.0435526 -0.044173285
0.042779058 0.044600695 -0.044492729
0.057086989 0.044600699 -0.043393895
0.079881728 0.0435526 -0.041705959
0.080132753 0.044600699 -0.042070154
0.13908795 0.044600699 -0.044923592
0.14530332 0.0435526 -0.045384705
0.15155548 0.044600703 -0.043776836
0.16379538 0.044600699 -0.041999746
0.19421165 0.044600699 -0.046801098
0.21663582 0.0435526 -0.046750166
0.28966275 0.0435526 -0.048638839
0.29825038 0.044076651 -0.046339344
0.34333354 0.044600699 -0.047886096
0.38125071 0.044600703 -0.043832622
0.39676327 0.044600699 -0.04410252
0.41927487 0.0435526 -0.045893412
0.43910307 0.044165105 -0.042770781
0.45370713 0.045173861 -0.046869621
-0.45860797 0.046764627 -0.032185659
-0.32742494 0.044600699 -0.035358518
-0.31101584 0.0435526 -0.034960803
-0.30821747 0.044600695 -0.034791261
-0.29922754 0.044600699 -0.038702834
-0.26132333 0.044600699 -0.038681746
-0.22123906 0.044600699 -0.035807505
-0.2122823 0.0435526 -0.031490091
-0.20963742 0.044600699 -0.034217007
-0.18432653 0.0435526 -0.031557292
-0.14469585 0.0435526 -0.033717625
-0.13298425 0.0435526 -0.037508558
-0.11874333 0.0435526 -0.035364967
-0.10249111 0.044600699 -0.030936956
-0.05240497 0.0435526 -0.038082533
-0.044099651 0.0435526 -0.036927588
-0.029509127 0.044600699 -0.031587299
-0.013641432 0.044600699 -0.030978829
-0.0062560141 0.0435526 -0.036291104
0.049114689 0.044600699 -0.03363505
0.12279327 0.0435526 -0.031347446
0.17271087 0.044600699 -0.03021132
0.18554752 0.044600699 -0.03386071
0.19714764 0.0435526 -0.031900547
0.22570643 0.044600699 -0.03732948
0.27592784 0.044600695 -0.03632034
0.31570685 0.044600695 -0.03606502
0.32280779 0.0435526 -0.031992227
0.33464026 0.0435526 -0.032449763
0.40295434 0.0435526 -0.030224686
0.41850662 0.044600699 -0.035332993
0.43506184 0.043975003 -0.037041102
-0.40682691 0.0435526 -0.02389016
-0.37663049 0.0435526 -0.026563521
-0.34685099 0.0435526 -0.028125109
-0.31384641 0.0435526 -0.023284931
-0.30407283 0.043901965 -0.028274855
-0.25431097 0.0435526 -0.025375141
-0.24869165 0.0435526 -0.027421316
-0.20808712 0.0435526 -0.027620943
-0.19609545 0.044600699 -0.020672115
-0.09456566 0.044600699 -0.022716237
-0.053479642 0.044600695 -0.025574967
-0.047158495 0.0435526 -0.026383996
-0.036188249 0.0435526 -0.02278468
-0.02577661 0.043901969 -0.025522755
-0.01935938 0.044600699 -0.024726095
0.0047008055 0.043901965 -0.023213571
0.021284238 0.044600699 -0.020302963
0.034923583 0.044076651 -0.025010355
0.046470575 0.044600699 -0.023575697
0.089385733 0.0435526 -0.021157442
0.13126214 0.044600699 -0.029399786
0.23509873 0.0435526 -0.027334116
0.24594115 0.0435526 -0.026549077
0.2936933 0.0435526 -0.022593111
0.31700733 0.0435526 -0.024242895
0.35819259 0.044600695 -0.026371855
0.40177757 0.044076651 -0.024942663
0.43142807 0.043804076 -0.02536305
0.45592535 0.046132952 -0.026503488
-0.46428931 0.047511339 -0.012672005
-0.4439868 0.045844749 -0.015079278
-0.42619354 0.044153422 -0.014286749
-0.39278126 0.0435526 -0.014153875
-0.35178193 0.0435526 -0.01276545
-0.31621653 0.044600695 -0.019742938
-0.29197559 0.044600699 -0.014218168
-0.28791773 0.044600699 -0.014947011
-0.26606789 0.044600699 -0.014550906
-0.24438664 0.044076651 -0.015170762
-0.22394843 0.0435526 -0.014783298
-0.2150065 0.044600699 -0.017732685
-0.20550755 0.044600699 -0.015592999
-0.1928332 0.0435526 -0.013091504
-0.18371569 0.044600699 -0.014843028
-0.17162159 0.044600699 -0.018369947
-0.13963784 0.0435526 -0.017834444
-0.10887238 0.044600699 -0.012423629
-0.043832682 0.0435526 -0.012920891
-0.026460491 0.0435526 -0.011143672
0.0095603764 0.0435526 -0.015304781
0.054029442 0.0435526 -0.010996651
0.077087477 0.0435526 -0.014091464
0.1455598 0.0435526 -0.015275811
0.15007406 0.044600699 -0.010113707
0.16324966 0.044600699 -0.016240712
0.17717542 0.044600699 -0.015402422
0.19982907 0.0435526 -0.017019961
0.21871351 0.0435526 -0.01594842
0.23696825 0.044600695 -0.018378325
0.27506787 0.0435526 -0.014721954
0.28615436 0.044076651 -0.013043161
0.29202801 0.0435526 -0.014329971
0.30683896 0.0435526 -0.015533056
0.37616438 0.044600703 -0.019627312
0.40180933 0.0435526 -0.014821159
0.44309777 0.045770071 -0.013984313
0.46943316 0.046964958 -0.014264737
0.47062677 0.04802949 -0.01353953
-0.43466273 0.045215428 -0.0078213848
-0.38647762 0.044600695 -0.00079620472
-0.36721903 0.044600699 -0.0077093057
-0.35605124 0.044600703 -0.0038550191
-0.34101599 0.044600699 -0.0020248676
-0.33447719 0.0435526 -0.00096603332
-0.30231905 0.044600699 -0.0088556465
-0.2855227 0.044600699 -0.0052725263
-0.27665684 0.0435526 -0.00592766
-0.25709611 0.044600699 -0.0092375185
-0.22324687 0.044600699 -0.0033308023
-0.20473674 0.044600699 -0.0032793367
-0.1934336 0.044247638 -0.0060959659
-0.16857654 0.0435526 -0.0027191231
-0.1283768 0.044600695 -0.0044184863
-0.10411583 0.044076927 -0.0037664915
-0.09855362 0.044600699 -0.0031131457
-0.065580979 0.044076908 -0.0035320707
-0.0029306114 0.044308603 -0.00058860698
0.0089007951 0.0435526 -0.0095295571
0.015761957 0.044600695 -0.009320789
0.065207839 0.0435526 -0.0049402509
0.071617402 0.0435526 -0.0046809055
0.083323389 0.044535875 -0.00058860704
0.1335738 0.044600703 -0.0008049946
0.17366625 0.0435526 -0.0056441962
0.21779826 0.044083811 -0.00058860698
0.2455893 0.044600699 -0.0085449899
0.29253188 0.0435526 -0.0091463802
0.31326896 0.044600699 -0.0067665293
0.33976451 0.044600699 -0.0077201999
0.3484391 0.0435526 -0.0029682252
0.36804816 0.044076651 -0.0031796203
0.38960284 0.04370527 -0.000696106
0.41449702 0.044600699 -0.0088603385
0.44825947 0.046440408 -0.00034688052
0.45852172 0.047300518 -0.00072793447
-0.45158643 0.046594847 0.00550735
-0.43343732 0.045136116 0.0052919108
-0.39678544 0.04460153 0.0021579983
-0.28258336 0.044601351 0.0062690866
-0.27539015 0.044601407 0.0016309645
-0.25752324 0.044601362 0.0035941286
-0.24467376 0.044601381 0.0013280713
-0.20671257 0.0435526 0.0081725642
-0.16782215 0.044076957 0.0029519082
-0.15165816 0.0435526 0.0073402226
-0.14650218 0.04425168 0.0055651157
-0.12840994 0.044601243 0.0025284849
-0.11534774 0.044601232 0.0025401942
-0.10702574 0.0435526 0.0076037343
-0.096379675 0.044601224 0.0013712515
-0.075505003 0.044601128 0.006469727
-0.054739233 0.0435526 0.0020994388
-0.043351814 0.044601075 0.0082797622
-0.018887892 0.0435526 0.0059893196
-0.0095728133 0.0435526 0.0051307627
0.0044187158 0.0435526 0.0090358723
0.019022744 0.0435526 0.0022559376
0.037199739 0.044601087 0.0013177946
0.071451977 0.044601057 0.00064102601
0.13456123 0.0435526 0.0040244986
0.1450728 0.0435526 0.0040831659
0.1919321 0.0435526 0.0041811266
0.21468812 0.044076689 0.0087502049
0.22099608 0.0435526 0.0071761995
0.24131504 0.044600815 0.0053706691
0.27306661 0.043552604 0.003390417
0.30854934 0.0435526 0.0021790082
0.31732088 0.044600699 0.0078818938
0.32250744 0.0435526 0.0048814225
0.35315973 0.044600699 0.0062548183
0.39040753 0.044600699 0.0095936889
0.40776587 0.0435526 0.007479067
0.41935173 0.044600699 0.0022422592
0.44012463 0.044644136 0.0047087064
0.4624244 0.046557471 0.00099068845
-0.46016824 0.047052342 0.018444553
-0.42632866 0.044619679 0.010630865
-0.41078287 0.044601422 0.011389057
-0.36524937 0.0435526 0.012111719
-0.35227117 0.0435526 0.013394928
-0.32319912 0.0435526 0.013761879
-0.31422141 0.0435526 0.014835939
-0.30359638 0.0435526 0.013694452
-0.29488158 0.04390214 0.015231867
-0.28816622 0.0435526 0.011052888
-0.26600915 0.0435526 0.015505365
-0.24221495 0.044601128 0.019490965
-0.21420845 0.044601198 0.012177814
-0.20595576 0.044601087 0.019659694
-0.18952763 0.044601083 0.018964112
-0.16230255 0.044601176 0.010070324
-0.15498346 0.044601068 0.017261071
-0.1298558 0.044601116 0.011737814
-0.095891759 0.044600993 0.018060679
-0.00037967507 0.0435526 0.010100986
0.043982103 0.0435526 0.011086659
0.084254041 0.0435526 0.013060892
0.16465403 0.0435526 0.018425802
0.1892149 0.0435526 0.010336908
0.19401167 0.0435526 0.019068647
0.20655307 0.044076651 0.017295051
0.21839763 0.0435526 0.014274184
0.24741387 0.0435526 0.017622069
0.27452716 0.044600699 0.018220542
0.28684935 0.044600699 0.01613068
0.30142501 0.044600699 0.011953071
0.34988514 0.0435526 0.017684916
0.36143082 0.0435526 0.011781745
0.37343356 0.0435526 0.017022302
0.38578686 0.044600699 0.012906049
0.42243105 0.0435526 0.013046273
0.4638204 0.047366701 0.017798992
-0.44732243 0.04594332 0.028741444
-0.4366329 0.045239098 0.021639101
-0.42509615 0.0435526 0.021708662
-0.37997857 0.044601269 0.020071749
-0.34386951 0.044601221 0.020657828
-0.33059269 0.044601116 0.027247731
-0.3113659 0.04460115 0.02337808
-0.26604009 0.044601023 0.029044742
-0.24648538 0.044601042 0.026192335
-0.23732013 0.044601042 0.02546848
-0.22129552 0.0435526 0.022625113
-0.21699901 0.0435526 0.020174034
-0.18036711 0.044600993 0.024602838
-0.14757703 0.044601001 0.021431655
-0.12689443 0.0435526 0.027269671
-0.1140293 0.044600952 0.022440018
-0.085146017 0.0435526 0.022418324
-0.018967137 0.044600785 0.027325951
0.037551295 0.0435526 0.02445589
0.064412743 0.044600699 0.027836058
0.087754831 0.044076689 0.021431383
0.12638839 0.044600699 0.025187641
0.15282467 0.044600699 0.025991509
0.16705519 0.0435526 0.024301764
0.17474389 0.044076651 0.026680976
0.18941124 0.044600699 0.027636237
0.19399883 0.0435526 0.026907146
0.24469616 0.0435526 0.029108781
0.26553544 0.043901969 0.023857042
0.27766591 0.044076651 0.028498404
0.28045708 0.044600699 0.026915498
0.35963655 0.044600699 0.025768075
0.38291526 0.044600699 0.02820684
0.39778006 0.0435526 0.029232401
0.43009478 0.043741435 0.028244309
0.4540838 0.045554291 0.021896409
-0.41330177 0.0435526 0.033540357
-0.40304169 0.04390211 0.035968974
-0.39865917 0.0435526 0.034380764
-0.38227177 0.0435526 0.037521366
-0.36862215 0.044601023 0.036784641
-0.3569065 0.044601023 0.035790198
-0.32755005 0.044601012 0.034449901
-0.27802241 0.044600986 0.032355551
-0.26903534 0.044600889 0.038853824
-0.24981067 0.044600926 0.035084233
-0.2227376 0.0435526 0.034850646
-0.19376224 0.0435526 0.038594585
-0.18620102 0.0435526 0.038280249
-0.15214404 0.044076692 0.038473923
-0.12159279 0.0435526 0.03355179
-0.098237216 0.0435526 0.03861412
-0.083788402 0.0435526 0.038635135
-0.044480249 0.0435526 0.038035374
-0.029675812 0.044600695 0.035876807
-0.009737147 0.044600736 0.030235834
0.019703118 0.044600699 0.037477124
0.027145535 0.044600699 0.030896517
0.058153365 0.0435526 0.031546231
0.087407008 0.0435526 0.036011085
0.11473516 0.044600695 0.035763346
0.13647388 0.044600703 0.03733898
0.14142047 0.0435526 0.038524572
0.1718531 0.044600699 0.036853522
0.19065481 0.0435526 0.03091291
0.25638354 0.044076651 0.034549281
0.26929423 0.0435526 0.036577471
0.28382277 0.0435526 0.0321978
0.3073006 0.0435526 0.031246115
0.31232378 0.044600699 0.038429245
0.34222573 0.044600699 0.037681274
0.39630991 0.0435526 0.030353827
0.40374178 0.0435526 0.037008166
0.41226447 0.0435526 0.037105933
0.42580563 0.044129323 0.03458938
0.43084756 0.043776851 0.032256771
0.44464177 0.04562854 0.037650313
0.45795673 0.046611737 0.038705058
-0.38564005 0.0435526 0.049507856
-0.37003902 0.0435526 0.041699518
-0.35411301 0.0435526 0.043943979
-0.33449486 0.044600893 0.043717712
-0.29805374 0.0435526 0.046302035
-0.28093147 0.0435526 0.045877907
-0.26450112 0.044251412 0.045222361
-0.23020272 0.0435526 0.044751931
-0.21636721 0.044600721 0.047095992
-0.19568455 0.044600718 0.04592865
-0.12601145 0.0435526 0.044621259
-0.10350548 0.044600699 0.048147198
-0.097032987 0.044600699 0.042216569
-0.084503889 0.0435526 0.048114285
-0.071098655 0.044600695 0.0435373
-0.06791734 0.0435526 0.04530463
0.0046018362 0.0435526 0.040974952
0.021188498 0.044600699 0.048523828
0.038481198 0.0435526 0.047151793
0.043580137 0.044076651 0.046265803
0.068613 0.044600699 0.049238749
0.073311731 0.044600699 0.047612075
0.10047066 0.0435526 0.043822847
0.16417328 0.0435526 0.043804243
0.18317026 0.044600699 0.042112138
0.20125446 0.0435526 0.045062274
0.25486237 0.0435526 0.04718852
0.26137713 0.044600699 0.041423857
0.2744118 0.044600699 0.043792009
0.30757147 0.044600699 0.046552263
0.3140676 0.044600699 0.042906728
0.34210616 0.0435526 0.042905159
0.36995131 0.044600699 0.049999911
0.388558 0.0435526 0.047393303
0.45474353 0.045221679 0.04820152
-0.44126633 0.045394607 0.051502649
-0.423446 0.044600807 0.056816891
-0.41355419 0.0435526 0.058254033
-0.368137 0.0435526 0.056346737
-0.34708223 0.043552604 0.056859039
-0.31984186 0.0435526 0.059852295
-0.26662403 0.044076648 0.055219844
-0.23335965 0.044076651 0.054990645
-0.2094011 0.044600699 0.057259213
-0.19831635 0.044600695 0.050083857
-0.16711077 0.0435526 0.059158538
-0.10582696 0.0435526 0.055003766
-0.070219547 0.044600699 0.052631423
-0.022720546 0.0435526 0.053754382
0.012702167 0.044600699 0.057807781
0.069207892 0.0435526 0.051685832
0.076991782 0.044600703 0.055855092
0.1308887 0.044600699 0.05666142
0.15606441 0.044600695 0.051901422
0.17477223 0.044600699 0.050172746
0.19505799 0.0435526 0.051818974
0.22055691 0.0435526 0.058583949
0.23216382 0.044600699 0.058064085
0.26578137 0.044076651 0.053063378
0.27805778 0.044600695 0.054766964
0.28634495 0.044600699 0.055764422
0.32686061 0.044076651 0.057545543
0.33261538 0.043552604 0.058414113
0.34130836 0.0435526 0.056176599
0.36090589 0.0435526 0.050308466
0.40906218 0.044600703 0.054163583
-0.3938579 0.0435526 0.061027348
-0.34661683 0.044669483 0.067413956
-0.33600324 0.0435526 0.065076694
-0.32287616 0.0435526 0.069848925
-0.25408942 0.044600703 0.065125182
-0.18948922 0.0435526 0.067944869
-0.17447147 0.0435526 0.065669715
-0.1683057 0.044600695 0.061549991
-0.15764128 0.044696752 0.067818195
-0.1360141 0.044124633 0.065117106
-0.1249498 0.044140063 0.064991139
-0.11078811 0.044600699 0.064872473
-0.1038852 0.0435526 0.063033305
-0.085058987 0.044150468 0.067437269
-0.078942329 0.044600699 0.063834935
-0.066865698 0.044600695 0.063276693
-0.026161179 0.0435526 0.065716825
-0.0051295757 0.0435526 0.060410276
0.0082032084 0.044600699 0.065645918
0.027405113 0.044659328 0.067318216
0.032019336 0.0435526 0.063158795
0.057723306 0.044748116 0.068963952
0.10656694 0.044600699 0.060302109
0.13430135 0.044601139 0.063757226
0.16900805 0.044600699 0.060264532
0.2221522 0.0435526 0.067864537
0.25122386 0.044600699 0.062189847
0.26862213 0.044600699 0.066070974
0.28032243 0.0435526 0.068922147
0.30341274 0.044656638 0.067582734
0.31951812 0.0435526 0.060978301
0.32705253 0.044076648 0.06524346
0.34787685 0.043553997 0.067119226
0.35378963 0.044769309 0.069369428
0.39856002 0.044076651 0.064237557
0.40497792 0.043557268 0.067508362
0.43875274 0.044886801 0.064135835
-0.39386591 0.0435526 0.075916491
-0.38409907 0.044239998 0.076999672
-0.3628557 0.0435526 0.071608216
-0.34194419 0.0435526 0.075503848
-0.30569589 0.044975277 0.079861984
-0.29321253 0.0435526 0.076619938
-0.28371599 0.044021409 0.076555125
-0.23286821 0.044926882 0.077576064
-0.17616136 0.0435526 0.077376209
-0.16971731 0.0435526 0.074837938
-0.039028078 0.0435526 0.078556642
-0.007602796 0.0435526 0.070376813
0.0096120536 0.04485409 0.073065124
0.017976761 0.044938456 0.076429442
0.0445184 0.0435526 0.072577044
0.068074897 0.044871978 0.07343284
0.070366785 0.044951342 0.076644674
0.11600028 0.0435526 0.075474441
0.13311571 0.0435526 0.07565105
0.16364552 0.044442456 0.073568583
0.17247927 0.0435526 0.078021497
0.19091755 0.044847827 0.072074249
0.20760646 0.0435526 0.071132474
0.21095857 0.044951372 0.075786136
0.2261683 0.044271998 0.078593537
0.24233244 0.0435526 0.070397228
0.25341755 0.04427335 0.074925609
0.27893344 0.044829324 0.070944995
0.33630404 0.043904707 0.074174635
0.3458913 0.045029227 0.078289315
0.38251862 0.044302337 0.079173818
-0.37402493 -0.026227137 0.089358918
-0.36655563 0.0435526 0.084009759
-0.31736133 0.045097765 0.084597982
-0.28881547 0.045031529 0.082033187
-0.26691198 0.0435526 0.081587404
-0.25523823 0.044323735 0.086134821
-0.22458863 0.045028649 0.081637561
-0.20850009 0.045160633 0.087297477
-0.19825716 0.0435526 0.08788088
-0.18928088 0.045067329 0.082967497
-0.15645342 0.043552596 0.08415091
-0.14546493 0.04520632 0.089180388
-0.1314837 0.0435526 0.088771023
-0.12636015 0.044364244 0.08717069
-0.11890768 0.045065906 0.082638226
-0.10674104 0.045107838 0.084458515
-0.094448686 0.045083143 0.083708346
-0.061820462 0.0435526 0.084368803
-0.052011214 0.0435526 0.08092384
-0.044478253 0.0435526 0.089118332
-0.0011771319 0.0435526 0.086398073
0.093807027 0.045100879 0.083097041
0.14534405 0.045132689 0.086401463
0.15587144 0.045049928 0.080521591
0.24207303 0.0435526 0.085668638
0.27659279 0.0435526 0.087472886
0.30602834 0.044313353 0.084373817
0.31131491 0.0435526 0.085458882
0.3272804 0.045159969 0.087533787
0.34664211 0.045074161 0.080429092
0.35991812 0.043552604 0.08952076
0.36313719 -0.03266954 0.095305488
-0.36426556 -0.028094796 0.093400739
-0.36669141 -0.014138241 0.094091348
0.37652171 -0.019063419 0.09463124
-0.36808124 0.045247458 0.090692051
-0.33037445 0.045242626 0.090541326
-0.32963428 0.0435526 0.099082783
-0.28886068 0.0435526 0.092188746
-0.27714956 0.045306806 0.092942066
-0.26736706 0.0435526 0.091382347
-0.25218549 0.0435526 0.099658109
-0.24243414 0.045339618 0.09422709
-0.22629422 0.044492923 0.095608927
-0.16100481 0.0435526 0.099470899
-0.15660587 0.0452797 0.09203133
-0.14633228 0.045252804 0.091048807
-0.13908643 0.0435526 0.091480911
0.035481267 0.0435526 0.09686064
0.046230044 0.0435526 0.095953673
0.050541624 0.045276403 0.092059426
0.064183593 0.044482872 0.096112058
0.074354917 0.0435526 0.090579256
0.0814429 0.0435526 0.0919099
0.10393469 0.0435526 0.095717683
0.11828253 0.0435526 0.093275927
0.12945381 0.045226701 0.090084694
0.16969822 0.0435526 0.093961865
0.17938428 0.0435526 0.092678159
0.20506403 0.045270488 0.091895849
0.21786624 0.0435526 0.099043705
0.22443858 0.0435526 0.095492288
0.23151995 0.045255225 0.091282763
0.24053638 0.045251381 0.091129161
0.31558183 0.044477262 0.094980702
0.34405071 0.0435526 0.097656868
0.35736513 0.0435526 0.091720402
-0.36362717 -0.027520996 0.10927097
-0.30388024 0.045649298 0.10748262
-0.22549142 0.045649301 0.10511908
-0.19590327 0.0435526 0.10216206
-0.17178695 0.04559873 0.10287632
-0.15317257 0.0435526 0.10930492
-0.14423952 0.0435526 0.10668442
-0.081067212 0.045627329 0.10463868
-0.078038633 0.0435526 0.10670631
-0.066242859 0.0435526 0.10944334
-0.046221502 0.044528898 0.10156752
0.0016667843 0.0435526 0.10795407
0.053193279 0.0435526 0.10313067
0.063890256 0.0435526 0.10229309
0.070260204 0.0435526 0.10437998
0.094032764 0.0435526 0.10751652
0.19372708 0.045696639 0.10929529
0.20320629 0.0435526 0.10853103
0.23014516 0.045483664 0.10052028
0.28726771 0.044203896 0.10490867
0.29076341 0.0435526 0.10498772
0.30363235 0.0435526 0.10661054
0.32614088 0.0435526 0.10180393
-0.37777072 -0.024178099 0.11108328
-0.36920908 -0.0214183 0.11297189
0.36097211 -0.024595279 0.1134502
-0.2851927 0.044885006 0.11916973
-0.26110774 0.0435526 0.11339458
-0.25717217 0.0435526 0.11382584
-0.2369694 0.045941506 0.11772432
-0.21342719 0.045849569 0.11106603
-0.18087275 0.0435526 0.11051601
-0.16185948 0.0435526 0.11916094
-0.15315332 0.0435526 0.11738467
-0.14045396 0.046113219 0.11852804
-0.12707716 0.04485222 0.11474464
-0.11407396 0.044825651 0.11648966
-0.10765819 0.046072483 0.11380298
-0.080841243 0.04587929 0.11036962
-0.052560538 0.04624987 0.11842133
-0.029456936 0.0435526 0.11665437
-0.01544407 0.046160832 0.11130159
0.0078653172 0.046263974 0.11408694
0.022058096 0.044931896 0.11411724
0.10402628 0.046377551 0.11235687
0.13118345 0.045810223 0.11083354
0.19306907 0.045083068 0.11504781
0.20439199 0.0435526 0.11403374
0.2343879 0.0435526 0.11711666
0.25293222 0.04626466 0.11456361
0.27130714 0.0435526 0.11735652
0.28793606 0.0435526 0.11889702
0.29862171 0.046167769 0.11466674
0.3159039 0.046029493 0.11337335
-0.21163189 0.0435526 0.12152845
-0.2002117 0.046103634 0.12185753
-0.19235525 0.046142712 0.12269168
-0.077078909 0.043843899 0.12539643
-0.039837517 0.0435526 0.12087391
-0.0010793367 0.046414196 0.12184716
0.22460952 0.044106718 0.12088127
0.25149432 0.044243298 0.124477
0.26932198 0.046435401 0.12041239
0.2910195 0.045555022 0.12106675
