# .PCD v0.7 - Point Cloud Data file format
VERSION 0.7
FIELDS x y z
SIZE 4 4 4
TYPE F F F
COUNT 1 1 1
WIDTH 914
HEIGHT 1
VIEWPOINT 0 0 0 1 0 0 0
POINTS 914
DATA ascii
-0.17332688 0.0037080499 -0.14127252
-0.15679814 0.0037080499 -0.14165367
-0.11298224 0.0075294506 -0.141894
-0.089986876 0.0037080497 -0.14161098
0.20354661 0.0070988177 -0.141894
0.25676265 0.0081395758 -0.141894
0.26383913 0.004442486 -0.14116736
-0.16163078 0.0145888 -0.141894
-0.10496581 0.013426965 -0.141894
0.10491308 0.013562111 -0.141894
0.12002322 0.016563661 -0.141894
0.16783145 0.011602622 -0.141894
0.18664898 0.015851207 -0.141894
0.21792746 0.018462066 -0.141894
0.25168633 0.011564756 -0.141894
-0.15137979 0.022610871 -0.141894
-0.14685157 0.022998765 -0.141894
-0.041776448 0.021724615 -0.141894
0.068639979 0.024782799 -0.14008102
0.15667708 0.024228841 -0.141894
0.20529646 0.022995597 -0.141894
-0.35310748 0.007291289 -0.13914606
-0.30140632 0.0037080501 -0.13504535
-0.2718063 0.0037080501 -0.13176891
-0.19866367 0.0037080501 -0.13426791
-0.064579658 0.0037080501 -0.13421124
-0.00095537305 0.0037080499 -0.13035989
0.0056368727 0.0037080501 -0.13947216
0.052724332 0.0037080499 -0.1305241
0.089019351 0.0037080497 -0.13232295
0.11562096 0.0037080501 -0.13309613
0.14446016 0.0037080501 -0.1366758
0.29130298 0.0037080499 -0.13461637
0.38481843 0.0047065457 -0.13549024
0.39645121 0.008728167 -0.1361254
0.40472737 0.015002007 -0.13136916
-0.36226499 0.027233683 -0.1328921
-0.35618889 0.021825992 -0.13820744
-0.25169235 0.024782799 -0.13665983
-0.21014318 0.024782801 -0.13055836
-0.20680574 0.024782799 -0.13571511
-0.18029433 0.024782799 -0.13295327
-0.16021824 0.024782799 -0.13076752
-0.076429218 0.024782799 -0.13544559
-0.055347413 0.024782799 -0.13337003
-0.032218039 0.024782799 -0.13329415
0.02951473 0.024782799 -0.13861398
0.12328432 0.024782799 -0.13169315
0.31223819 0.024782799 -0.13961346
0.3512229 0.024782799 -0.13305198
-0.28480628 0.0037080499 -0.12370652
-0.26258093 0.0037080499 -0.12293054
-0.23522168 0.0037080499 -0.12671071
-0.20193048 0.0037080499 -0.12626021
-0.14115381 0.0037080499 -0.12428157
-0.13271199 0.0037080499 -0.12733331
-0.052890867 0.0037080499 -0.12604016
0.034750827 0.0037080499 -0.12273844
0.043443665 0.0037080501 -0.12742409
0.05139938 0.0037080497 -0.12081978
0.18579537 0.0037080501 -0.12387168
0.24996695 0.0037080499 -0.12637177
0.26633087 0.0037080499 -0.12339219
0.3549338 0.0037080501 -0.12068979
0.36736685 0.0037080499 -0.12521288
0.379392 0.0046749474 -0.12941843
0.38952512 0.0060909153 -0.12655099
-0.35950643 0.010821539 -0.12993352
-0.36779869 0.028885698 -0.12464361
-0.35724795 0.025417428 -0.12308075
-0.32295343 0.024782799 -0.12154799
-0.25279808 0.024782799 -0.12436411
-0.1721721 0.024782799 -0.12520957
-0.13689756 0.024782799 -0.12624586
0.10577223 0.024782799 -0.12604104
0.29937315 0.024782799 -0.12599969
-0.35529536 0.0037080499 -0.11753112
-0.33095583 0.0037080497 -0.11303349
-0.31816503 0.0037080497 -0.11189855
-0.25828385 0.0037080499 -0.11633664
-0.12159617 0.0037080499 -0.11500573
-0.020058647 0.0037080499 -0.11743364
0.045306891 0.0037080499 -0.11121208
0.069342829 0.0037080497 -0.11760519
0.16077365 0.0037080501 -0.1135086
0.2245786 0.0037080501 -0.11121437
-0.36045837 0.01067107 -0.11566275
-0.21037351 0.024782799 -0.11940693
-0.10321686 0.024782799 -0.11399744
-0.064104266 0.024782799 -0.1186129
0.050031513 0.024782799 -0.11775506
0.07525982 0.024782799 -0.11954924
0.12636147 0.024782799 -0.11229359
0.18288779 0.024782799 -0.11368258
0.21808322 0.024782799 -0.11272375
0.26208952 0.024782799 -0.11158127
0.29577482 0.024782799 -0.11037678
0.32610291 0.024782799 -0.11314877
0.3777582 0.024835279 -0.11494085
0.42256716 0.02567623 -0.11667772
-0.30909175 0.0037080499 -0.10196354
-0.11258556 0.0037080501 -0.10208859
-0.075554587 0.0037080497 -0.10630551
-0.064812407 0.0037080499 -0.10896638
0.046852686 0.0037080499 -0.10671508
0.094446793 0.0037080501 -0.10225517
0.15205175 0.0037080501 -0.10815302
0.16189128 0.0037080497 -0.10343671
0.26620644 0.0037080497 -0.10439953
0.379392 0.013759769 -0.1077871
-0.3545965 0.024564849 -0.10920745
-0.34504235 0.024782799 -0.10714117
-0.33485427 0.024782799 -0.10095417
-0.30169463 0.024782799 -0.10343037
-0.26242769 0.024782799 -0.10345627
-0.24079496 0.024782799 -0.10337649
-0.22799769 0.024782799 -0.1070539
-0.094091862 0.024782799 -0.10836811
-0.069003433 0.024782799 -0.10706504
-0.015007563 0.024782799 -0.10750682
0.018195122 0.024782799 -0.10964141
0.044369817 0.024782799 -0.10694959
0.076047987 0.024782799 -0.10178532
0.17755055 0.024782799 -0.10353728
0.43441182 0.02816782 -0.10595343
0.41998237 0.04023828 -0.10949674
-0.2554388 0.0037080499 -0.090191774
-0.23412073 0.0037080499 -0.093144983
-0.20011097 0.0037080501 -0.094779059
-0.12987207 0.0037080501 -0.097480774
-0.073581576 0.0037080499 -0.099874601
0.013478354 0.0037080499 -0.091090031
0.041077096 0.0037080497 -0.090852007
0.069260426 0.0037080501 -0.095537849
0.08847867 0.0037080501 -0.099451549
0.10276383 0.0037080499 -0.0928251
0.13931233 0.0037080497 -0.094784953
0.17742205 0.0037080497 -0.093155347
0.23587765 0.0037080497 -0.091592014
0.27171558 0.0037080499 -0.092294112
0.30916694 0.0037080497 -0.09543585
0.36157262 0.0037080499 -0.095536061
0.379392 0.0067697703 -0.095375821
0.40032887 0.010204682 -0.097610533
0.42392397 0.019188775 -0.09702675
-0.43778747 0.02894716 -0.091547757
-0.42137229 0.023731593 -0.099301584
-0.41800907 0.022492325 -0.091826245
-0.34546584 0.024782799 -0.097974464
0.032412954 0.024782799 -0.096387848
0.043806404 0.024782799 -0.091867663
0.14967895 0.024782799 -0.099332102
0.20902656 0.024782799 -0.096604183
0.25183505 0.024782799 -0.096168682
0.3803072 0.0251313 -0.090749241
0.44337478 0.029327406 -0.095387921
0.41462064 0.038196877 -0.099803537
-0.42797482 0.04674992 -0.098654859
-0.23492633 -0.031605855 -0.082796477
0.26091638 -0.0361563 -0.080818437
0.27970704 -0.032121882 -0.083448946
-0.27602786 0.0037080499 -0.089610144
-0.26087493 0.0037080497 -0.087435968
-0.24683088 0.0037080499 -0.088007763
-0.14874698 0.0037080501 -0.082616001
-0.11310678 0.0037080497 -0.088686667
0.024613716 0.0037080501 -0.084768876
0.16685686 0.0037080497 -0.087168723
0.17667072 0.0037080497 -0.084997244
0.22993414 0.0037080501 -0.080911256
0.24691474 0.0037080501 -0.088050947
0.28954786 0.0037080497 -0.081259787
0.29540399 0.0037080497 -0.083718173
0.31964013 0.0037080499 -0.08818768
0.39057422 0.0064903782 -0.089650273
-0.39141661 0.013667743 -0.084408559
-0.41939095 0.022893293 -0.089150354
-0.35751733 0.024789032 -0.085418612
-0.31288636 0.024782799 -0.080975465
-0.1915943 0.024782799 -0.08592812
-0.16356486 0.024782799 -0.086202517
-0.15967131 0.024782799 -0.088766575
-0.057019345 0.024782799 -0.088812672
-0.03983216 0.024782799 -0.082191214
-0.028801538 0.024782799 -0.087085709
0.010943785 0.024782799 -0.083313748
0.027405098 0.024782799 -0.088350207
0.057745472 0.024782799 -0.083504237
0.098637372 0.024782799 -0.089904666
0.14133735 0.024782799 -0.089942478
0.16749343 0.024782799 -0.088847071
0.18099238 0.024782801 -0.089222096
0.20682439 0.024782799 -0.088308044
0.2359845 0.024782799 -0.089243703
0.28292075 0.024782799 -0.083867766
0.29325998 0.024782799 -0.085409082
0.43669468 0.024051346 -0.081407458
-0.44292063 0.030477049 -0.083760791
-0.38117522 0.032570355 -0.088309869
0.39841726 0.032027386 -0.085254662
-0.41549432 0.043800592 -0.089467749
-0.25329927 -0.030297844 -0.07000763
0.2678887 -0.022211168 -0.076310121
-0.23975903 -0.018633246 -0.075290911
-0.30701593 0.0037080499 -0.074968524
-0.25709552 0.0037080499 -0.071595713
-0.17315841 0.0037080497 -0.077120408
-0.16196233 0.0037080499 -0.071269542
-0.093180656 0.0037080499 -0.074224338
-0.05823933 0.0037080501 -0.073653884
-0.041469969 0.0037080501 -0.071182787
-0.0015332773 0.0037080497 -0.072223231
0.06137519 0.0037080501 -0.076870233
0.10881747 0.0037080499 -0.077588633
0.14647824 0.0037080501 -0.079463333
0.18322785 0.0037080499 -0.073335707
0.24974939 0.0037080501 -0.075866327
0.30121756 0.0037080499 -0.07676287
-0.40946442 0.019454408 -0.07869485
0.38226902 0.01722673 -0.071657434
-0.42130303 0.023167066 -0.070522979
-0.37347907 0.029790798 -0.074188821
-0.30100408 0.024782799 -0.07710325
-0.20691298 0.024782799 -0.072647937
-0.19290383 0.024782799 -0.07125324
-0.066160977 0.024782799 -0.071294807
-0.017375439 0.024782799 -0.075760864
0.041958377 0.024782799 -0.074269459
0.055868447 0.024782799 -0.075417884
0.19057068 0.024782799 -0.072834149
0.20384456 0.024782799 -0.07241793
0.25029916 0.024782799 -0.078840248
0.30416799 0.024782799 -0.07828854
0.38999924 0.028821902 -0.070050649
0.3918179 0.029514421 -0.073768362
-0.39736885 0.037636243 -0.076472893
0.41454139 0.038166709 -0.077983141
0.45692945 0.0317563 -0.074285962
0.43321791 0.045277849 -0.078884907
-0.24025062 -0.036659196 -0.062925264
-0.38145757 0.0099897468 -0.061822806
-0.36237353 0.0037080499 -0.068659514
-0.23233292 0.0037080501 -0.064366445
-0.075322226 0.0037080499 -0.067993656
-0.066287652 0.0037080499 -0.06017039
-0.031381585 0.0037080497 -0.067028411
0.059000429 0.0037080499 -0.065683097
0.14178999 0.0037080499 -0.065346651
0.15305763 0.0037080499 -0.06875129
0.1886033 0.0037080499 -0.06537775
0.23179474 0.0037080499 -0.068467431
0.26290172 0.0037080497 -0.06436915
0.27206463 0.0037080499 -0.065478452
-0.38666409 0.011741105 -0.064524129
0.42189479 0.01841617 -0.060917921
-0.41966355 0.022441851 -0.06044808
-0.24211971 0.024782799 -0.066579312
-0.11420812 0.024782799 -0.068730265
-0.083988965 0.024782799 -0.062867172
-0.063900068 0.024782799 -0.06514854
-0.05552882 0.024782799 -0.060462944
0.020077467 0.024782799 -0.062160831
0.15735871 0.024782799 -0.065315232
0.17259854 0.024782799 -0.066142425
0.18783608 0.024782799 -0.066949703
0.19612885 0.024782799 -0.061731998
0.28090256 0.024782799 -0.06169112
-0.37972909 0.03158024 -0.060814492
0.46233988 0.04005786 -0.060485493
0.44926533 0.051388286 -0.060701922
-0.23657247 -0.033644166 -0.053219795
-0.24932399 -0.019364439 -0.054221813
-0.23785238 -0.019816607 -0.054564603
-0.33088806 0.0037080497 -0.057969391
-0.24613163 0.0037080499 -0.052786574
-0.13991281 0.0037080497 -0.052859358
-0.11437783 0.0037080499 -0.057413787
-0.070752442 0.0037080497 -0.054658137
0.017137319 0.0037080499 -0.055129305
0.10693053 0.0037080497 -0.055094812
0.1716826 0.0037080499 -0.052365407
0.22715987 0.0037080497 -0.051225416
0.2330987 0.0037080499 -0.052225381
0.24964237 0.0037080499 -0.059861038
0.2930364 0.0037080499 -0.050673515
0.31664675 0.0037080499 -0.055312913
0.379392 0.0064681331 -0.059755266
-0.41143137 0.01972826 -0.059124269
-0.40224737 0.016736863 -0.059549667
-0.39995757 0.015907021 -0.055194616
-0.38826883 0.012050316 -0.05311254
0.41871721 0.017206304 -0.055560768
-0.3664256 0.027172044 -0.057460696
-0.35513297 0.024782799 -0.050959639
-0.21466869 0.024782799 -0.054174054
-0.17584801 0.024782799 -0.058969062
-0.16656876 0.024782799 -0.054421224
-0.018361032 0.024782799 -0.057861947
0.10714729 0.024782799 -0.055221904
0.12635788 0.024782799 -0.051249731
0.27915198 0.024782799 -0.053723149
0.31659168 0.024782799 -0.056835055
0.37591967 0.024782799 -0.051928911
0.44535947 0.027350741 -0.058052771
0.46148688 0.050787404 -0.051109552
-0.23903304 -0.036085442 -0.043861303
0.25992772 -0.032660287 -0.045370091
-0.23484489 -0.023739733 -0.049347293
-0.36650431 0.004758487 -0.043374866
-0.34319928 0.0037080497 -0.041791357
-0.33266786 0.0037080501 -0.041732408
-0.30360764 0.0037080499 -0.049547512
-0.19990064 0.0037080497 -0.048073679
-0.14455733 0.0037080499 -0.041481368
-0.12911394 0.0037080501 -0.047102705
-0.043462943 0.0037080499 -0.048166517
-0.025370011 0.0037080501 -0.043758947
0.064507842 0.0037080497 -0.043219794
0.072683871 0.0037080497 -0.048919935
0.32352328 0.0037080499 -0.045635108
0.36034408 0.0037080499 -0.045377992
0.38478509 0.0047004102 -0.049379732
-0.40141016 0.016210375 -0.046110988
0.379392 0.011800003 -0.044052824
0.40383956 0.011541453 -0.045727365
-0.41617131 0.021064227 -0.047861088
-0.32642731 0.024782799 -0.043610554
-0.29936397 0.024782799 -0.043499079
-0.28241608 0.024782799 -0.047813006
-0.27015841 0.024782799 -0.04282875
-0.23132677 0.024782799 -0.049951356
-0.089486465 0.024782799 -0.049627673
-0.025880262 0.024782799 -0.044245929
0.087955132 0.024782799 -0.046226446
0.13887621 0.024782799 -0.047187682
0.17618608 0.024782799 -0.046123911
0.28806037 0.024782799 -0.045228194
0.38596022 0.027283898 -0.04766342
0.45579284 0.031323504 -0.045503043
-0.43783411 0.05034472 -0.049540997
0.27198955 -0.041532606 -0.037594281
0.26114184 -0.036634691 -0.036342688
-0.1118132 0.0037080499 -0.0316156
-0.10802117 0.0037080499 -0.031099871
-0.049717512 0.0037080499 -0.037903018
0.050347805 0.0037080501 -0.03076813
0.072366334 0.0037080499 -0.031077819
0.099941768 0.0037080501 -0.032526251
0.1157335 0.0037080499 -0.03954158
0.12287994 0.0037080497 -0.032521732
0.15980959 0.0037080499 -0.031207237
0.18598686 0.0037080499 -0.037584227
0.21966147 0.0037080497 -0.03899657
0.25581312 0.0037080499 -0.038797777
-0.36055338 0.024782799 -0.030977037
-0.3084603 0.024782799 -0.032332174
-0.12513502 0.024782799 -0.032589279
0.036537722 0.024782799 -0.03935764
0.064999528 0.024782799 -0.035187356
0.11751687 0.024782799 -0.033510193
0.16806599 0.024782799 -0.039396737
0.31662661 0.024782799 -0.03886677
0.36078572 0.024782799 -0.034696985
0.37968108 0.024892874 -0.033535052
0.39075655 0.029110283 -0.034087598
-0.37727013 0.030285271 -0.034696087
0.42763782 0.043153077 -0.036594715
-0.44673127 0.053018536 -0.037211794
-0.43800393 0.050199106 -0.038863759
0.45887163 0.055046163 -0.037625995
0.27955344 -0.033955745 -0.027981242
-0.25307962 -0.024293698 -0.022867395
-0.36821821 0.0049991296 -0.026427779
-0.33625627 0.0037080501 -0.029185392
-0.32609665 0.0037080497 -0.029189453
-0.31655717 0.0037080501 -0.02872888
-0.26640466 0.0015303676 -0.020017199
-0.24332482 0.0037080497 -0.02356364
-0.22120047 0.0037080497 -0.02117141
-0.11895889 0.0037080499 -0.024292765
-0.1009609 0.0037080499 -0.027624171
-0.087238573 0.0037080499 -0.022406595
0.13788308 0.0037080499 -0.024450429
0.27899921 0.0041439501 -0.020238055
0.30277038 0.0037080497 -0.02452286
0.35114765 0.0037080501 -0.020767402
0.39428383 0.0079028923 -0.027594758
-0.40433878 0.016740533 -0.023473248
0.40089405 0.010419868 -0.024540739
0.41754144 0.016758623 -0.025889203
-0.41786018 0.021223811 -0.027041933
-0.36930144 0.027413206 -0.020390181
-0.32714254 0.024782799 -0.021183291
-0.24730858 0.024782799 -0.022776645
0.12481511 0.024782799 -0.024442993
0.19707821 0.024782799 -0.026013127
0.27561659 0.024782799 -0.028863057
0.31351036 0.024782799 -0.021903213
0.39550519 0.030918501 -0.024939774
-0.46909019 0.048296265 -0.026175896
-0.46073532 0.057411045 -0.02758321
-0.45209414 0.05450977 -0.023382746
-0.25316316 -0.03074459 -0.012369998
-0.23419888 -0.029367328 -0.017358681
-0.24338929 -0.017776873 -0.012772711
0.25124559 -0.0038640797 -0.010252622
-0.36792347 0.0063221091 -0.011335783
-0.23759907 0.0037080499 -0.019118689
-0.2006734 0.0037080501 -0.013251804
-0.19357198 0.0037080501 -0.014181025
-0.15484595 0.0037080501 -0.0179752
-0.032053284 0.0037080497 -0.012350857
0.078839153 0.0037080497 -0.015320115
0.13165791 0.0037080499 -0.018774686
0.25538656 0.0039986498 -0.01452984
0.26631474 0.0037080501 -0.01932022
0.28033233 0.0037080497 -0.011755645
0.33166993 0.0037080499 -0.019538783
0.34870437 0.0037080499 -0.01918472
0.35725579 0.0037080501 -0.01982557
0.38453785 0.011268092 -0.013365816
-0.37703303 0.029802181 -0.013156567
-0.18007603 0.024782799 -0.014829881
-0.15333603 0.024782799 -0.016978664
-0.10466355 0.024782799 -0.015625682
-0.086652704 0.024782799 -0.018718924
-0.076276228 0.024782799 -0.01211144
-0.068712354 0.024782799 -0.017039817
0.021315232 0.024782799 -0.0174013
0.098474175 0.024782799 -0.013763517
0.14633022 0.024782799 -0.011235118
0.15956116 0.024782799 -0.011429265
0.18725827 0.024782799 -0.017644014
0.36484075 0.024782799 -0.014635641
-0.45508885 0.033078827 -0.01089165
-0.3939957 0.035368543 -0.014551364
-0.43782088 0.049754146 -0.018410187
0.44225812 0.048720181 -0.012798248
0.47247767 0.042409837 -0.019220475
-0.46920431 0.056174755 -0.010904314
0.26213509 -0.033688992 -0.0035777658
-0.25312579 -0.024422165 -0.0033214681
0.27687332 -0.016728701 -0.0039280285
0.295847 -0.00076692761 -0.0077665681
-0.35422176 0.0037080499 -0.0011466146
-0.28736544 0.0037080497 -0.0071785115
-0.27033368 0.0037080499 -0.0061557763
-0.2589578 0.0037080501 -0.0044406243
-0.2246083 0.000214535 -0.0081138201
-0.21212308 0.0037080499 -0.0016136765
-0.16035822 0.0037080499 -0.0082733817
-0.065018326 0.0037080499 -0.0056781694
0.1978642 0.0037080497 -0.0072568543
0.20926175 0.0037080497 -0.00081765279
0.27515739 0.0041439501 -0.0052391212
0.33970541 0.0037080499 -0.0061675459
-0.39354157 0.012839884 -0.0035935976
-0.30738634 0.024782799 -0.0076381639
-0.23617354 0.024782799 -0.0058737956
-0.02131781 0.024782799 -0.0075875632
0.074500293 0.024782799 -0.0098957494
0.15000281 0.024782799 -0.0052760541
0.23948412 0.024782799 -0.0005601272
0.32135528 0.024782799 -0.0030524023
0.4481667 0.028419675 -0.0097810384
-0.46935907 0.037694283 -0.0084773088
-0.39306271 0.034845546 -0.0029593818
-0.3806079 0.030734191 -0.00064793229
0.4063662 0.035054125 -0.0079848506
0.47451955 0.039894499 -0.0090340124
-0.438375 0.049712215 -0.0065734144
0.4288353 0.043609034 -0.0028066849
0.46500483 0.0573822 -0.0069296053
0.26773745 -0.041625917 0.001463294
-0.25052828 -0.020414373 0.0040006936
0.27619651 -0.024302458 0.006345287
0.29581603 -0.0038640797 0.00062307803
-0.38152444 0.0086620674 0.0098419935
-0.34165925 0.0037080499 0.0028528944
-0.31622422 0.0037080501 0.0038231306
-0.25830942 0.0081465002 0.0067705456
-0.22427481 0.0019612922 0.0052288165
-0.19577968 0.0037080497 0.0050956048
-0.067048997 0.0037080499 0.0030605737
-0.042025186 0.0037080499 0.0072504357
-0.0034509348 0.0037080499 0.006193215
0.17025062 0.0037080497 0.00077271275
0.20379119 0.0037080497 0.0029625222
0.37488598 0.0066384301 0.0072703212
-0.38584232 0.010247903 0.00051684957
-0.36698097 0.011724671 0.0041597541
-0.36070496 0.024782799 0.009231844
-0.083220154 0.024782799 0.006516479
-0.0052389354 0.024782799 0.0032487065
0.0016498864 0.024782799 0.0084391087
0.064334713 0.024782799 0.0047529861
0.086763926 0.024782799 0.0096816197
0.13967413 0.024782799 0.0064682066
0.20195356 0.024782799 0.0044651404
0.26838559 0.024782799 3.5315752e-05
0.30118418 0.024782799 0.0075846389
0.32376352 0.024782799 0.002375856
0.38866678 0.028314523 0.0047598965
0.40308404 0.033804439 0.005846519
0.47463363 0.038595248 0.0098139169
-0.44368488 0.051311404 0.00060041621
0.27924931 -0.028744493 0.01094554
-0.37933427 0.0079357382 0.010425951
-0.3690303 0.0037080499 0.012581334
-0.24583459 0.0059272749 0.015521238
-0.22528851 0.0010112878 0.019646101
-0.13377917 0.0037080499 0.013186544
0.051546268 0.0037080501 0.017773131
0.14761072 0.0037080499 0.019725207
0.24587286 0.0037080497 0.014603112
0.27119753 0.0037080499 0.018526807
0.31515479 0.0037080499 0.015855985
0.38281211 0.0043373751 0.018307868
-0.36549556 0.018820537 0.019400509
0.38215938 0.017514694 0.015402669
-0.30548772 0.024782799 0.011486728
-0.25956491 0.024782799 0.017275434
-0.10763358 0.024782799 0.015917704
-0.033307929 0.024782799 0.01287606
-0.015858587 0.024782799 0.017739424
0.0064887544 0.024782799 0.012463931
0.061688162 0.024782799 0.013496518
0.14057672 0.024782799 0.01144216
0.40113947 0.033063959 0.019743765
0.4104284 0.036600739 0.01849366
0.4677926 0.05416717 0.018381901
0.27415475 -0.023384031 0.024545766
-0.35370898 0.0037080497 0.024719503
-0.15603763 0.0037080499 0.029862594
0.087916449 0.0037080499 0.021528855
0.14441952 0.0037080497 0.028778261
0.24158153 0.0037080501 0.022878272
0.35559911 0.0037080499 0.028372217
-0.39581728 0.013085357 0.022838458
-0.36471426 0.021731764 0.022091415
-0.13074374 0.024782799 0.023407571
-0.096847698 0.024782799 0.027226545
-0.047242023 0.024782799 0.024984747
0.0033622533 0.024782799 0.028701086
0.01051592 0.024782799 0.02117876
0.024703875 0.024782799 0.027011912
0.056689426 0.024782799 0.022134457
0.16328642 0.024782799 0.023385156
0.20622914 0.024782799 0.026748681
0.21137357 0.024782799 0.020917509
0.25480938 0.024782799 0.023843743
0.26078418 0.024782799 0.020547081
0.30081913 0.024782799 0.02103585
0.33077782 0.024782799 0.027929556
0.37613302 0.024782799 0.025966603
-0.46481928 0.035587255 0.024666395
0.45794556 0.032143191 0.023018513
-0.47248757 0.043475375 0.027544785
0.44370833 0.049272418 0.028335765
0.47029221 0.045047525 0.027522037
-0.44806719 0.052348286 0.021547075
0.45035371 0.051802687 0.028353332
-0.24247867 -0.017853033 0.035981279
-0.34955704 0.0037080499 0.035355423
-0.2899524 0.0037080501 0.032572169
-8.0318889e-05 0.0037080497 0.031661239
0.08770971 0.0037080499 0.030773228
0.13049597 0.0037080497 0.034503281
0.19736592 0.0037080501 0.032847866
0.28004831 0.0037080501 0.039947487
0.30399412 0.0037080497 0.035435621
0.31788972 0.0037080501 0.030174132
0.3209216 0.0037080499 0.038059615
0.3601678 0.0037080497 0.032985073
-0.41711283 0.019804044 0.035394344
-0.3677772 0.015013976 0.03734139
-0.42870229 0.023599327 0.03486361
-0.3746987 0.028134435 0.03491804
-0.19987959 0.024782799 0.034935143
-0.1886999 0.024782799 0.039595917
-0.056417502 0.024782799 0.033970229
-0.04781501 0.024782799 0.032880172
-0.0067295283 0.024782799 0.035344407
0.0037745275 0.024782799 0.030140128
0.068374552 0.024782799 0.03595997
0.2835764 0.024782799 0.032584295
0.43653017 0.023988709 0.038599737
-0.45656931 0.032670617 0.036459483
-0.46492219 0.055402517 0.03980419
0.4629035 0.05658184 0.034686029
-0.31125796 0.0037080499 0.043435704
-0.20788886 0.0037080499 0.044542998
-0.15310952 0.0037080497 0.042445131
-0.12211718 0.0037080499 0.043034781
-0.067984752 0.0037080501 0.047088787
-0.055528507 0.0037080501 0.041618399
0.037664451 0.0037080499 0.049830887
0.043049619 0.0037080499 0.04022849
0.055877075 0.0037080499 0.041834541
0.33728811 0.0037080497 0.04000267
0.37579495 0.0037080499 0.048421782
-0.38792491 0.010153078 0.041670837
-0.28442714 0.024782799 0.041526377
0.014084883 0.024782799 0.048292115
0.049477562 0.024782799 0.049338251
0.20706995 0.024782799 0.044928104
0.34949028 0.024782799 0.046264667
-0.39859155 0.035704326 0.047324188
-0.46764314 0.046447802 0.040303651
-0.44675523 0.051426817 0.047723047
-0.35807997 0.0037080499 0.052244052
-0.2938945 0.0037080501 0.052996561
-0.24316475 0.0037080499 0.053527303
-0.12213197 0.0037080501 0.055659831
-0.10263474 0.0037080501 0.050626583
-0.050605334 0.0037080499 0.059326056
-0.041189436 0.0037080501 0.054490857
0.020523917 0.0037080499 0.057557404
0.062935054 0.0037080497 0.051937692
0.077511907 0.0037080499 0.051080421
0.16585138 0.0037080501 0.059082683
0.27915961 0.0037080501 0.051370982
0.3163175 0.0037080499 0.055810358
0.33654118 0.0037080499 0.056018263
0.35427031 0.0037080499 0.051365003
-0.33933324 0.024782799 0.056585178
-0.32427284 0.024782801 0.052812655
-0.081225298 0.024782799 0.055985413
0.21254848 0.024782799 0.057879504
0.26557273 0.024782799 0.051350359
0.37092257 0.024782799 0.050306424
-0.39944023 0.035754494 0.059377894
-0.41812372 0.04187553 0.058366604
0.43359658 0.045422032 0.057401404
0.4592607 0.045659643 0.059323974
-0.45965689 0.055499647 0.055229656
-0.32085863 0.0037080499 0.062901139
-0.2824401 0.0037080499 0.065318614
-0.20252451 0.0037080497 0.068543248
-0.19486028 0.0037080497 0.061730579
0.025871061 0.0037080497 0.063492686
0.055423316 0.0037080499 0.064385712
0.20561475 0.0037080497 0.061059523
0.24592383 0.0037080501 0.066190548
0.2672354 0.0037080501 0.068875454
0.37540832 0.0037080499 0.063518994
-0.36850941 0.017914165 0.066250131
0.37939203 0.010301383 0.069978893
0.40526205 0.012083083 0.062335066
-0.35758248 0.024782799 0.060945638
-0.33992857 0.024782799 0.060629003
-0.29449749 0.024782799 0.066602238
-0.27408633 0.024782799 0.064593382
-0.24988589 0.024782799 0.068336278
-0.23908189 0.024782799 0.064161554
-0.16362476 0.024782799 0.066557899
-0.031835925 0.024782799 0.06302578
-0.017206572 0.024782799 0.063247383
5.7190657e-05 0.024782799 0.063909948
0.01732026 0.024782799 0.063408524
0.064562872 0.024782799 0.060281098
0.095264368 0.024782799 0.065443859
0.20307438 0.024782799 0.068671435
0.31287345 0.024782799 0.069198437
0.37989682 0.023456998 0.069289736
0.38202578 0.025785718 0.061245337
-0.45760593 0.043488838 0.067854352
-0.24660885 -0.031509902 0.0798117
-0.25263825 -0.025609653 0.076635957
-0.38335949 0.0079720775 0.078308821
-0.37197316 0.0085426802 0.071735784
-0.29466051 0.0037080499 0.079469889
-0.25764671 0.0037080497 0.075475976
-0.2395342 0.0037080497 0.07585521
-0.19736539 0.0037080501 0.075609505
-0.12019223 0.0037080499 0.0787936
-0.081127234 0.0037080501 0.078788608
-0.059870996 0.0037080501 0.074010983
0.10336764 0.0037080501 0.077509858
0.15362389 0.0037080497 0.078417227
0.19670527 0.0037080501 0.07566689
0.23270823 0.0037080497 0.07403104
0.39639983 0.008708599 0.073106684
-0.42372447 0.021241296 0.073747084
-0.35834423 0.024782799 0.076421902
-0.32347801 0.024782801 0.074462146
-0.29345733 0.024782799 0.072672874
-0.25553268 0.024782799 0.078340627
-0.19795528 0.024782799 0.078535266
-0.17817655 0.024782799 0.075410716
-0.11599785 0.024782799 0.072552279
-0.053002633 0.024782799 0.076315403
0.054888677 0.024782799 0.076605745
0.066087902 0.024782799 0.079425164
0.1462526 0.024782799 0.076492012
0.1674554 0.024782799 0.076077856
0.17904872 0.024782799 0.078556538
0.28287163 0.024782799 0.070098281
0.32138646 0.024782799 0.079614237
0.34013081 0.024782799 0.072016194
0.37743342 0.024782799 0.079739295
-0.39934835 0.035457198 0.073572166
-0.38724899 0.031463988 0.075776562
-0.37294924 0.0052196658 0.083571672
-0.35757133 0.0037080501 0.082693771
-0.33794379 0.0037080499 0.08460667
-0.32792729 0.0037080499 0.08618813
-0.30514497 0.0037080499 0.08340127
-0.28546011 0.0037080499 0.080330536
-0.27570444 0.0037080499 0.08371383
-0.26776704 0.0037080501 0.084576607
-0.24453427 0.0037080499 0.087676048
-0.23531522 0.0037080499 0.084345043
-0.19328934 0.0037080497 0.081471957
0.075433038 0.0037080499 0.089115322
0.1356898 0.0037080501 0.085256107
0.20662044 0.0037080499 0.088175148
0.2102519 0.0037080499 0.087323226
0.22549818 0.0037080501 0.084095225
0.24722402 0.0037080497 0.083215773
0.27586845 0.0037080501 0.088403016
-0.3960422 0.012072165 0.08054249
-0.37160054 0.012116252 0.085932642
-0.37523675 0.027282439 0.089490622
-0.36476451 0.024782799 0.082609355
-0.28494757 0.024782799 0.085843772
-0.22978705 0.024782799 0.083633885
-0.19072267 0.024782799 0.080732547
-0.14856045 0.024782799 0.084744379
-0.12857431 0.024782799 0.088691376
-0.0098756701 0.024782799 0.089092135
0.30608433 0.024782799 0.087228484
0.34682778 0.024782799 0.08126156
0.37966722 0.024887605 0.08309339
0.42669129 0.020242438 0.082905382
-0.44718671 0.033306465 0.089514606
-0.39775869 0.034763344 0.08284834
-0.44526643 0.046734005 0.084552184
-0.42231974 0.042652369 0.089888841
-0.38655376 0.0087944567 0.090036638
-0.37544721 0.0051382184 0.091567084
-0.36558533 0.0037080497 0.090889744
-0.3425436 0.0037080501 0.095126227
-0.27388105 0.0037080499 0.092464946
-0.24153002 0.0037080501 0.095403701
-0.22692415 0.0037080499 0.091760315
-0.12772161 0.0037080499 0.097079769
-0.084904559 0.0037080501 0.092310563
-0.056868732 0.0037080497 0.094027035
-0.017712492 0.0037080499 0.098630808
0.039763834 0.0037080501 0.094499342
0.084159933 0.0037080501 0.095102154
0.099417716 0.0037080499 0.093116879
0.1132774 0.0037080499 0.094816208
0.12684631 0.0037080501 0.097819529
0.17028618 0.0037080499 0.096184097
0.28217024 0.0037080501 0.093691446
-0.28809184 0.024782799 0.092101865
-0.23263991 0.024782799 0.098477624
-0.22085695 0.024782799 0.0916657
-0.12289304 0.024782799 0.092807889
-0.11424688 0.024782799 0.090771437
-0.097194128 0.024782799 0.094933704
-0.028859057 0.024782799 0.090560384
-0.0026089102 0.024782799 0.093752287
0.017897978 0.024782799 0.094150349
0.063551165 0.024782799 0.0902417
0.12499463 0.024782799 0.096231148
0.13794568 0.024782799 0.092946455
0.19509971 0.024782799 0.095594116
0.22427262 0.024782799 0.091562346
0.2391344 0.024782799 0.090195939
0.24961546 0.024782799 0.094770864
0.29160666 0.024782799 0.095665932
0.35461757 0.024782799 0.093740299
0.37996554 0.023276543 0.098110221
0.38081425 0.025324374 0.096299626
-0.44387925 0.032628339 0.09325175
-0.38472861 0.03020435 0.098952681
-0.42629671 0.043842826 0.0956444
0.43501914 0.042887807 0.096177533
-0.20642327 0.0037080499 0.1012001
-0.1974055 0.0037080497 0.10306969
-0.1438027 0.0037080499 0.10125515
-0.12926334 0.0037080499 0.10491675
-0.11443045 0.0037080499 0.10728216
-0.084954858 0.0037080499 0.100319
-0.077514201 0.0037080501 0.1062585
-0.041838929 0.0037080499 0.10503255
-0.019758411 0.0037080497 0.10300326
0.018929116 0.0037080499 0.10804056
0.020353183 0.0037080499 0.10155899
0.047057319 0.0037080501 0.10449316
0.11334082 0.0037080499 0.10643058
0.17458573 0.0037080499 0.10884869
0.19726926 0.0037080499 0.10458633
0.20662913 0.0037080499 0.10231081
0.24379316 0.0037080501 0.1015195
0.3168444 0.0037080501 0.10373999
0.37851217 0.0037080499 0.1051701
0.38705045 0.0051486236 0.1069376
-0.4114216 0.016691426 0.10197817
-0.35784712 0.024782799 0.10361283
-0.31756586 0.024782799 0.10291976
-0.19336407 0.024782799 0.10396542
-0.052347153 0.024782799 0.10113515
-0.0065292586 0.024782799 0.10292099
0.016620267 0.024782799 0.10282961
0.022947101 0.024782799 0.10757373
0.38189757 0.025736891 0.10622154
0.39217278 0.029649556 0.10776132
0.43302435 0.022653773 0.10540732
-0.38559496 0.0079815518 0.11657587
-0.36396173 0.0037080497 0.11507578
-0.29930478 0.0037080499 0.11105779
-0.2519241 0.0037080501 0.11030653
-0.075550556 0.0037080497 0.11650395
-0.0037123412 0.0037080499 0.11345163
0.021495223 0.0037080499 0.11498149
0.096391603 0.0037080501 0.11551665
0.1436556 0.0037080497 0.11120678
0.2572054 0.0037080499 0.11175034
-0.41499677 0.017619636 0.11469675
-0.37122479 0.018585855 0.11743011
-0.37867945 0.027978787 0.11222144
-0.32261911 0.024782799 0.11011239
-0.30426532 0.024782799 0.11082626
-0.23808855 0.024782799 0.11737147
-0.21608421 0.024782799 0.11996722
-0.016927367 0.024782799 0.11922082
0.0076347291 0.024782799 0.11206438
0.068925224 0.024782799 0.1111697
0.10029081 0.024782799 0.11278811
0.23142818 0.024782799 0.11661475
0.24398643 0.024782799 0.11835003
0.27928576 0.024782799 0.11768714
0.32207885 0.024782799 0.11985217
0.33781788 0.024782799 0.11975722
0.38145649 0.023340344 0.11374527
-0.41652539 0.032018393 0.11826022
-0.39249179 0.032471828 0.11318593
-0.29283544 0.0037080499 0.1253731
-0.21987441 0.0037080497 0.12299152
-0.037734583 0.0037080499 0.12956208
-0.021517083 0.0037080497 0.12139609
0.00012931228 0.0037080497 0.12225486
0.08219783 0.0037080499 0.12888375
0.10925377 0.0037080499 0.12691279
0.15842891 0.0037080497 0.12281531
0.19584444 0.0037080499 0.12194154
0.27452761 0.0037080499 0.12259776
0.35870072 0.0037080499 0.12873387
0.39320621 0.0074925618 0.1248108
-0.40736872 0.01719318 0.12742867
-0.39544332 0.011058617 0.12397793
-0.33136418 0.024782799 0.12218107
-0.18361752 0.024782799 0.12738976
-0.10830276 0.024782799 0.12085827
-0.05232244 0.024782799 0.12135758
-0.03804861 0.024782799 0.12504651
-0.013669789 0.024782799 0.12116794
0.0030553788 0.024782799 0.12845257
0.07208667 0.024782799 0.12350504
0.096068934 0.024782799 0.12270521
0.23701739 0.024782799 0.12286133
0.27031302 0.024782799 0.12653877
0.33175802 0.024782799 0.12885079
0.40159151 0.022637125 0.12868367
-0.41290212 0.034439754 0.12021756
0.39912209 0.032295771 0.12260004
-0.37023368 0.0037080497 0.13888565
-0.28517717 0.0087934677 0.139098
-0.23598216 0.0078238789 0.139098
-0.2242879 0.0037080499 0.13304248
-0.20538251 0.00840264 0.139098
-0.19067109 0.0037080499 0.13193525
-0.11953869 0.0037080501 0.13284957
-0.10306708 0.0037080497 0.13710189
0.069589399 0.0037080499 0.13443196
0.079770759 0.0037080501 0.13278045
0.087525584 0.0042019892 0.139098
0.14291763 0.0037080499 0.13886374
0.16096529 0.0037080499 0.1350778
0.19615757 0.0037080499 0.13181043
0.23710996 0.0037080499 0.13204066
0.30717525 0.0055832965 0.139098
0.35045922 0.0037080499 0.13105869
-0.37323308 0.015311829 0.13272071
-0.27403432 0.014979176 0.139098
-0.20049146 0.015958456 0.139098
0.035180584 0.016095618 0.139098
0.1126433 0.015458211 0.139098
0.13227585 0.012239845 0.139098
0.18965821 0.01464308 0.139098
0.24614133 0.01043273 0.139098
0.38265914 0.016202278 0.13045454
-0.39084163 0.028028483 0.13354886
-0.34375495 0.024782799 0.13805981
-0.25434995 0.021694876 0.139098
-0.17985213 0.02003547 0.139098
-0.16002183 0.024769289 0.139098
-0.14804827 0.02067098 0.139098
-0.099015154 0.024782799 0.13960195
-0.080049105 0.024782799 0.1332839
-0.054539174 0.024782799 0.1341522
0.04009942 0.024782799 0.13945676
0.08865229 0.024782799 0.13378255
0.12322976 0.024782799 0.13630143
0.17157644 0.024782799 0.13049398
0.18193255 0.020289555 0.139098
0.27054027 0.024782799 0.13718776
0.28683901 0.023013819 0.13851798
-0.37758318 0.0037080499 0.14143896
-0.36476421 0.023319984 0.14156957
