# .PCD v0.7 - Point Cloud Data file format
VERSION 0.7
FIELDS x y z
SIZE 4 4 4
TYPE F F F
COUNT 1 1 1
WIDTH 928
HEIGHT 1
VIEWPOINT 0 0 0 1 0 0 0
POINTS 928
DATA ascii
-0.26176131 -0.061707847 -0.21145144
-0.28609908 -0.055523284 -0.21004382
-0.27317348 -0.059040062 -0.21164815
-0.24771312 -0.050109874 -0.21150264
0.26287192 -0.053007327 -0.21106526
0.2495921 -0.012147959 -0.21006298
0.33723745 -0.01596736 -0.21195549
0.33342725 0.0021243405 -0.21181926
-0.27631286 0.025439333 -0.21050102
-0.30992508 -0.065929689 -0.20713687
-0.32341877 -0.057865731 -0.20288345
0.28814721 -0.052183501 -0.20841268
-0.23821384 -0.044155195 -0.20955916
-0.33505231 -0.021289872 -0.20654808
-0.28230935 -0.028243015 -0.20269249
-0.26777282 -0.011881615 -0.201488
-0.23318687 -0.014602313 -0.20941566
0.32357305 -0.013692198 -0.20032094
-0.29450017 -0.0048588808 -0.20148802
0.27335972 -0.0058795745 -0.20464435
0.31021494 -0.0096264035 -0.20155799
0.32156476 -0.00013318087 -0.20910819
-0.293935 0.0038747168 -0.20385599
-0.32203579 0.014447469 -0.20510417
0.26604003 0.022021733 -0.20525241
0.31505463 0.023934949 -0.20974457
0.32513201 0.02450368 -0.20512417
-0.27887863 -0.080368921 -0.1926299
-0.27130064 -0.07877326 -0.19446622
0.32534266 -0.073398463 -0.19283268
0.25897735 -0.067285605 -0.19018571
-0.26094884 -0.039157901 -0.19979778
0.24138464 -0.033822484 -0.19783986
-0.34137687 -0.022463676 -0.19199902
0.27436548 -0.022349179 -0.19999953
0.23931767 -0.01863947 -0.1954935
0.31998241 -0.014190522 -0.19860077
0.32011786 -0.015050992 -0.197166
0.31431842 -0.0002193473 -0.19734469
-0.26703355 0.00010702992 -0.19709601
0.24691758 0.0079535432 -0.19503322
0.29937422 0.0057463143 -0.19809166
-0.24690965 0.024379227 -0.19464114
0.27762672 0.032333296 -0.19629377
0.29242232 -0.081310049 -0.18888398
-0.24651365 -0.07128609 -0.18324766
0.26934305 -0.07573498 -0.18548098
0.28105959 -0.079568148 -0.18928589
0.33880815 -0.064853609 -0.1893988
0.24077757 -0.04106874 -0.18989044
-0.34291345 -0.032188144 -0.18017966
-0.34293491 -0.018425906 -0.18501195
0.35615733 -0.0034887148 -0.1811457
0.35238731 0.0020522857 -0.18745995
-0.23310602 0.013764676 -0.18594916
-0.31121624 0.03127382 -0.18769935
-0.26295879 0.035585813 -0.18690667
0.29685465 0.038882419 -0.18764494
0.32695526 0.031800557 -0.18467772
0.30017418 -0.083738759 -0.17845781
-0.31213906 -0.077028267 -0.17246088
0.24632013 -0.057935897 -0.17469493
0.23918861 -0.044726387 -0.17501438
0.35682318 -0.040657636 -0.17474616
-0.34462076 -0.024595339 -0.17531309
-0.33873746 0.0047440757 -0.17474788
-0.22700772 0.0067340126 -0.17919602
-0.23303311 0.016496578 -0.17673814
-0.24880344 0.031679302 -0.17268114
-0.2893188 0.040134862 -0.17657775
-0.26971674 -0.083409742 -0.16975196
0.29390571 -0.084783591 -0.16348539
-0.33152929 -0.060747497 -0.16261667
0.33858678 -0.069198802 -0.16698511
0.23404923 -0.025161298 -0.16482106
0.2343701 -0.0155992 -0.16422847
-0.34224471 -0.0023725051 -0.16776475
-0.22239608 -0.0014398653 -0.16130461
0.35879302 -0.0078691021 -0.1609239
0.35252315 0.008877676 -0.16971919
-0.3272129 0.02309759 -0.16502063
0.31427175 0.039278507 -0.16952521
0.27831289 -0.08163324 -0.15588856
-0.25455397 -0.077894598 -0.15480468
-0.24835175 -0.074220762 -0.15248077
-0.32671753 -0.065836087 -0.15239935
-0.22721475 -0.052421518 -0.15690657
0.23753467 -0.04076355 -0.1536876
-0.22460683 0.0037269006 -0.15942439
-0.25788993 0.03576427 -0.15311094
0.28703511 -0.082188278 -0.1466371
0.27319771 -0.078725323 -0.14981377
-0.22847864 -0.052715383 -0.14740467
0.34530851 -0.059128508 -0.14485112
-0.22418502 -0.040919825 -0.14430559
-0.30655465 0.034040321 -0.14386688
-0.25300437 0.032054022 -0.14374974
0.27260852 0.033118114 -0.14068863
0.29045969 0.038284443 -0.14192125
0.31525677 0.037612025 -0.14869399
-0.27830309 -0.081408136 -0.13956006
-0.26727256 -0.07725589 -0.13114505
-0.24741396 -0.066886574 -0.13104832
-0.33262891 -0.048739474 -0.13101707
0.2444903 -0.049732264 -0.13824613
-0.2865968 -0.032727718 -0.131495
-0.2785708 -0.019714976 -0.132541
0.27623063 -0.019102842 -0.131565
0.31526589 -0.017115312 -0.131565
-0.33931196 -0.003966311 -0.138974
-0.22875939 0.0052133575 -0.13900644
0.24403429 0.0040375404 -0.13673675
0.29826945 0.0025221677 -0.131565
0.34581971 0.0098241623 -0.13325131
-0.24592349 0.02396052 -0.13460703
0.33206981 0.026556078 -0.13871889
0.3107945 0.036635797 -0.13898878
-0.35812292 0.047334999 -0.130804
-0.33307612 0.043598399 -0.13063915
-0.32666132 0.047941417 -0.130804
-0.026135802 0.044108212 -0.130804
0.085063025 0.043598399 -0.13073026
0.26537731 0.045019545 -0.130804
-0.32228121 0.053528119 -0.13038678
-0.18964216 0.05218941 -0.130804
-0.14291731 0.053056248 -0.130804
0.020806864 0.050306104 -0.130804
0.13200217 0.052230105 -0.130804
0.25189793 0.053692788 -0.13077979
-0.30069071 -0.072069876 -0.12341934
0.29095167 -0.07764256 -0.12935092
0.329615 -0.062922284 -0.12195957
0.29853714 -0.051239152 -0.12243447
-0.32906288 -0.044600852 -0.12143101
-0.26278272 -0.041424334 -0.12600604
-0.30971092 -0.033482119 -0.1217554
-0.25051948 -0.022272991 -0.12028642
-0.23174977 -0.029224709 -0.12027483
0.24205682 -0.026900556 -0.12683862
0.28549525 -0.019320177 -0.12231503
-0.25650588 -0.0047798725 -0.12098933
0.34250534 0.0044847354 -0.12122581
-0.322559 0.016080271 -0.12611774
0.26652542 0.025610633 -0.12893328
-0.29709041 0.032643251 -0.12823325
-0.31877735 0.043598399 -0.12814039
-0.17504174 0.043598399 -0.12463669
-0.07768634 0.043598399 -0.12854792
-0.030224694 0.043598399 -0.12229828
0.021996304 0.043598399 -0.12325365
0.064951271 0.043598399 -0.12506342
0.12826905 0.043598399 -0.12827328
0.13445163 0.043598399 -0.12051028
0.17748883 0.043598399 -0.12312971
0.30597273 0.043598399 -0.12487577
0.31958112 0.043598402 -0.12665355
0.33968657 0.043598399 -0.12560865
0.3645218 0.043999195 -0.12510081
-0.38306913 0.058492132 -0.12108834
-0.37291071 0.05550883 -0.12728384
-0.28646925 0.053592693 -0.12206453
-0.27657455 0.053595796 -0.12203069
-0.23614359 0.053583458 -0.12573639
-0.1218247 0.053652231 -0.12028334
-0.035878077 0.053663004 -0.12247519
-0.029743208 0.053632062 -0.12750602
0.047867417 0.053676028 -0.12422226
0.060814008 0.053687878 -0.12298001
0.086796954 0.053659517 -0.12850194
0.090591803 0.053675547 -0.1262082
0.14933023 0.053726435 -0.12101608
0.16930401 0.053704139 -0.12533762
0.31923163 0.053726312 -0.12864059
0.36333144 0.053859252 -0.12994725
0.38145015 0.053932633 -0.12085994
0.25332206 -0.023841675 -0.11681722
-0.23671156 -0.018862106 -0.1171854
0.25567526 -0.01583094 -0.11663146
0.27408004 -0.017915176 -0.11697636
0.25564641 -0.0057606883 -0.11695381
-0.26653135 0.0070952531 -0.11935863
0.26185557 0.0032528043 -0.11676018
0.32752904 0.0059161545 -0.1165934
-0.27718431 0.011776901 -0.11856506
0.28986409 0.013082705 -0.11776605
0.30615091 0.015714433 -0.11687094
0.32586631 0.014347543 -0.11745386
-0.38441601 0.048728749 -0.11412237
-0.37794712 0.04592973 -0.11400434
-0.361855 0.043598399 -0.1186998
-0.33443207 0.043598399 -0.11317327
-0.15246613 0.043598399 -0.11591958
-0.10512949 0.043598399 -0.1153202
-0.096633747 0.043598399 -0.11976066
-0.087208554 0.043598399 -0.11734557
-0.055713892 0.043598399 -0.11453273
-0.0094709992 0.043598399 -0.1178537
0.00030773878 0.043598399 -0.11110085
0.052474827 0.043598399 -0.11787764
0.17411135 0.043598399 -0.11274751
0.21592195 0.043598399 -0.11869776
0.22927511 0.043598399 -0.11801561
0.32961544 0.043598399 -0.1122653
0.33695257 0.043598399 -0.11523804
-0.2692681 0.053637296 -0.11597911
-0.23953344 0.053633489 -0.11789577
-0.19250433 0.053640679 -0.11889549
-0.12798467 0.053661097 -0.11864521
-0.03262163 0.053727631 -0.11268839
0.066787794 0.053723779 -0.1177301
0.072416201 0.053758882 -0.11258665
0.087895766 0.053770863 -0.11143835
0.14835811 0.053741947 -0.11858958
0.23347539 0.053764001 -0.11900958
0.27045822 0.053828172 -0.11080166
0.36546326 0.055334307 -0.11518703
-0.033422299 0.043598399 -0.10792061
-0.016863346 0.043598399 -0.10577268
0.12989321 0.043598399 -0.10096228
0.16450582 0.043598399 -0.10378714
0.22786644 0.043598399 -0.10851819
0.30837071 0.043598399 -0.10337107
0.364476 0.046529323 -0.10427734
0.38138211 0.049748369 -0.10967066
-0.40248477 0.056548364 -0.10467345
-0.17154771 0.053716689 -0.10815091
-0.1137566 0.053762853 -0.10364285
0.022895513 0.053821567 -0.1007356
0.13549414 0.053822406 -0.10564736
0.27931038 0.053872883 -0.10432641
0.33345142 0.053889401 -0.10421181
0.35937202 0.053866174 -0.10894138
-0.28032851 -0.026989769 -0.096834362
0.27281231 -0.022824517 -0.09265174
-0.36891428 0.043598399 -0.097793616
-0.32883328 0.043598399 -0.098593332
-0.17253157 0.043598399 -0.09936744
-0.050118908 0.043598399 -0.098054245
0.015437134 0.043598399 -0.099747986
0.045821801 0.043598399 -0.090933159
0.07588537 0.043598399 -0.099382773
0.11637349 0.043598399 -0.092897341
0.25717351 0.043598399 -0.094270572
0.28841016 0.043598399 -0.098294564
0.363718 0.048519026 -0.094994806
-0.27532935 0.053748425 -0.090082683
-0.25482014 0.053772032 -0.095917843
-0.22935191 0.053795565 -0.093441233
-0.21103521 0.053798303 -0.093839601
-0.070032284 0.053824291 -0.09615653
-0.021839324 0.053860545 -0.092742316
-0.011720985 0.053827338 -0.098299578
0.13085832 0.053899534 -0.093585245
0.17023624 0.053914346 -0.093071774
0.25822383 0.053929448 -0.094689071
0.37656641 0.059890158 -0.091328695
-0.40402475 0.068976671 -0.093777701
-0.38408452 0.060347803 -0.099633835
0.41001227 0.06858632 -0.093530364
0.40670213 0.071789205 -0.090557665
0.28579998 -0.02301212 -0.08726643
-0.27734721 -0.015344486 -0.081110895
-0.38116097 0.047323972 -0.089740351
-0.37108028 0.047084741 -0.088151023
-0.33609197 0.043598399 -0.085870981
-0.22165969 0.043598399 -0.085990891
-0.15305895 0.043598399 -0.087111197
0.023339763 0.043598399 -0.086831033
0.037139527 0.043598399 -0.082930565
0.052573308 0.043598399 -0.082523182
0.1684422 0.043598399 -0.083087184
0.2272813 0.043598399 -0.084216587
-0.40315571 0.056842409 -0.080130287
-0.36896932 0.051960561 -0.089105971
-0.28574216 0.053723641 -0.081365153
-0.043357268 0.0539333 -0.080597192
0.02322489 0.053919714 -0.085665718
0.03512755 0.05393298 -0.084159784
0.15601216 0.05395107 -0.086790219
0.20744754 0.053969339 -0.086284421
0.4019351 0.057864435 -0.087503791
-0.42054498 0.065573111 -0.084288709
-0.41718569 0.062912151 -0.086289667
-0.35928532 0.043598399 -0.071501724
-0.3077181 0.043598399 -0.074248746
-0.17477795 0.043598399 -0.070373483
-0.08391808 0.043598399 -0.072725616
-0.073468074 0.043598399 -0.076434106
-0.016378641 0.043598399 -0.072434194
0.00072595477 0.043598399 -0.079731181
0.17807476 0.043598399 -0.075173147
0.2552487 0.043598399 -0.071136639
0.31181002 0.043598399 -0.079480827
0.37150833 0.045863528 -0.077090487
-0.25232777 0.053807624 -0.074519224
-0.23231341 0.053856853 -0.078845978
-0.20069081 0.053934649 -0.072016582
-0.14653288 0.053941566 -0.074707866
-0.067372143 0.053937111 -0.078936517
-0.04467959 0.053944282 -0.078849763
-0.018472597 0.05395703 -0.078064024
0.015282508 0.053960592 -0.079026967
0.07771799 0.054017164 -0.07312765
0.11090468 0.053982116 -0.079999693
0.23220426 0.054030396 -0.078008659
0.2956498 0.054052435 -0.07746163
0.36312672 0.050050125 -0.075297259
0.39492306 0.067267932 -0.073076531
0.42564461 0.06722305 -0.074235819
-0.37174475 0.045543619 -0.062240694
-0.31013295 0.043598399 -0.066796303
-0.26012409 0.043598399 -0.060463488
-0.20855778 0.043598399 -0.063887253
-0.10945932 0.043598399 -0.067993551
-0.063116089 0.043598399 -0.062233299
0.0066008866 0.043598399 -0.069293506
0.26548797 0.043598399 -0.068626367
0.36369061 0.043598399 -0.061981071
0.37949875 0.049021333 -0.061203599
-0.26610208 0.053774472 -0.065813325
-0.047044344 0.054034162 -0.064930335
-0.01077076 0.054061931 -0.062285818
0.012608901 0.054056738 -0.064130142
0.031086169 0.05406427 -0.063799664
0.13962919 0.054119512 -0.060168236
0.20690159 0.054113992 -0.064027384
0.24161236 0.054146633 -0.060564585
0.25262091 0.054106288 -0.067258425
0.26698959 0.054099686 -0.068916425
0.29565454 0.054157 -0.061390206
0.34491032 0.054134071 -0.067119837
0.4014726 0.05768992 -0.063371643
0.40765604 0.060128503 -0.066234604
-0.42252678 0.076986164 -0.066385157
-0.41822985 0.075127855 -0.060572509
0.40748054 0.072268315 -0.066984743
-0.27952695 -0.015910273 -0.055915378
0.27804703 -0.015407135 -0.056286529
-0.35780632 0.043598399 -0.055480633
-0.33302367 0.043598399 -0.055410065
-0.2479367 0.043598399 -0.056177903
-0.15518562 0.043598399 -0.051516265
-0.039190575 0.043598399 -0.056768145
0.1365709 0.043598399 -0.057442114
0.19866112 0.043598399 -0.059818085
0.24813697 0.043598399 -0.056092247
-0.29397202 0.053706512 -0.055168588
-0.26828378 0.053770889 -0.051363304
-0.2127693 0.053907968 -0.059204608
-0.088836119 0.05409351 -0.053937469
-0.017921314 0.054137308 -0.050380517
0.27517182 0.054181643 -0.056685679
0.35413662 0.054241646 -0.050998122
0.38499269 0.051190384 -0.056735288
-0.42831165 0.067731485 -0.051891435
-0.40393895 0.068944603 -0.059791923
-0.41764194 0.074874625 -0.053130105
0.42750898 0.080253601 -0.055877343
0.28265023 -0.027425596 -0.042733915
-0.36030173 0.043598399 -0.043182313
-0.29934984 0.043598399 -0.04706154
-0.12402186 0.043598399 -0.04379829
-0.092866533 0.043598399 -0.044287663
-0.089282311 0.043598399 -0.049250249
-0.075216472 0.043598399 -0.048609667
-0.038909212 0.043598399 -0.047944874
-0.028568257 0.043598399 -0.044818245
0.055556204 0.043598399 -0.046685703
0.10131652 0.043598399 -0.040525503
0.17599893 0.043598399 -0.048629854
0.28187776 0.043598399 -0.047134228
0.30280793 0.043598399 -0.049902305
-0.3664422 0.053527251 -0.047373079
-0.31463158 0.05365634 -0.045654148
-0.28459674 0.053731754 -0.040075894
-0.18196635 0.053986143 -0.046955369
-0.17262986 0.05400959 -0.045167916
-0.070139796 0.054154102 -0.045461856
-0.041653238 0.054140195 -0.048874363
0.32206917 0.054287188 -0.042563654
0.40524048 0.05918232 -0.045580558
-0.39819631 0.066461362 -0.049291909
0.4163211 0.07589107 -0.048646484
0.43286866 0.080719113 -0.048391584
0.28585923 -0.022561925 -0.03960257
-0.37184605 0.045322083 -0.035830081
-0.30554044 0.043598399 -0.036016062
-0.28747642 0.043598399 -0.036878191
-0.27120778 0.043598399 -0.035646997
-0.20697623 0.043598402 -0.037515346
-0.18090436 0.043598399 -0.032529783
0.030724421 0.043598399 -0.038070139
0.16875669 0.043598399 -0.038368624
0.1707468 0.043598399 -0.031324204
0.19966844 0.043598399 -0.038147122
0.24472302 0.043598399 -0.036530688
-0.36636287 0.053529304 -0.032828957
-0.29001793 0.05371901 -0.034244314
-0.27076545 0.053767007 -0.033408899
-0.25315258 0.053810012 -0.039698515
-0.20018207 0.053942524 -0.033714332
-0.14766599 0.05407244 -0.039277159
-0.13075763 0.054115638 -0.030316543
-0.052198723 0.054202095 -0.038888272
-0.028718427 0.054214217 -0.038076289
0.071086317 0.054239653 -0.038634297
0.11313587 0.054260187 -0.037360962
0.12308539 0.054273613 -0.03574283
0.18245476 0.054266863 -0.039437354
-0.41334924 0.073020563 -0.031630509
0.41473061 0.075391933 -0.031017218
0.27552247 -0.026604243 -0.020739287
-0.30663979 0.043598399 -0.022970445
-0.23411171 0.043598399 -0.023007695
-0.22536364 0.043598399 -0.021253768
-0.21635178 0.043598399 -0.026647301
0.053857893 0.043598399 -0.025596457
0.13283053 0.043598399 -0.026617862
0.16725817 0.043598399 -0.024871901
0.18555108 0.043598399 -0.027754745
0.20672002 0.043598399 -0.026923705
0.26372999 0.043598399 -0.029380618
0.36422265 0.047253646 -0.023905683
-0.33181363 0.053615734 -0.028946791
-0.27624363 0.053754404 -0.025398638
-0.11348702 0.054158684 -0.029580593
0.15830418 0.054321431 -0.029969685
0.3005507 0.054377794 -0.02767431
0.36401489 0.053887893 -0.025414178
0.41582471 0.063363969 -0.028405482
0.4029465 0.070814088 -0.021027058
0.41079462 0.073864743 -0.027426459
-0.27284974 0.03914129 -0.0108421
-0.25570905 0.037340797 -0.0108421
-0.37248698 0.043828227 -0.015172228
-0.34533972 0.043598399 -0.014923856
-0.24504751 0.043598399 -0.010810167
-0.15608534 0.043598399 -0.015635557
-0.13104914 0.043598399 -0.013587292
-0.10283267 0.043598399 -0.014493933
-0.090200782 0.043598399 -0.019067874
-0.081668131 0.043598399 -0.018863946
0.019710213 0.043598399 -0.017804144
0.13393711 0.043598399 -0.010781922
0.25919989 0.043598399 -0.015860312
-0.22867511 0.053873882 -0.016237263
-0.20663819 0.053928912 -0.014561877
-0.11589208 0.054154493 -0.015552603
0.047453403 0.054394066 -0.013844047
0.050977431 0.054406881 -0.012032418
0.086735591 0.054399222 -0.014809926
0.18631387 0.054443203 -0.01250805
0.24592122 0.054444749 -0.014938258
0.27896732 0.054463331 -0.013561565
0.40688655 0.059843339 -0.010346301
-0.41068816 0.060111042 -0.017972412
-0.41244242 0.072630689 -0.015161619
0.4277488 0.080670878 -0.011655539
-0.2826291 -0.020297874 -0.0050202557
-0.27896404 -0.02751323 -0.0025008279
-0.26967508 0.0082742814 -0.0031365333
0.27516145 0.0024048826 -0.0024167108
0.27856454 0.028690733 -0.003622219
-0.27601975 0.037120461 -0.0056816693
-0.26124716 0.035522498 -0.0036939536
0.27304339 0.037793253 -0.0055987043
-0.23509684 0.043598399 -0.0032026833
-0.19427763 0.043598399 -0.0069970777
0.11055713 0.043598399 -0.0021392899
0.20910583 0.043598399 -0.0023443049
0.26945528 0.040638197 -0.0091008097
0.36374703 0.048517648 -0.00564327
-0.40414223 0.057280496 -0.0059435517
-0.36937666 0.051016763 -0.0042070374
-0.27386859 0.053763337 -0.0016846135
-0.24539106 0.053834081 -0.0023547846
-0.15913564 0.054047659 -0.0098629296
-0.11199519 0.054165404 -0.0059822276
-0.03348317 0.054361168 -0.0021694889
0.038865432 0.054451853 -0.0045776665
0.094168775 0.054435715 -0.0095334798
0.26086071 0.054484703 -0.0094667636
0.39203298 0.053984556 -0.0066021793
-0.43803632 0.071946442 -0.0046335557
-0.41880941 0.075387299 -0.0033733677
0.40104955 0.070150822 -0.0093205087
-0.44064251 0.083642155 -0.0058625266
-0.43133309 0.080806509 -0.001182463
-0.28609809 -0.027182102 0.0014589945
-0.27057284 -0.021950867 0.0053109154
0.27537513 -0.0263693 0.0015418386
0.269703 -0.01428685 0.0038041333
-0.28948313 0.024270147 0.00022791905
0.29006606 0.027187165 0.0014219396
-0.298089 0.036675014 0.0077994182
-0.26511461 0.03143806 0.0024748128
-0.3823474 0.04785119 0.0021916255
-0.34232134 0.043598399 0.0087491311
-0.20693754 0.043598399 0.0072708777
-0.10812207 0.043598399 0.0090216203
-0.086170457 0.043598399 0.0002993308
-0.015995063 0.043598399 0.0066341711
0.0059034303 0.043598399 0.0065023783
0.072505318 0.043598399 0.0036895187
0.17098483 0.043598399 0.00573111
0.26188686 0.043598399 0.0025621434
-0.40239897 0.056527585 0.0032702456
-0.29288667 0.053716566 0.0024913438
-0.21337846 0.053915102 0.0086043142
-0.010048479 0.054420531 0.0062278248
0.058687508 0.054513838 0.0040617306
0.065103412 0.054521136 0.0048959814
0.095295541 0.0545143 0.0024935994
0.1842819 0.054583665 0.0091712475
0.29847303 0.054558091 0.00012887269
0.30347955 0.054574203 0.00238166
-0.41787726 0.063224472 0.0013530292
0.38958117 0.065726191 0.0046063717
0.42348447 0.066396907 0.0044406774
-0.43992415 0.072764896 0.0057110451
0.41128433 0.074272834 0.0020296834
0.43968284 0.082232207 0.0053260415
-0.28282556 -0.019472513 0.011722561
0.27188629 0.020643501 0.015003521
-0.2825554 0.035522498 0.016482206
0.27163059 0.038323276 0.014636539
-0.35655373 0.043598399 0.016965616
-0.10298119 0.043598399 0.018328695
-0.076122776 0.043598399 0.011488223
0.021842975 0.043598399 0.016191211
0.17199311 0.043598399 0.01880623
0.24269894 0.043598399 0.010193161
0.31862661 0.043598399 0.013546119
0.35811108 0.043598399 0.010712154
-0.29578733 0.053710323 0.010119211
-0.28990427 0.053725995 0.018274963
-0.208382 0.053928372 0.015214384
-0.1773839 0.054006003 0.019413024
-0.062585816 0.054290377 0.010316845
0.046823561 0.054562874 0.013175216
0.054850604 0.054580927 0.014544766
0.14125749 0.054610401 0.015207292
0.35795599 0.054691955 0.018041257
0.38471243 0.063887283 0.015935211
0.4234114 0.066371128 0.013664053
-0.44034711 0.072949745 0.017755611
-0.42129689 0.076466575 0.016542027
0.4358286 0.084039047 0.012943316
-0.27272484 0.02478537 0.021265477
-0.28568706 0.037605546 0.024839479
-0.36283818 0.043598399 0.023086242
-0.16057494 0.043598399 0.024332169
-0.070359118 0.043598399 0.029767774
-0.045507137 0.043598399 0.025449837
-0.027130991 0.043598399 0.028147653
-0.0028041974 0.043598399 0.028071888
0.079284616 0.043598399 0.02862316
0.13707887 0.043598399 0.025726343
0.29451531 0.043598399 0.025109664
0.30380899 0.042862289 0.022807634
-0.40330136 0.056920595 0.020198993
-0.37608695 0.056906436 0.027105369
-0.30004919 0.053701926 0.027391398
-0.29395911 0.053716376 0.021947842
-0.26539761 0.05378823 0.028292969
-0.1912412 0.053972337 0.025696775
-0.09281408 0.054216616 0.021502558
-0.020451117 0.054397039 0.02494609
0.03841757 0.054543376 0.024250051
0.055161789 0.054584552 0.02055941
0.094950154 0.054684248 0.02862978
0.23268157 0.054677442 0.021418506
0.36022925 0.054726444 0.023239944
-0.42088765 0.064530566 0.025010128
-0.39347655 0.064430326 0.024985541
0.42338949 0.066364601 0.020029752
0.41258761 0.07497102 0.027237248
-0.2756277 -0.015450465 0.037319914
0.28530943 -0.01887198 0.037692972
-0.18172972 0.043598399 0.036007691
0.095802695 0.043598399 0.03117606
0.11228986 0.043598399 0.033989046
0.17790881 0.043598399 0.03894107
-0.30431098 0.053692259 0.034723464
-0.23051736 0.053876001 0.036278382
-0.16991378 0.054026648 0.03557891
-0.096449919 0.054208979 0.032515381
-0.072978646 0.054267302 0.032097373
0.17707501 0.054751631 0.035310186
0.20100914 0.054758508 0.035295103
0.35244733 0.054819643 0.037912969
0.36789757 0.057425395 0.039832469
0.39826679 0.069374949 0.034885168
0.40521738 0.072136074 0.037351839
0.42632866 0.080479175 0.038898364
-0.37027979 0.048936479 0.044268899
-0.35320133 0.043598399 0.046659358
-0.2512297 0.043598399 0.048666559
-0.21299669 0.043598399 0.041168191
-0.12434035 0.043598399 0.043699846
-0.10180181 0.043598399 0.040210575
0.008691147 0.043598399 0.040048935
0.029318806 0.043598399 0.046352014
0.045035072 0.043598399 0.049557373
0.11548281 0.043598399 0.041877758
0.23721209 0.043598399 0.042692728
0.36169097 0.043598399 0.045199413
-0.39747906 0.054404557 0.042116456
-0.33417395 0.053619456 0.046233758
-0.2003946 0.053952113 0.045584813
-0.16770734 0.054033812 0.04871111
0.26760212 0.054862209 0.048253305
0.33605015 0.054845247 0.04258199
-0.4165771 0.062668726 0.046099916
-0.42866316 0.079657771 0.042959847
0.43033585 0.082081906 0.041813083
-0.34314758 0.043598399 0.057830714
-0.33059186 0.043598399 0.059385061
-0.2779088 0.043598399 0.050461445
-0.20431864 0.043598399 0.058735095
-0.092377499 0.043598399 0.058307588
-0.069856301 0.043598399 0.055719964
-0.044411436 0.043598399 0.050285552
0.082981035 0.043598399 0.059133392
0.13912532 0.043598399 0.050840952
0.1462132 0.043598399 0.054689206
0.17097983 0.043598399 0.052423127
0.25604534 0.043598399 0.050628942
0.36874512 0.044816636 0.053726122
-0.4023751 0.056524683 0.052771218
-0.21631837 0.053913634 0.054432914
-0.1774258 0.05401022 0.053269662
-0.13830827 0.054107882 0.056144822
-0.093367562 0.054219022 0.051148657
-0.018907592 0.054404832 0.055924453
0.001869157 0.054456946 0.059352849
0.010205142 0.054476831 0.052686244
0.103646 0.054710094 0.059382856
0.40329158 0.058445483 0.051578142
0.40110648 0.070638657 0.054489143
-0.32494572 0.043598399 0.067770615
-0.17403391 0.043598399 0.066561818
-0.076555751 0.043598399 0.064379185
-0.042054243 0.043598399 0.060385928
0.065114833 0.043598399 0.061929621
0.088950902 0.043598399 0.068543404
0.098404065 0.043598399 0.062518932
0.2223599 0.043598399 0.066638812
0.2580114 0.043598399 0.068949595
0.32276836 0.043598399 0.06669566
0.3388679 0.043598399 0.068001345
0.35517791 0.043598399 0.065708436
-0.22596487 0.053890605 0.06201575
-0.21131888 0.053927734 0.067484193
-0.17329252 0.054021902 0.064236388
-0.16354442 0.054046832 0.069618396
-0.13687088 0.054112382 0.063391797
-0.020356834 0.054402649 0.067036673
0.081808493 0.054655954 0.060758855
0.24678145 0.054995775 0.069713734
0.25620878 0.05496813 0.065042853
0.39761883 0.06931714 0.062025871
-0.36008507 0.043598399 0.075012594
-0.330668 0.043598399 0.07873252
-0.19716263 0.043598399 0.077315643
-0.15273038 0.043598399 0.078898147
-0.11658614 0.043598399 0.070391491
-0.033441335 0.043598399 0.07656987
-0.0090796724 0.043598399 0.078592658
0.068725489 0.043598399 0.075226985
0.079494491 0.043598399 0.075596288
0.15088019 0.043598399 0.078219555
0.19939783 0.043598399 0.07069169
0.2206596 0.043598399 0.07083562
0.29782617 0.043598399 0.077665605
0.36649185 0.043934021 0.07306987
-0.31262696 0.053676121 0.070361182
-0.29998523 0.053707995 0.073720932
-0.26984784 0.053783372 0.076976627
-0.22462323 0.05389519 0.07178124
-0.13552569 0.054117113 0.074259557
-0.1251294 0.054142985 0.074377194
0.093981557 0.054688424 0.077971488
0.15398635 0.054836791 0.071051888
0.18399465 0.05491158 0.072228208
0.32472077 0.055038437 0.072781563
0.40262038 0.058189459 0.078163877
-0.40143478 0.067880593 0.070771776
0.39374107 0.067917384 0.079944983
0.42382896 0.067162886 0.071471341
-0.42194182 0.071789078 0.073005632
0.40876266 0.07377398 0.07008519
0.28277376 -0.027330834 0.085457712
-0.27473751 -0.01570962 0.085460074
-0.34960058 0.043598399 0.080501474
-0.27089232 0.043598399 0.080951445
-0.20873596 0.043598399 0.085939288
-0.17831343 0.043598399 0.086449429
-0.1430718 0.043598399 0.088637114
-0.022347987 0.043598399 0.087118521
-0.018482337 0.043598399 0.08183594
0.034016896 0.043598399 0.084797025
0.089365207 0.043598399 0.081043407
0.24975443 0.043598399 0.080402739
0.27670342 0.043598399 0.085903734
0.2875782 0.043598399 0.087838925
0.29011703 0.043598399 0.081822261
0.33230042 0.043598399 0.080666803
0.34539181 0.043598399 0.085979357
0.3561804 0.043598399 0.08259891
0.36322105 0.049866837 0.082209699
-0.40466309 0.05751913 0.082088917
-0.24425927 0.053847853 0.083568446
-0.23391032 0.05387383 0.085424185
-0.20766158 0.053938493 0.080514535
-0.18271849 0.054001436 0.087595537
-0.10915066 0.054183502 0.08042746
0.0051641092 0.054467965 0.081488714
0.013574332 0.054489903 0.089503497
0.16382214 0.05486339 0.087788254
0.23871233 0.055049468 0.086299539
0.24040964 0.055053387 0.08392784
0.31759995 0.055135563 0.088029042
0.32746053 0.055099402 0.082029805
0.36247957 0.051886056 0.085454196
0.38869655 0.06599912 0.089907773
0.2737512 -0.01815499 0.095967427
-0.37248269 0.043852925 0.098396994
-0.25540698 0.043598399 0.094569817
-0.1684828 0.043598399 0.098372772
-0.152145 0.043598399 0.093736835
0.015188709 0.043598399 0.090010792
0.22756647 0.043598399 0.091720931
0.35523519 0.043598399 0.094183818
0.36380786 0.044006534 0.096448287
-0.40068048 0.055797733 0.094688281
-0.27708986 0.053767703 0.095371835
-0.23602888 0.053869683 0.094202384
-0.14015138 0.054108333 0.095617354
0.027215555 0.054524727 0.096486181
0.049675286 0.054580774 0.097928941
0.10364804 0.054714829 0.096465856
0.21871106 0.055000413 0.091744974
0.31114605 0.055169128 0.093476191
-0.2367536 0.043598399 0.10771759
-0.22863936 0.043598399 0.10764997
-0.10027127 0.043598399 0.10061201
-0.084378526 0.043598399 0.10336817
-0.066626057 0.043598399 0.10441244
0.027478501 0.043598399 0.10864718
0.13234435 0.043598399 0.10846659
0.21507224 0.043598402 0.10091384
0.2208651 0.043598399 0.10272773
0.33179805 0.043598399 0.10865545
0.36487409 0.04552222 0.10005347
-0.39759105 0.054462213 0.10321194
-0.26680943 0.053793952 0.10070068
-0.21545723 0.053922459 0.10684192
-0.11687372 0.054167219 0.10338403
-0.09486784 0.054222494 0.10764859
-0.08171165 0.054254748 0.10394752
0.0038205832 0.054468211 0.10960336
0.1069662 0.054724012 0.10376547
0.1308448 0.054783493 0.10446233
0.17713229 0.054899171 0.1087625
0.26182121 -0.070858039 0.11702274
0.25765073 -0.06732785 0.11545768
0.30781594 -0.066088803 0.11757885
0.31287807 -0.060618967 0.11617232
-0.29387468 -0.054159313 0.1174383
0.24707225 -0.054803006 0.1129152
0.25507802 -0.054440614 0.11210616
0.27722698 -0.056045495 0.11382699
-0.22795111 -0.029947542 0.11922085
-0.2710219 -0.019308094 0.11974581
0.33004585 -0.011364798 0.11642263
0.23558295 -0.0038344022 0.11339441
-0.29594728 0.0074996855 0.11812434
0.25520021 0.0029670976 0.11427759
0.28425249 0.0084873503 0.11665727
0.24529925 0.017939454 0.11699433
0.27323586 0.026864685 0.11430453
0.29438424 0.027296074 0.11588605
-0.22549704 0.043598399 0.11469889
-0.21537486 0.043598399 0.11783075
-0.19574001 0.043598399 0.11436801
-0.15815105 0.043598399 0.11235422
0.033548161 0.043598399 0.11470107
0.19771492 0.043598399 0.11564567
0.21819331 0.043598399 0.11389034
0.28047979 0.043598399 0.11301082
0.34917098 0.043598399 0.11668938
0.37540102 0.047463194 0.11588255
-0.24733014 0.053843748 0.11125765
-0.05021362 0.054334365 0.11392729
0.07961151 0.054657925 0.11906269
0.12278692 0.054764673 0.11403626
0.25088987 0.055084042 0.11987021
0.36309528 0.050249703 0.1193572
0.37666938 0.051924523 0.11612185
-0.30122328 -0.068642147 0.12222974
-0.23919497 -0.061772458 0.12559885
0.32006556 -0.05896144 0.12166738
-0.32335615 -0.043395422 0.12059528
0.27670285 -0.045293339 0.127065
-0.24927035 -0.033345759 0.12183402
-0.27388161 -0.027256483 0.12344176
0.2600348 -0.029712945 0.127065
0.30700853 -0.021732513 0.12231869
-0.32901073 -0.014657012 0.12206996
0.29989752 -0.0098660123 0.127065
-0.29775959 0.027747707 0.12341473
-0.27223352 0.029676499 0.12081166
-0.37128425 0.047712218 0.1241047
-0.27428317 0.045686342 0.12395604
-0.082792372 0.044138901 0.12432347
-0.058357865 0.045562051 0.12381653
0.013094112 0.043598399 0.12269434
0.038460344 0.043886483 0.12441339
0.20227733 0.043598399 0.12192264
0.33328685 0.046089716 0.12362858
0.36530757 0.04610483 0.12332383
-0.36710221 0.053547524 0.12442365
-0.16754074 0.050961144 0.12335553
-0.12217433 0.05415643 0.12215272
-0.11096583 0.053791426 0.12303735
0.15379979 0.054550387 0.12151714
0.17373727 0.051596254 0.1216671
0.22987734 0.054768905 0.12108033
0.27834362 0.052288305 0.1214206
-0.25221115 -0.073402435 0.13167949
0.31366414 -0.070091605 0.13355628
-0.22667725 -0.051504694 0.13394468
-0.28088069 -0.042450011 0.13156401
-0.26550874 -0.040700447 0.13156401
-0.21901008 -0.034319967 0.13714391
-0.2192194 -0.025965167 0.13313875
-0.28965834 -0.010969166 0.13156401
-0.2598621 -0.019090937 0.13156401
0.33876151 -0.017623892 0.13401636
-0.33265239 -0.002504922 0.1365594
0.22618112 0.0057131364 0.13444588
0.33522081 0.00054452219 0.13677517
0.32435563 0.018409902 0.13668926
0.25833213 -0.080512375 0.14935336
0.23202771 -0.06031087 0.14051874
-0.23897544 0.026548538 0.14662182
0.31812242 0.02575383 0.14161485
0.28465489 0.039403342 0.14161077
-0.29095057 -0.08258523 0.15227991
0.26633924 -0.083529331 0.15981257
-0.30338624 -0.078099623 0.15269858
-0.33966941 -0.023003599 0.15399337
0.34217298 -0.02609292 0.15579614
0.21744058 -0.0089298198 0.15908173
0.22041722 0.00048293528 0.1556727
-0.23906194 0.028477363 0.15770024
-0.26178721 0.039293706 0.15385842
0.24461737 0.030893795 0.15357269
-0.30079091 -0.079929546 0.16585539
-0.22768719 -0.060846053 0.16012244
-0.22459807 -0.056953568 0.16245973
0.33547449 -0.050508261 0.16306177
-0.21360889 -0.023834756 0.16398963
-0.21416019 -0.01548365 0.16328701
-0.23016781 0.020971004 0.16473304
0.31638408 0.029136002 0.16471633
0.32511669 0.0214452 0.1685895
-0.25395399 0.036940727 0.16092712
0.25780833 0.037019402 0.16984095
-0.26531631 0.040354211 0.16543779
-0.2587148 -0.081829801 0.17338203
0.31245375 -0.074821755 0.17077175
-0.23174204 -0.064532831 0.17860042
0.3304992 -0.056603812 0.17433231
-0.33581766 -0.040617965 0.17985961
0.21797635 -0.029430417 0.17458986
0.33449569 0.0046826578 0.17900273
-0.32623059 0.0157995 0.1784218
-0.22502925 0.01275854 0.17757528
-0.27945906 0.040609978 0.1777108
-0.28595692 -0.082029074 0.18363163
0.31008461 -0.071324244 0.18975329
0.31793177 -0.066826731 0.18600887
0.22968359 -0.055988926 0.18228586
-0.22094548 -0.045567952 0.18452729
-0.33428663 -0.039344713 0.18872614
-0.21607184 -0.018707536 0.18514015
0.23241679 0.014419157 0.18652189
0.24437296 0.025358239 0.1883731
0.29387647 0.037023697 0.18306717
-0.29155394 -0.076421455 0.19950096
-0.31249821 -0.067790776 0.19380581
0.23797219 -0.060248192 0.19478557
0.22800192 -0.049105182 0.19042569
-0.25209913 -0.030754477 0.197166
-0.3010456 -0.024966102 0.197166
0.26827332 -0.028103815 0.19705801
0.22393838 -0.016855013 0.19667754
0.28915763 -0.016079132 0.19705801
0.2976428 -0.007739394 0.19535106
0.26829657 0.0044606971 0.1998959
0.2863504 0.0051136827 0.19491036
-0.26390308 0.035209149 0.194415
0.26465744 0.030732851 0.1999394
0.27697143 0.034202866 0.19628359
0.29669765 -0.062539466 0.20713806
-0.28470749 -0.051316787 0.2072939
0.2951529 -0.046570234 0.20152302
0.24653873 -0.031863324 0.20566636
0.3105095 -0.034588393 0.20543545
0.32295191 -0.036906183 0.20660526
-0.30628875 -0.026847664 0.20654915
-0.24947888 -0.026214829 0.20328338
-0.25577796 -0.014749751 0.20155799
-0.22867091 -0.013832198 0.20982479
0.31894174 -0.0083370572 0.20747399
-0.32180023 0.0085234987 0.20446035
-0.26204485 0.0015649586 0.20103359
0.23743047 0.0034163664 0.20550455
0.25762889 1.7857921e-05 0.20277064
0.31843793 0.007496533 0.20534834
0.3252582 0.0044308733 0.20221898
-0.31594792 0.012686842 0.20738065
0.27529421 0.018564112 0.20744638
-0.26356015 0.028016206 0.20820181
-0.27615115 -0.058448948 0.21120599
-0.3150332 -0.019421028 0.21167997
