# .PCD v0.7 - Point Cloud Data file format
VERSION 0.7
FIELDS x y z
SIZE 4 4 4
TYPE F F F
COUNT 1 1 1
WIDTH 839
HEIGHT 1
VIEWPOINT 0 0 0 1 0 0 0
POINTS 839
DATA ascii
-0.25749922 -0.061143119 -0.111418
-0.24092484 -0.061719567 -0.111418
0.29431266 -0.060538124 -0.11141799
0.28582221 -0.051811844 -0.111418
0.2966134 -0.058407228 -0.111418
0.30389774 -0.059744205 -0.11141799
-0.27620897 -0.049796656 -0.111418
0.26912877 -0.04434526 -0.11141801
0.27333036 -0.042919643 -0.111418
-0.2184972 -0.029128734 -0.11130232
-0.29580852 -0.013757256 -0.11141799
0.26094165 -0.015695924 -0.111418
0.2776112 -0.0060790349 -0.111418
-0.25057575 0.0075045768 -0.11141801
0.29762551 0.0042915754 -0.111418
0.31872362 0.0021642961 -0.111418
-0.26899076 0.013881993 -0.11141801
0.31476727 0.012928227 -0.11051575
-0.26897627 -0.066487022 -0.10172673
-0.26625174 -0.052612133 -0.10521567
0.31046927 -0.050612476 -0.10091809
0.3227036 -0.059999116 -0.10026997
-0.24042732 -0.04519657 -0.10760871
-0.23897311 -0.043252081 -0.10109206
0.27449334 -0.038776875 -0.10800773
0.34066042 -0.02410177 -0.10172267
0.271943 -0.019708654 -0.10539378
-0.28056723 -0.0073714834 -0.10083845
-0.22174443 -0.0091477372 -0.10710049
-0.29188353 0.0013790365 -0.10895494
0.27102742 0.0053747511 -0.10746019
0.32962239 0.0025912467 -0.1080833
-0.24913733 0.014602961 -0.10110117
0.27944601 0.011240394 -0.10775699
-0.29208168 -0.052528478 -0.096570417
-0.28309479 -0.040399499 -0.096129768
-0.28653333 -0.032775193 -0.098186262
0.25911286 -0.038162757 -0.096840903
-0.23670404 -0.011455899 -0.098663494
-0.21987572 -0.014485769 -0.090503134
0.3387565 -0.013214782 -0.09279649
-0.27733293 -0.0044521475 -0.09746173
0.26432818 -0.0022955369 -0.098000273
-0.28585857 0.0070585581 -0.09663336
-0.25673589 0.0014608345 -0.097762674
0.29612303 0.0012544289 -0.090159282
-0.26886258 0.015127214 -0.094038792
0.29285249 0.015617371 -0.091400936
-0.27689335 -0.063876204 -0.082498834
-0.23901287 -0.061719771 -0.088841736
0.29147732 -0.066783398 -0.084232323
-0.28510416 -0.059124872 -0.087731086
-0.26053157 -0.052685156 -0.087262399
-0.22756311 -0.051847383 -0.088717252
0.28953797 -0.05104927 -0.088850901
-0.29730645 -0.044635009 -0.082480222
-0.27182865 -0.049801897 -0.082078889
-0.24182819 -0.045427132 -0.084849671
-0.28442407 -0.037577026 -0.089532323
-0.21969157 -0.036262617 -0.089816391
0.25759 -0.031783666 -0.087741062
-0.23307829 -0.027371358 -0.089987814
-0.2185013 -0.029184224 -0.081872597
0.32554111 -0.028309608 -0.080508627
0.34068087 -0.025078801 -0.08349777
-0.29911339 -0.010757581 -0.08131142
-0.28477049 -0.015157997 -0.082719728
0.2745738 -0.01443171 -0.082437143
-0.29784834 -0.0077941064 -0.087066546
-0.23994586 -0.007811103 -0.086168855
0.30761272 -0.00028014393 -0.083698787
-0.25699383 0.0010100054 -0.08421763
0.27201104 0.006238732 -0.082024679
0.2967093 0.0012519795 -0.088536516
0.32178116 0.0092587844 -0.087461874
-0.27318266 0.013976019 -0.0804298
-0.0092093386 0.06746085 -0.082210608
0.12310511 0.066880397 -0.081957161
0.15577601 0.067459807 -0.083796315
0.16592816 0.066880397 -0.08300624
-0.27046406 -0.066146865 -0.071324959
-0.26151299 -0.067424282 -0.078482881
0.29868096 -0.067451224 -0.076535493
0.26719478 -0.052831434 -0.075117759
0.32755467 -0.056067884 -0.074690409
0.33596209 -0.045002796 -0.072624937
0.25727183 -0.022455618 -0.072271943
-0.22485685 -0.0034032622 -0.077430896
0.30860841 -0.00084033317 -0.078418605
0.33201897 -0.00025266071 -0.071237192
0.29962969 0.016048927 -0.078501821
-0.1557634 0.066880375 -0.076244779
-0.084153533 0.067267329 -0.076965734
-0.056057621 0.066880159 -0.075079262
-0.033890501 0.066880397 -0.079108223
-0.0073593669 0.067170352 -0.075974956
0.015022524 0.066879973 -0.073058143
0.042691138 0.06746047 -0.07733883
0.073781416 0.066880137 -0.077873431
0.080300026 0.067460313 -0.077810854
0.11614545 0.067170188 -0.075905427
0.13863017 0.066880397 -0.079488985
0.17601062 0.06687966 -0.074840888
0.20614225 0.067459859 -0.077995487
0.2193791 0.066879585 -0.072301731
0.23875447 0.066879556 -0.073218435
0.26614749 0.066879615 -0.076358341
-0.27823615 -0.063308388 -0.064543769
-0.26251337 -0.06736891 -0.066576481
0.30576459 -0.066874057 -0.064525142
-0.28468242 -0.0594436 -0.066378564
0.27305043 -0.058472175 -0.061405659
0.32709846 -0.056499496 -0.069681972
-0.2986429 -0.041746836 -0.064785175
-0.27339917 -0.034990035 -0.060155492
-0.21951048 -0.03545814 -0.065599114
0.34029335 -0.02011523 -0.065874442
-0.29854542 -0.0094096456 -0.068434224
-0.27490884 0.013344016 -0.064411908
-0.24068466 0.011274583 -0.067777783
-0.23977008 0.010785948 -0.065073803
0.29285988 0.015610034 -0.065771893
0.31903714 0.010912187 -0.063808963
-0.27612254 0.067461051 -0.061229303
-0.26955158 0.06688036 -0.061658248
-0.2562758 0.066880323 -0.060423229
-0.24534404 0.066880368 -0.065968797
-0.20411289 0.067460924 -0.063243821
-0.18129529 0.066880219 -0.060460392
-0.12254694 0.066880174 -0.066574618
-0.084595889 0.067460679 -0.066962242
-0.079294078 0.067460693 -0.068080835
-0.049702436 0.066880032 -0.061870225
-0.017750651 0.067460477 -0.060351856
0.0059709996 0.06687995 -0.064612858
0.013653625 0.067170203 -0.066706792
0.034300826 0.066879913 -0.067121968
0.048482485 0.066879898 -0.069628619
0.061030492 0.067460291 -0.060581483
0.07879658 0.066879846 -0.068892732
0.081077933 0.066879846 -0.067970276
0.11364581 0.067460202 -0.066758946
0.18671262 0.066879667 -0.065696329
0.2789827 0.067459762 -0.067701995
0.28934866 0.066879496 -0.067087911
0.29962566 0.06745974 -0.064061336
0.31958425 0.067459688 -0.064559594
0.33816189 0.067459658 -0.063126296
-0.28269443 -0.06079806 -0.059208602
-0.27293438 -0.065443791 -0.050491996
-0.23908533 -0.06176278 -0.050312757
0.30190024 -0.067342155 -0.054937363
-0.25619921 -0.032793012 -0.054425217
-0.24524665 -0.030278282 -0.055718001
0.25755793 -0.031496089 -0.05448271
0.28595245 -0.035447102 -0.05824066
0.29266724 -0.033227049 -0.055718001
0.30506453 -0.030972999 -0.054419812
-0.30148327 -0.020079188 -0.053308807
0.29085881 -0.026518198 -0.054583058
-0.30025744 -0.014243182 -0.052004043
-0.24962652 -0.013304405 -0.05886073
-0.29637298 -0.0049672066 -0.05767715
-0.28881764 0.0046508741 -0.054268494
-0.23420134 0.007052362 -0.053740628
0.32591742 0.0061573936 -0.05573906
-0.26440954 0.015846621 -0.053158581
-0.25390506 0.015598631 -0.052884199
-0.29760066 0.067461066 -0.058734976
-0.28248668 0.067460999 -0.056188516
-0.27753326 0.066880345 -0.058887042
-0.26614341 0.067460999 -0.059019417
-0.25554925 0.066880278 -0.052978851
-0.22784382 0.067170568 -0.054518901
-0.21178123 0.067460842 -0.053786647
-0.20223057 0.06746082 -0.053635187
-0.17225558 0.066880196 -0.058499403
-0.13312674 0.067460664 -0.051632281
-0.076664053 0.067460552 -0.051388621
-0.041325286 0.067460485 -0.051963568
-0.034811579 0.067170247 -0.056617271
0.0096033812 0.066879936 -0.054598682
0.026799301 0.067460373 -0.053811107
0.046808362 0.067460328 -0.053060457
0.054944284 0.067170084 -0.055071503
0.066719368 0.066879854 -0.055124082
0.085684158 0.067460231 -0.050875522
0.10581977 0.066879801 -0.057642199
0.11727995 0.066879779 -0.056417733
0.14779171 0.067460105 -0.051702227
0.17558147 0.067169875 -0.054033779
0.19012925 0.066879682 -0.052228816
0.30159006 0.067459777 -0.056506153
0.32037818 0.066879489 -0.058226537
0.33544701 0.066879481 -0.053244397
0.35449785 0.06745968 -0.054341532
0.37352094 0.066879407 -0.058061063
0.3903327 0.066879399 -0.054547094
-0.26367915 -0.067304388 -0.046484955
-0.25033796 -0.066280976 -0.04935205
0.29868746 -0.067451105 -0.042102158
-0.23378317 -0.058095284 -0.043554798
-0.29677093 -0.045476817 -0.045746181
-0.2996484 -0.039074007 -0.040736157
-0.26576507 -0.031486847 -0.047481466
0.30179673 -0.033266608 -0.047017198
-0.25198513 -0.024963636 -0.0464347
-0.24660948 -0.028487353 -0.0464347
0.28417063 -0.028845239 -0.0464347
0.29092914 -0.023634899 -0.0464347
0.29543635 -0.015211695 -0.0464347
0.30021408 -0.012482539 -0.0464347
0.31248468 -0.019025877 -0.0464347
0.33908296 -0.014286021 -0.044034928
0.2971139 -0.0095682526 -0.0458268
0.26927054 0.0036999043 -0.043236092
-0.24410677 0.012869899 -0.044884831
0.28282121 0.012846834 -0.046808548
-0.36217535 0.06688036 -0.042891983
-0.35391694 0.067461088 -0.049844161
-0.32092726 0.067461014 -0.048140325
-0.31762546 0.066880323 -0.046183955
-0.27658167 0.067460895 -0.043137483
-0.25395209 0.067460865 -0.044914801
-0.23828331 0.067460842 -0.044878304
-0.20339224 0.067460746 -0.040956169
-0.19798422 0.066880159 -0.041445702
-0.1636119 0.066880122 -0.042578235
-0.15522158 0.066880099 -0.040850945
-0.145473 0.067460686 -0.048760332
-0.11648236 0.067460611 -0.046664938
-0.083889306 0.067073524 -0.041480612
-0.077492505 0.066880003 -0.040190905
-0.06216985 0.06746053 -0.049420439
-0.051334377 0.06687998 -0.040843002
-0.029783383 0.066879965 -0.044117361
-0.012345729 0.066879943 -0.045742154
-0.0071383007 0.06746041 -0.046778999
0.042487904 0.067460313 -0.046971317
0.068616599 0.067460269 -0.04864515
0.095134288 0.067460217 -0.045611344
0.13378407 0.06746015 -0.043216608
0.17312101 0.06716989 -0.041835144
0.19450277 0.067169845 -0.043580934
0.22883967 0.067459971 -0.043535538
0.23403315 0.067266516 -0.041613817
0.26010263 0.066879608 -0.041122217
0.31783772 0.066879526 -0.04759144
0.36339164 0.066879466 -0.046111159
0.40091842 0.06745965 -0.042481683
-0.28088978 -0.061907426 -0.037217349
-0.26765198 -0.06676057 -0.037565045
-0.2500847 -0.058842503 -0.0371514
-0.261112 -0.041882426 -0.037790582
0.26853693 -0.045249239 -0.0371514
0.28221118 -0.045193903 -0.0371514
-0.29592723 -0.038625866 -0.0371514
-0.24798557 -0.036476731 -0.039190419
-0.22850442 -0.038329147 -0.0371514
0.26889578 -0.037031926 -0.0371514
-0.30178565 -0.028217858 -0.038650036
-0.29265323 -0.025137197 -0.0371514
-0.22717503 -0.025694108 -0.0371514
0.25757831 -0.021369787 -0.0371514
0.27375501 -0.0219578 -0.0371514
-0.2744666 -0.018152896 -0.038620528
-0.23731729 -0.018060468 -0.0371514
0.26379174 -0.019800918 -0.0371514
0.33869332 -0.013007382 -0.037252568
-0.29467055 -0.0022453582 -0.037274785
-0.26811445 -0.007800811 -0.0371514
-0.2401067 -0.0071985871 -0.0371514
-0.23003037 -0.0055040568 -0.0371514
-0.2237305 -0.0089526027 -0.0371514
0.26291963 -0.004528557 -0.03715593
-0.27221173 0.00028413069 -0.0371514
-0.24658296 0.0024172296 -0.0371514
-0.23116411 0.0043978048 -0.038315088
0.29039508 0.015175605 -0.037239432
-0.40350512 0.067461058 -0.031754673
-0.34730428 0.067460999 -0.038372736
-0.32790211 0.066880286 -0.031406995
-0.3023966 0.067460902 -0.033630665
-0.29253358 0.066880256 -0.036078736
-0.26668799 0.066880241 -0.039920475
-0.22521123 0.067170471 -0.033727065
-0.19067803 0.067460701 -0.03392151
-0.18578996 0.067073651 -0.034305479
-0.138861 0.067460634 -0.039692577
-0.12338154 0.066880055 -0.031058647
-0.11455644 0.067460574 -0.031245511
-0.00069983304 0.066879921 -0.038568359
0.0009008497 0.066879913 -0.032226987
0.021721914 0.067460336 -0.033734109
0.037199855 0.067460313 -0.030992579
0.045839831 0.067460299 -0.03170687
0.063126087 0.066879839 -0.032772936
0.15385842 0.067460105 -0.036506221
0.16593367 0.067460082 -0.035357345
0.20746577 0.066879675 -0.034719042
0.22517496 0.067459978 -0.034867465
0.27817699 0.066879593 -0.034709889
0.35747254 0.066879496 -0.032153577
0.37506193 0.067459717 -0.033314295
0.3861964 0.067459695 -0.035072781
0.39471826 0.06745968 -0.032888979
0.40136197 0.067459673 -0.032282513
0.42289281 0.067459621 -0.037284341
-0.43894148 0.067461096 -0.025891714
-0.41348732 0.066880383 -0.029267658
-0.34517047 0.066880286 -0.02849325
-0.32621768 0.067460909 -0.025759045
-0.31861073 0.067460902 -0.028916426
-0.27657604 0.067170516 -0.022323735
-0.26863995 0.066880196 -0.022815324
-0.25559309 0.067073725 -0.025468579
-0.22744286 0.067460753 -0.027942693
-0.21898438 0.067460738 -0.029892927
-0.18411446 0.066880114 -0.026235327
-0.15122201 0.067460611 -0.021877874
-0.13430004 0.067460582 -0.023072124
-0.087128714 0.066880003 -0.022395853
-0.050130218 0.067460448 -0.028530294
0.0051359683 0.067460358 -0.02163488
0.016356066 0.066879883 -0.023740303
0.051933333 0.067460276 -0.021372013
0.062146634 0.067170054 -0.027919244
0.071677856 0.066879824 -0.023032228
0.084657498 0.067170016 -0.024118725
0.11659246 0.067460164 -0.027578438
0.13895068 0.067460135 -0.024272215
0.22597206 0.066879652 -0.026546493
0.24306642 0.066879638 -0.026095834
0.25077221 0.06687963 -0.028893372
0.33443797 0.067072958 -0.026506117
0.34511197 0.067459792 -0.024155488
0.35026065 0.06745977 -0.028174303
0.37477413 0.067169622 -0.021198213
0.38370082 0.067459717 -0.025548916
0.39335781 0.067169592 -0.022611339
0.40765315 0.066879451 -0.027669869
0.42291209 0.066879444 -0.023514461
0.4304626 0.066879421 -0.026834041
0.45186624 0.066879407 -0.024045208
-0.35601389 0.067460924 -0.014004409
-0.32391882 0.06746088 -0.012150815
-0.29537031 0.066880219 -0.013600005
-0.21257153 0.067460701 -0.015235679
-0.20466833 0.066880122 -0.013241082
-0.19232696 0.067170389 -0.015784407
-0.18176311 0.066880099 -0.011308704
-0.10092871 0.066880018 -0.014114266
-0.064232796 0.066879973 -0.017549936
0.029943429 0.066879869 -0.01809426
0.044613577 0.067170069 -0.015212837
0.064669132 0.066879831 -0.0176719
0.10127638 0.066879794 -0.015392686
0.11404018 0.067460179 -0.01879422
0.13274206 0.066879757 -0.017328098
0.16328584 0.067073181 -0.015653256
0.18666269 0.066879705 -0.018005827
0.20054391 0.06687969 -0.015232898
0.22857586 0.066879652 -0.015013383
0.23571102 0.067459971 -0.017041761
0.24162991 0.067073084 -0.013314283
0.26710039 0.067459926 -0.012445832
0.27255285 0.066879608 -0.015204251
0.28169441 0.0668796 -0.018585365
0.29576543 0.066879585 -0.016654735
0.30324101 0.067459866 -0.019365344
0.32518166 0.067459829 -0.019041656
0.37039256 0.066879503 -0.016220283
0.38799578 0.067169607 -0.016047912
0.43620962 0.06745965 -0.018689983
0.44736493 0.067459628 -0.016921602
-0.45971197 0.06688039 -0.0034906764
-0.4134599 0.067461006 -0.00080115569
-0.37767363 0.067460954 -0.0045081405
-0.36249861 0.066880278 -0.0029426881
-0.34105384 0.066880256 -0.00051285943
-0.31934148 0.067460857 -0.0038200878
-0.29054403 0.067460813 -0.00094508659
-0.27582774 0.06746079 -0.0043134703
-0.17932951 0.066880092 -0.0022129535
-0.11088305 0.067460522 -0.0036121001
-0.07291054 0.066879973 -0.0019386943
-0.051360399 0.066879958 -0.0059576193
-0.023266166 0.067460388 -0.003708221
-0.009393543 0.067460366 -0.00062013516
0.0026753917 0.066879898 -0.0006012012
0.037302971 0.067460291 -0.0058859261
0.065759771 0.066879824 -0.00041705428
0.074838638 0.066971108 -0.0036422471
0.080604315 0.067460224 -0.0051314812
0.14006168 0.066879749 -0.00059941004
0.21589226 0.066879667 -0.0034770174
0.23047715 0.066879652 -0.001595917
0.24966651 0.067459956 -0.0010980051
0.27499345 0.067169756 -0.0030667591
0.29402179 0.066879585 -0.0015517215
0.32618776 0.067459829 -0.0039711636
0.34724814 0.067169666 -0.0018441183
0.35263601 0.067391478 -0.0062821698
0.37829012 0.066879496 -0.004780951
0.40362489 0.066879474 -0.00076922448
0.46473214 0.067459613 -0.00010932537
-0.46362495 0.06688039 0.0002076737
-0.39114952 0.067460977 0.0058363862
-0.36492386 0.067460932 0.0046279477
-0.35682479 0.066880278 0.0010594435
-0.3358179 0.066880256 0.0039941841
-0.32270288 0.066880241 0.0017974814
-0.2913003 0.06731987 0.0062816702
-0.23038304 0.067460716 0.0044901147
-0.22694144 0.066880137 0.0047288099
-0.18359619 0.067460641 0.0023467743
-0.10194361 0.06688001 0.001717933
-0.086644962 0.067460485 0.0054493169
-0.054065734 0.067460433 0.0020300818
0.0072265565 0.067460336 0.0003357869
0.066782065 0.067266777 0.0036960111
0.082280442 0.066879809 0.0013358806
0.095229067 0.067460194 0.00092485076
0.10540964 0.067460179 0.0028034355
0.12741335 0.066879764 0.0046240808
0.13691154 0.067460135 0.00033080613
0.17331985 0.066879719 0.0024460808
0.20974948 0.067460015 0.0050550848
0.24228784 0.067459963 0.0049119005
0.26236716 0.067078188 0.0037557359
0.3284345 0.066879548 0.0020790228
0.37369153 0.067169622 0.004103398
0.39140362 0.067459732 0.0038789487
0.43844041 0.067169547 0.0012743374
0.47221795 0.066879399 0.0012694512
-0.46287909 0.06688039 0.011640686
-0.45510691 0.067082517 0.018242981
-0.44043374 0.067170724 0.01747033
-0.42564359 0.067461051 0.017514739
-0.37725973 0.067460969 0.017155744
-0.35583115 0.067460939 0.017152913
-0.34833685 0.067460924 0.019467633
-0.31848747 0.06717056 0.01683859
-0.29386157 0.066880211 0.011741038
-0.28369355 0.066880211 0.019465711
-0.27917966 0.066880204 0.019395016
-0.26756755 0.06746079 0.016485371
-0.25408149 0.067460775 0.015887881
-0.19217452 0.066941828 0.013528273
-0.17186557 0.067460634 0.012584258
-0.11108035 0.067170277 0.0137095
-0.10895775 0.066880018 0.014775651
-0.061305016 0.066879973 0.014593479
-0.052920256 0.067266949 0.015588365
-0.04140389 0.066879943 0.01772676
-0.032910708 0.067266919 0.013765904
0.031420629 0.066879869 0.014950248
0.077814266 0.066879824 0.014635362
0.089889333 0.067460209 0.014866794
0.098147288 0.067460202 0.01436561
0.11174843 0.067460179 0.01948759
0.12769692 0.066879764 0.016402181
0.14372733 0.06746012 0.017782759
0.2442168 0.0671698 0.019942235
0.28135291 0.0668796 0.014732467
0.29428881 0.067169726 0.01431664
0.32955077 0.067459822 0.017346444
0.33573961 0.066879541 0.018407127
0.42882454 0.067459658 0.016341617
0.46702725 0.066879407 0.012779496
-0.42764509 0.067461073 0.024673197
-0.40501297 0.066880353 0.025828803
-0.37145975 0.067460969 0.023810327
-0.3573325 0.067460947 0.021983005
-0.33182058 0.066880271 0.02417773
-0.32408637 0.067460909 0.029526882
-0.25891221 0.066880196 0.027113233
-0.23423629 0.067170471 0.028760681
-0.22596116 0.06707368 0.023821561
-0.19139311 0.067460686 0.026124662
-0.18676727 0.066880107 0.023596063
-0.15702565 0.067460626 0.020961501
-0.13218784 0.067460582 0.02380418
-0.11037217 0.066880032 0.023567289
-0.1035515 0.06746053 0.020230275
-0.095851228 0.06688001 0.020503972
-0.072549634 0.067460492 0.029235454
-0.054312989 0.066879973 0.029991955
0.0001950711 0.066879906 0.02364591
0.026012599 0.067460321 0.023777025
0.20251629 0.066879682 0.023416368
0.21474421 0.066879667 0.022115674
0.24668232 0.066879638 0.027245691
0.2748805 0.066879608 0.024423772
0.2865895 0.066879593 0.020848662
0.31335902 0.066879556 0.026223434
0.35646039 0.067459777 0.022827938
0.37740242 0.06745974 0.021430511
0.39015377 0.066879481 0.024913723
0.43632326 0.067169532 0.023999359
-0.240899 -0.060524374 0.037150897
0.31568122 -0.063939445 0.039686188
-0.28629589 -0.052940384 0.037150901
-0.2713832 -0.055997886 0.037150901
-0.26155561 -0.055600967 0.037150901
0.27267238 -0.053220775 0.037150901
0.30429104 -0.054226287 0.037150905
0.33162028 -0.05164016 0.039080322
-0.26073858 -0.046977073 0.037150901
-0.254228 -0.044950746 0.037150901
0.27771622 -0.041508526 0.037150901
0.28318068 -0.041067712 0.037150901
0.32698184 -0.041712742 0.037150901
-0.30126581 -0.032685086 0.038927659
-0.29732215 -0.035523988 0.037150901
-0.29285601 -0.023646301 0.037150901
0.27882099 -0.021251155 0.037150897
-0.23852184 -0.012059659 0.037150901
0.33401728 -0.019926982 0.037150901
-0.29723728 -0.0066157309 0.037595939
-0.24250767 -0.0015717945 0.037150901
0.28795969 -0.0079258485 0.037150901
-0.26923394 0.0056447499 0.037150901
0.27150655 0.0025546749 0.037150901
0.29004091 0.009148322 0.037150901
0.3221609 0.0015194672 0.037150897
-0.28094506 0.010210022 0.037150905
-0.25914297 0.012701923 0.037150901
0.30023134 0.015228387 0.037150901
-0.38271171 0.067461014 0.030000886
-0.35778302 0.067460984 0.031508349
-0.34773773 0.067460954 0.030093357
-0.33481684 0.066880316 0.039832134
-0.3281042 0.067460924 0.030640164
-0.29484203 0.067460909 0.038436227
-0.26088417 0.06746082 0.031701975
-0.23485258 0.066880204 0.039099846
-0.21631247 0.066880167 0.036471017
-0.19654341 0.066880137 0.034466185
-0.15478057 0.066880107 0.038509615
-0.14398649 0.066880092 0.03766457
-0.13839218 0.067460619 0.035542276
-0.087296978 0.06746053 0.032859012
-0.0745897 0.06688001 0.037582636
-0.045696538 0.066879965 0.034784172
-0.015622966 0.06746041 0.0395803
-0.0071615279 0.066879913 0.032517642
0.033791918 0.067170091 0.0351694
0.10433617 0.066879794 0.030194258
0.12284541 0.067460164 0.03443183
0.15748882 0.066879734 0.036957443
0.19187857 0.06687969 0.033705853
0.20299327 0.066879682 0.032125223
0.23312819 0.067459971 0.037221879
0.28832859 0.067459866 0.039629921
0.29779688 0.067459852 0.035306524
0.31389928 0.067459829 0.031685807
0.3285616 0.066879533 0.037802394
0.34606367 0.066879511 0.035724707
0.41831475 0.066879436 0.031400643
0.42186338 0.067459643 0.032251772
-0.27750829 -0.063637711 0.04744456
-0.24617 -0.065059729 0.046820145
0.27839005 -0.062049322 0.04574756
-0.28565049 -0.058711939 0.044926167
-0.22276363 -0.044378713 0.048970476
0.2954554 -0.041541804 0.045602098
-0.2658608 -0.035380922 0.046434201
-0.2193239 -0.034629293 0.049492784
0.29243606 -0.037873067 0.046434201
0.30276996 -0.035290003 0.046434201
0.33854571 -0.03886183 0.042925268
-0.25272518 -0.021190649 0.046434201
0.28309745 -0.022059489 0.042208105
-0.26488411 -0.019150639 0.049302664
-0.22111356 -0.010770978 0.04167787
-0.29130235 0.0020655091 0.049661554
-0.28975642 0.003694135 0.046656132
-0.26224858 0.016000049 0.044044174
-0.35270637 0.066880375 0.046785221
-0.34642798 0.066880368 0.048360035
-0.29123154 0.066880286 0.046103038
-0.27927241 0.067460939 0.048507303
-0.26190493 0.06746088 0.044221077
-0.25815561 0.067460865 0.043213345
-0.23289217 0.066880196 0.041389305
-0.19724849 0.06746076 0.046715513
-0.18808231 0.067460768 0.049138043
-0.17739035 0.067460738 0.048301417
-0.14642566 0.067170382 0.044094987
-0.11660025 0.06726709 0.042418268
-0.099481195 0.067460552 0.040306784
-0.084616244 0.067460544 0.04605433
-0.06146127 0.06746053 0.049548883
-0.057043318 0.066879995 0.045925897
-0.049501672 0.066879988 0.043146618
0.009535484 0.06746038 0.047532469
0.061343163 0.067460284 0.047596361
0.11654959 0.067460164 0.046533275
0.13567597 0.06746015 0.048310407
0.1498784 0.066879742 0.041007251
0.16165617 0.067169905 0.045037348
0.17198411 0.067460075 0.04157149
0.19715835 0.066879682 0.043590441
0.22275615 0.066879645 0.046543472
0.23596278 0.067459941 0.045916717
0.25459614 0.067459926 0.041698053
0.26183173 0.066879608 0.04131094
0.29430997 0.066879556 0.043826479
0.30389863 0.066879548 0.048037205
0.32611853 0.067459792 0.040374245
0.33484608 0.066879503 0.04695747
0.34193894 0.06745974 0.047752943
0.36428383 0.067459695 0.047097132
0.37485889 0.066879466 0.040695705
0.38432649 0.066879451 0.04049005
0.39720422 0.066879436 0.04400906
0.41140395 0.067459628 0.041201897
-0.27322552 -0.065343536 0.056702141
-0.26589715 -0.067037016 0.057492781
-0.2501196 -0.066227391 0.057001248
0.27566674 -0.060373902 0.056478955
0.29282975 -0.066999204 0.052623052
0.30855095 -0.066313729 0.052250333
-0.28602299 -0.058430433 0.058149002
-0.26195806 -0.040321775 0.055718005
-0.30002621 -0.03797926 0.051968239
-0.2697902 -0.038704496 0.056498602
0.29488724 -0.035092894 0.055718005
0.30133101 -0.033424862 0.052151367
0.31127614 -0.035776258 0.055718001
0.28764153 -0.028529665 0.055718001
0.31481364 -0.028941996 0.056752153
-0.26160714 -0.0095290951 0.059209488
-0.25938007 -0.0094799278 0.057478558
-0.28681406 0.0064101238 0.053826135
0.32707685 0.0051350421 0.055135965
-0.23844919 0.010001877 0.054756135
0.29491371 0.015885912 0.052489676
-0.33115166 0.067461081 0.053643126
-0.29893506 0.066880375 0.058574952
-0.28343886 0.06688033 0.055288143
-0.26915994 0.066880286 0.050640251
-0.25685912 0.067170635 0.056944124
-0.2308618 0.066880271 0.057304889
-0.22536179 0.06717056 0.055088911
-0.20154899 0.066880219 0.056761742
-0.18060057 0.067460798 0.05718654
-0.15740837 0.067170434 0.052950434
-0.14609763 0.067460686 0.051843286
-0.13213012 0.066880107 0.051901441
-0.11493769 0.067460649 0.056535959
-0.10711565 0.067170374 0.05834832
-0.063301727 0.066880025 0.056691539
-0.053746127 0.067460507 0.0502594
-0.049872596 0.06746053 0.054315906
-0.02497937 0.067170225 0.055424757
-0.012601193 0.06746047 0.058433622
0.010171831 0.067460418 0.058518924
0.045917142 0.066879883 0.057598867
0.055206496 0.066879869 0.056610316
0.075082831 0.067460254 0.054348171
0.086583674 0.067460239 0.057714347
0.10254411 0.067460194 0.056005649
0.11309808 0.066879779 0.051001009
0.23384778 0.067459933 0.054159708
0.25452334 0.066879578 0.05999855
0.26581424 0.066879585 0.050806366
0.28420162 0.067459837 0.052527331
0.31914526 0.067459747 0.056436654
0.32813022 0.06745974 0.054018751
0.3311303 0.066879481 0.056601364
0.3457557 0.067459717 0.050512388
0.35203439 0.066879436 0.059143912
0.37752059 0.067459628 0.05495831
0.38107347 0.067459621 0.054651879
0.39716059 0.067093104 0.053460408
-0.27279115 -0.065484561 0.060966887
0.25974119 -0.040141843 0.06945911
0.25886875 -0.037542924 0.068402424
0.31444356 -0.030389348 0.060880341
-0.30165547 -0.021624172 0.062886558
0.26246613 -0.0053046523 0.063658878
0.29696557 -0.009587558 0.062608793
0.33350819 -0.002320915 0.068054967
0.33162937 0.00024384794 0.063745312
0.28189638 0.012428227 0.06884414
-0.29135188 0.067461103 0.062478237
-0.21829338 0.066880345 0.068684421
-0.20629413 0.067267425 0.066238426
-0.1921632 0.066880271 0.064545542
-0.18361497 0.066880226 0.060518522
-0.1735871 0.067073792 0.06627097
-0.14711981 0.067460835 0.066942424
-0.11542408 0.067460768 0.067375548
-0.097511344 0.067460723 0.067221403
-0.08025264 0.066880092 0.065460265
-0.060952567 0.067460597 0.06331291
-0.05157312 0.067460552 0.060184062
-0.020435344 0.067460477 0.061159443
-0.010795727 0.067170225 0.063503891
-0.0073479116 0.066880003 0.067650557
0.014154464 0.06687995 0.063170612
0.073051646 0.066879854 0.069084816
0.085810348 0.067460246 0.065663457
0.10158657 0.066879809 0.067462116
0.11140257 0.066879794 0.067912683
0.12603199 0.06746015 0.067762353
0.14176348 0.066879734 0.069397941
0.21780321 0.067169771 0.065359026
0.22717765 0.066879608 0.066103138
0.26641941 0.066879541 0.064162366
0.27195168 0.066879541 0.063303649
0.29710197 0.067169592 0.06647633
0.30007875 0.066879496 0.063958943
0.31868562 0.066879459 0.064166345
0.32784343 0.067169562 0.064143732
0.33992273 0.067459628 0.065744802
-0.27842438 -0.063223213 0.075766832
0.27195418 -0.057573572 0.073731855
0.33222264 -0.050872583 0.078114852
-0.24866968 -0.049758598 0.077509195
-0.30040735 -0.036573201 0.07320115
-0.22042194 -0.03868996 0.074376114
0.2578122 -0.032995876 0.076332986
0.32553536 -0.024352647 0.077632397
0.33971491 -0.016839143 0.074856557
-0.2798124 -0.007744371 0.077451885
0.33540821 -0.0054095741 0.076128885
0.32993081 0.0022528779 0.073075339
-0.25837207 0.016030151 0.075579152
0.3064009 0.015378089 0.072720498
-0.19781543 0.067461096 0.073358409
-0.14293368 0.067460917 0.072036907
-0.10129034 0.066880256 0.076010004
-0.09904135 0.066880196 0.072483845
-0.047888536 0.067460775 0.077422306
-0.026943967 0.067460582 0.070904061
-0.017716751 0.066880114 0.078489996
-0.0087270141 0.066880062 0.076382697
0.044948459 0.067460433 0.074520402
0.051185891 0.066879913 0.071417525
0.066594213 0.066879876 0.071980819
0.11283727 0.067460217 0.079760641
0.13374318 0.067460112 0.075324088
0.16251048 0.067460015 0.078717887
0.17653702 0.067459993 0.07479804
0.18616623 0.066879645 0.074219994
0.2045764 0.066879585 0.076408938
0.22054142 0.067459911 0.070178352
0.24042177 0.067459784 0.074803129
0.25441098 0.067169555 0.077989921
0.26638493 0.066879459 0.076152384
0.30804104 -0.066438615 0.08873906
0.31011587 -0.065930493 0.085574813
-0.26487562 -0.052077867 0.082261153
0.27311713 -0.058522582 0.08297579
0.32920617 -0.054432973 0.088931546
0.33094186 -0.052504696 0.080838613
-0.24421263 -0.047495663 0.087111399
-0.2375592 -0.040352963 0.084661871
-0.22421038 -0.047023561 0.088183187
0.26094145 -0.043056287 0.086268827
0.25896537 -0.037898429 0.082751781
0.32259947 -0.03881038 0.089846656
-0.30185252 -0.024975654 0.089143828
-0.23371337 -0.020242266 0.086159304
0.25715655 -0.025271004 0.088168308
0.32594338 -0.026130609 0.088062897
0.3406778 -0.024909556 0.081733517
-0.23614222 -0.013415707 0.085276015
-0.21883838 -0.019368326 0.080249861
-0.27182472 -0.0014986173 0.084187508
0.28115937 -0.0053573688 0.087727726
0.29111165 -0.00011710805 0.080227003
0.30773184 -0.00036898826 0.082332626
-0.2884416 0.0049815886 0.087097816
-0.2811929 0.010358909 0.082612917
-0.25366738 0.015558789 0.089770347
0.29686543 0.016005268 0.089975603
-0.072658777 0.067041516 0.081582889
-0.032163307 0.067460939 0.081722029
-0.0039390959 0.067170426 0.080470674
0.041149721 0.066880397 0.082975149
0.075964652 0.066880397 0.082768977
0.1224177 0.066880397 0.082920998
0.13573968 0.066879734 0.080585644
-0.28116807 -0.061755791 0.093736306
-0.25509721 -0.067153133 0.090775669
-0.24611074 -0.065040492 0.091085628
0.27201042 -0.057548612 0.09465187
0.30001244 -0.052900378 0.094235405
-0.29625392 -0.046608292 0.093838476
-0.28234968 -0.041299924 0.092747495
-0.23765227 -0.041000828 0.092789099
-0.22229141 -0.04338596 0.096872061
-0.30149478 -0.031201012 0.097134799
-0.21919255 -0.034045901 0.094754398
0.25783324 -0.033108231 0.091621786
0.32331756 -0.037577994 0.091825329
0.33874762 -0.038199157 0.098953813
0.32624102 -0.025859773 0.096449703
-0.28436896 -0.013395827 0.093563475
-0.24761556 -0.0013649893 0.098158114
0.2782048 -0.0078052906 0.098254412
0.31240118 -0.0022020217 0.09019459
-0.2901223 0.003321206 0.097889133
-0.28397045 0.0085913707 0.0908617
0.29665607 0.001536825 0.097728148
0.29722625 0.016025297 0.096859857
-0.23905593 -0.061745323 0.10241916
0.27598661 -0.06058006 0.1000114
0.26779833 -0.053544465 0.10028967
0.2971009 -0.053116199 0.10163503
-0.22350536 -0.04578431 0.10169151
-0.23451596 -0.036054086 0.1050736
0.27213907 -0.032324731 0.10451084
-0.28758207 -0.028432945 0.1053847
0.32338321 -0.012529181 0.10999648
0.33990082 -0.017664852 0.109134
-0.24645065 -0.0016296565 0.10673852
-0.22210485 -0.0084520942 0.10647362
0.33145553 0.00046533084 0.10546885
-0.24643984 0.013764063 0.10113437
0.28349051 -0.06379278 0.111418
-0.25833401 -0.053560741 0.111418
-0.28378776 -0.041714717 0.111418
0.32496947 -0.043630823 0.11141801
-0.29980606 -0.038318407 0.111418
0.25843412 -0.035807922 0.11141799
0.32776013 -0.030679451 0.11141801
-0.22830141 -0.010043972 0.11141801
-0.29355642 -0.00071153749 0.11054023
0.26628295 -0.0068556075 0.111418
0.27578068 -0.0044123041 0.11138382
-0.27575645 0.0096015483 0.111418
-0.26451212 0.0072594527 0.11141801
-0.2543264 0.0056486428 0.111418
0.2934218 0.010671994 0.111418
