# .PCD v0.7 - Point Cloud Data file format
VERSION 0.7
FIELDS x y z
SIZE 4 4 4
TYPE F F F
COUNT 1 1 1
WIDTH 868
HEIGHT 1
VIEWPOINT 0 0 0 1 0 0 0
POINTS 868
DATA ascii
-0.17412169 0.049847715 -0.11042999
-0.15608355 0.049682792 -0.11058126
-0.13059643 0.048353069 -0.11079532
-0.069906592 0.048736542 -0.11077823
-0.16660151 0.054104462 -0.11049303
-0.14557743 0.057063095 -0.11066949
-0.10024138 0.059025124 -0.11020625
-0.077496126 0.057648182 -0.11108407
-0.038140677 0.0504019 -0.1111724
0.024746506 0.054808602 -0.11120246
0.043731254 0.050602298 -0.11115985
0.10240889 0.058998588 -0.11018561
0.11578353 0.055762675 -0.11091973
-0.24269859 0.046785492 -0.10519125
-0.23771462 0.045313485 -0.10011809
-0.18779019 0.047133747 -0.10944182
-0.14087334 0.047420964 -0.10452275
-0.13120739 0.047327474 -0.10233273
-0.10123686 0.04777018 -0.10340626
-0.089662269 0.048130013 -0.10584828
-0.040075831 0.04852847 -0.10732355
-0.039135147 0.047988985 -0.10149433
0.059215512 0.048430733 -0.10705522
0.11484016 0.047598332 -0.1032305
0.12690482 0.047444958 -0.1030644
0.13276623 0.047527634 -0.1046715
0.19767496 0.046403393 -0.10362822
0.20403688 0.04656139 -0.10662471
0.21480881 0.046023175 -0.10305264
-0.24056745 0.054063 -0.10051742
-0.21746996 0.056944124 -0.10693021
-0.20542911 0.057100452 -0.10614482
-0.1517861 0.058303706 -0.10879143
-0.14892796 0.057771191 -0.1027242
-0.063737445 0.059226535 -0.10923909
0.027202809 0.058819748 -0.10337219
0.13602974 0.058000341 -0.10359787
0.15072215 0.058267996 -0.10827676
0.24230488 0.056341778 -0.10569169
0.25774178 0.053705491 -0.10837752
0.29286742 0.054526322 -0.10069358
-0.40107626 -0.033649739 -0.0961373
-0.40256089 -0.021825541 -0.095949799
-0.39294896 -0.027664818 -0.099327631
0.39150581 -0.021144349 -0.098031297
-0.31352782 0.04635134 -0.091979817
-0.25642705 0.04602414 -0.094167843
-0.16037853 0.049167752 -0.095334388
-0.10308998 0.046879746 -0.094070494
-0.043443047 0.047026254 -0.091009542
-0.036345344 0.047652349 -0.097765073
-0.0090776207 0.047515001 -0.09517628
0.01249926 0.047684859 -0.09713795
0.03476198 0.047048349 -0.090866171
0.06166501 0.049366266 -0.094421506
0.10987967 0.046649348 -0.092359483
0.12295774 0.046510398 -0.092500776
0.17308527 0.045697697 -0.090635076
0.24056447 0.048040655 -0.099103451
0.27497467 0.043892246 -0.095304191
-0.27982634 0.054385372 -0.09544012
-0.25021222 0.055248205 -0.096219584
-0.17460923 0.056392439 -0.09213154
-0.15748893 0.051643193 -0.094496444
-0.049977012 0.054265916 -0.092765614
-0.0027959181 0.058063325 -0.094254278
0.045595244 0.057875745 -0.093992226
0.17275208 0.056597393 -0.094063528
0.18753456 0.056085583 -0.091334946
0.19628108 0.056414787 -0.096916229
0.30103013 0.053819109 -0.095436625
0.39733237 -0.035849549 -0.083780348
-0.40631118 -0.026746102 -0.0813196
-0.39655894 -0.025488826 -0.084418505
0.39409551 -0.028315013 -0.085151508
0.4093709 -0.025194315 -0.082192481
-0.28050986 0.043224856 -0.089056291
-0.27447233 0.043421205 -0.089519799
-0.21957216 0.044227209 -0.082956418
-0.023290027 0.046341214 -0.081011333
-0.011025612 0.046888631 -0.087588511
0.038503319 0.046575941 -0.084846303
0.12793319 0.045901611 -0.085253313
0.13781114 0.045794956 -0.085336402
0.22352126 0.044625945 -0.089181446
0.27604049 0.043156303 -0.086588696
0.32072473 0.048927762 -0.083012789
-0.24054596 0.053928725 -0.089807346
-0.20221308 0.055455275 -0.08672867
-0.14157864 0.054028537 -0.084114239
-0.13899304 0.056234106 -0.083271928
-0.10410172 0.056809332 -0.085581891
-0.079193771 0.056708895 -0.0806216
-0.039490424 0.057359055 -0.087168276
0.026475878 0.057022095 -0.08209765
0.041502587 0.051693037 -0.082700171
0.083627619 0.057353612 -0.089654252
0.10726985 0.056919478 -0.087506652
0.22379866 0.054788969 -0.083384171
0.39981648 -0.035760332 -0.079694197
-0.3126632 0.041134708 -0.072489083
-0.18326688 0.044323433 -0.075113662
-0.17541681 0.044341173 -0.073166989
-0.10636248 0.045113809 -0.070932895
-0.017112462 0.04619471 -0.078775547
-0.0031804885 0.046313316 -0.079633728
0.097948506 0.045840796 -0.079948947
0.10187292 0.045349382 -0.074046433
0.1357927 0.044999354 -0.074149638
0.27888459 0.041995093 -0.071794726
-0.31095311 0.051670842 -0.070473239
-0.30498809 0.051949289 -0.072488144
-0.2946842 0.052276358 -0.073368132
-0.17851284 0.055081703 -0.075890891
-0.14002872 0.054242302 -0.077943712
0.037979778 0.056464709 -0.0751734
0.13229895 0.055631161 -0.074345723
0.17564693 0.054802433 -0.070723087
0.18111035 0.054960627 -0.07495001
0.19174951 0.054764003 -0.075030655
0.27974448 0.053071193 -0.078758389
0.29571632 0.052396648 -0.07549978
0.31481186 0.051667679 -0.07215976
-0.23948288 0.042475022 -0.062271569
-0.22374621 0.043062802 -0.067134105
-0.20897433 0.043093171 -0.062887922
-0.19796412 0.043325845 -0.063272566
-0.18423897 0.043612733 -0.063696794
-0.17537692 0.043712884 -0.062532164
-0.14505695 0.045505188 -0.064448625
-0.12177046 0.044546906 -0.064324908
-0.077543601 0.045310915 -0.069035344
-0.069500647 0.044912767 -0.061782528
-0.02414288 0.045353055 -0.066306621
0.0078720246 0.045146398 -0.061764773
0.023323081 0.045375928 -0.066643104
0.034119591 0.045504496 -0.069501057
0.054036859 0.046203114 -0.060058866
0.068019673 0.04761599 -0.062631167
0.073633328 0.047589488 -0.068643823
0.13954158 0.04467712 -0.069966726
0.20485438 0.043345965 -0.065827377
0.26853603 0.045744978 -0.066380434
0.29111722 0.041348085 -0.066379204
0.3062712 0.040692598 -0.062136464
-0.32087797 0.050816976 -0.060551524
-0.31258959 0.05155699 -0.069287449
-0.2775453 0.052037414 -0.061599448
-0.26971382 0.050174963 -0.067919679
-0.24376446 0.052975081 -0.062209859
-0.19305339 0.054370709 -0.069038354
-0.14700347 0.054670401 -0.060984306
-0.1046934 0.055550121 -0.067674384
-0.091914743 0.055552453 -0.065240912
0.041062992 0.055943683 -0.067059636
0.077575766 0.055728883 -0.065785624
0.097303435 0.055631433 -0.067618042
0.11642978 0.05508941 -0.062150188
0.13777536 0.054853611 -0.062298521
0.14562766 0.05200848 -0.064357668
0.24150093 0.053119652 -0.063632682
0.2988117 0.05154537 -0.06287913
0.33737794 0.039462343 -0.057541057
0.34175938 0.039834723 -0.055365309
-0.35180333 0.041753031 -0.050129265
-0.29876643 0.040346026 -0.051793061
-0.23145211 0.042438664 -0.059071779
-0.22663668 0.042090707 -0.050023235
-0.15534286 0.043680899 -0.055806715
-0.12604615 0.043990627 -0.055746451
-0.037904479 0.044466265 -0.050812021
0.016747037 0.044613309 -0.052388623
0.11077315 0.044064347 -0.053391181
0.17940032 0.043331243 -0.057374507
0.2474075 0.041960146 -0.057013012
-0.29733565 0.05138943 -0.059574634
-0.26342392 0.052285716 -0.059427653
-0.19676837 0.053361859 -0.052189369
-0.095592454 0.054999467 -0.056598954
-0.035168882 0.055374034 -0.057058621
-0.022835635 0.055500962 -0.058407057
0.0068754288 0.055370528 -0.054986693
0.032212611 0.055244103 -0.05398155
0.060778435 0.050819095 -0.059850391
0.13123268 0.05455754 -0.056021221
0.15103443 0.054255284 -0.054372579
0.16191326 0.051906034 -0.059816647
0.1710857 0.054036714 -0.056310467
0.24012408 0.052704215 -0.056039695
0.33321661 0.050188899 -0.057094801
-0.45662093 0.03788545 -0.043150716
0.39761364 0.036899105 -0.046575386
0.40044016 0.036684267 -0.043787792
0.41270354 0.036524564 -0.045347188
0.42919707 0.035339516 -0.040461574
0.44402573 0.034797601 -0.042362832
-0.42933667 0.04616246 -0.045632489
-0.40053925 0.040047988 -0.047549419
-0.39608955 0.045345429 -0.046518512
-0.33557826 0.04975269 -0.049266547
-0.27955031 0.040506192 -0.043449398
-0.18480667 0.042650912 -0.044396952
-0.13605851 0.043504849 -0.046991549
-0.12796262 0.043422896 -0.042861171
-0.11825614 0.043574929 -0.043833226
-0.078978136 0.044080839 -0.045395523
-0.019583333 0.044290535 -0.045000352
0.031983651 0.044065513 -0.04079536
0.048556868 0.044171743 -0.044806451
0.070777431 0.044014096 -0.043077961
0.13719603 0.043487124 -0.046879862
0.15858245 0.043016914 -0.041538212
0.16340706 0.043051336 -0.044215206
0.23951085 0.041676514 -0.046029963
0.25432336 0.041302606 -0.046362624
0.40464276 0.047088154 -0.043020189
-0.28452337 0.051235139 -0.049400728
-0.23289396 0.052558944 -0.049490601
-0.22112176 0.05277909 -0.049387939
-0.20470142 0.05300089 -0.047226951
-0.19286473 0.053222332 -0.047125585
-0.17649651 0.053600345 -0.048684314
-0.15131634 0.053977422 -0.047870882
-0.14244865 0.053931195 -0.04437454
-0.11056862 0.05452475 -0.049791329
-0.1012183 0.054426048 -0.044929713
0.05202781 0.054892678 -0.047745798
0.10300058 0.054321416 -0.042937372
0.22253954 0.052711762 -0.048434082
0.23024064 0.052630059 -0.049975861
0.24096665 0.052332655 -0.047864672
0.31639379 0.050309647 -0.047627777
-0.45596194 0.033958245 -0.032526128
-0.43901461 0.034629218 -0.03093731
-0.40938655 0.036094427 -0.038656402
-0.36887166 0.03747483 -0.036684517
-0.33643651 0.038563855 -0.035188824
0.31604618 0.039236993 -0.036045834
0.38288832 0.036893319 -0.032718979
0.42201281 0.035518594 -0.037414588
0.46946427 0.034652557 -0.038118482
-0.46657985 0.044138223 -0.03314402
-0.45739082 0.044689436 -0.038645282
-0.44064429 0.045397155 -0.038760345
-0.43270367 0.045702368 -0.038095672
-0.41228193 0.04641344 -0.033000354
-0.37321433 0.047851067 -0.033331808
-0.27372092 0.040257275 -0.031726111
-0.26496696 0.040539227 -0.033631787
-0.11439722 0.043265779 -0.03440075
-0.062830664 0.043618001 -0.030241672
-0.046101242 0.043764323 -0.033501193
-0.038431186 0.043899067 -0.037436567
0.0063406639 0.043978177 -0.035959225
0.11016712 0.043237865 -0.031395305
0.18737571 0.042161122 -0.031874556
0.20186576 0.042030372 -0.037409306
0.32608303 0.049517132 -0.034598723
0.35471463 0.048497342 -0.033776283
0.36323819 0.04817944 -0.032776825
0.40331402 0.046952486 -0.038486514
0.45301938 0.044763964 -0.035382088
-0.30909282 0.050118696 -0.038496114
-0.28805476 0.050530925 -0.033547476
-0.22466345 0.052046821 -0.031359904
-0.14376719 0.053624053 -0.037464831
-0.023663629 0.0545949 -0.038139101
0.020866383 0.054429859 -0.031901348
0.033580519 0.054438904 -0.03417407
0.041594073 0.054399136 -0.033810277
0.15820166 0.053371023 -0.034241155
0.16771132 0.053382486 -0.039560918
0.17051716 0.053169265 -0.034905124
0.21908242 0.052150317 -0.031243756
0.22711432 0.052064404 -0.033899602
0.26523203 0.051094659 -0.031759419
-0.47533953 0.032891385 -0.022505324
-0.45016402 0.033918913 -0.021363871
-0.43341115 0.034779336 -0.02757974
-0.37900281 0.036892422 -0.027417719
-0.29484263 0.039477274 -0.02319386
0.29431042 0.039472587 -0.022448024
0.39499423 0.036211036 -0.022185367
-0.47511962 0.043528158 -0.023204558
-0.25638971 0.040602893 -0.027107414
-0.23399423 0.041119561 -0.025852283
-0.13153242 0.042874172 -0.026686149
-0.08491873 0.043255016 -0.02066505
-0.054870244 0.043454915 -0.022601169
-0.039294019 0.043603599 -0.026127445
-0.028706634 0.043579653 -0.02358678
-0.0125845 0.043740571 -0.0275144
0.006426814 0.0437617 -0.027421534
0.011499501 0.043619361 -0.0225632
0.07196258 0.043347336 -0.0209262
0.094580367 0.043256901 -0.025105886
0.11076835 0.043090865 -0.025863951
0.14877386 0.04274039 -0.029180003
0.20886818 0.041460767 -0.020416297
0.21289155 0.041460812 -0.023439605
0.27879408 0.040032897 -0.028215652
0.30267519 0.049807902 -0.020411812
0.34111899 0.04868269 -0.022678874
0.37270254 0.047559515 -0.021137342
0.4310959 0.045436028 -0.025594162
-0.29021427 0.050207179 -0.023045566
-0.28212118 0.050459009 -0.024460446
-0.24024162 0.051525 -0.022487521
-0.23567501 0.051571876 -0.02089975
-0.072153598 0.054081138 -0.025852883
-0.04108502 0.0541903 -0.025482964
0.0024660267 0.054366205 -0.026605159
0.020892849 0.054267373 -0.025480485
0.11844537 0.053528138 -0.022510141
0.13545114 0.053508848 -0.029422294
0.18557227 0.052588608 -0.023325114
0.20898753 0.052141964 -0.023315575
-0.4450891 0.034030296 -0.015057833
-0.43755281 0.0343384 -0.014099258
-0.40068516 0.035923541 -0.018546404
-0.3167409 0.038741712 -0.01467125
-0.30100581 0.039177097 -0.016492572
-0.29336897 0.03943165 -0.019840047
0.29345426 0.039423276 -0.019599184
0.3698225 0.036974702 -0.017675515
0.41906697 0.035141617 -0.017343834
-0.45398116 0.044271283 -0.014791928
-0.44412076 0.044741303 -0.01974426
-0.43107796 0.045232899 -0.015632376
-0.36558941 0.04773213 -0.017927352
-0.35775486 0.048003927 -0.018266007
-0.34400725 0.048500787 -0.019413816
-0.18456391 0.041824933 -0.012494823
-0.13230968 0.042616405 -0.013545315
-0.12232088 0.042786658 -0.019069796
-0.10099638 0.042975917 -0.013689475
0.042145789 0.043396674 -0.018129859
0.076213941 0.043198783 -0.010057623
0.10263702 0.043003641 -0.01822025
0.12549362 0.042730357 -0.017819099
0.13658853 0.04258205 -0.015282122
0.14985536 0.042425722 -0.014745026
0.15497328 0.042371351 -0.015242943
0.25061265 0.040492315 -0.012931973
0.34815019 0.048289716 -0.01309232
0.37058085 0.047567766 -0.01858989
0.40856948 0.046179723 -0.015908843
0.47513855 0.043346263 -0.011174321
-0.27502254 0.050497398 -0.018471569
-0.18257931 0.052505892 -0.016409345
-0.15817241 0.052917007 -0.011916568
-0.14110626 0.053172711 -0.018707627
-0.11220339 0.053443506 -0.012009275
-0.086341292 0.053727999 -0.010670769
-0.03916467 0.053966612 -0.012057157
-0.0092303092 0.054173302 -0.019999271
0.07927198 0.05383699 -0.014815692
0.083265513 0.053796526 -0.01463069
0.10136542 0.053567667 -0.012034696
0.11757213 0.053415813 -0.016012561
0.13864347 0.053201638 -0.018738104
0.15037571 0.053060487 -0.01836646
0.19784711 0.052226838 -0.017838104
0.21965933 0.051783308 -0.014551324
0.23718897 0.051415056 -0.010508196
0.2569795 0.051011428 -0.01978006
0.26711169 0.050683148 -0.015460249
-0.34803385 0.037645936 -0.0086336751
-0.29234546 0.039307207 -0.0044977376
-0.27961794 0.039616618 -0.00089652347
0.29854897 0.039131366 -0.0032829132
0.33454663 0.03805913 -0.0027197725
0.34979382 0.037596866 -0.0099793607
0.37306309 0.036767058 -0.0063072043
0.39137119 0.036109697 -0.0028822292
0.41218993 0.035308786 -0.0030366681
0.43471384 0.034345027 -0.00083951309
0.44457516 0.033928566 -0.00052419241
-0.47252637 0.04340614 -0.0053134733
-0.41685832 0.04574386 -0.0055328682
-0.40091434 0.046380684 -0.0017403606
-0.35679761 0.047910232 -0.003306533
-0.34987432 0.04819471 -0.0088522164
-0.31085381 0.049437091 -0.0061257202
-0.2558164 0.040320419 -0.009017976
-0.21004854 0.041292835 -0.0069879405
-0.19089696 0.041638725 -0.0047134454
-0.12611435 0.04261326 -0.0047503384
-0.11459219 0.042755689 -0.006009412
-0.10476454 0.042855643 -0.0045262715
-0.044484936 0.043307487 -0.0086499546
0.01853236 0.043351024 -0.0020907968
0.058998436 0.043228131 -0.0057462282
0.061015695 0.043185927 -0.001664779
0.10780127 0.042797394 -0.0017349273
0.13580155 0.042515352 -0.0062860609
0.15703082 0.042303592 -0.0099886702
0.16230343 0.04221829 -0.0088207982
0.18993774 0.041626174 -0.0010499312
0.23177372 0.040874287 -0.0064534834
0.31643924 0.0492738 -0.0044376096
0.40262899 0.046337001 -0.005067707
0.42521811 0.045382246 -0.0042543309
0.47608548 0.043238401 -0.0031444258
-0.28471929 0.050133407 -0.0059870407
-0.25180975 0.050983138 -0.0025961685
-0.24070917 0.051270507 -0.0015413156
-0.1896532 0.05224029 -0.00088841055
-0.15528966 0.052890003 -0.0047955378
-0.074639827 0.053800113 -0.008343488
-0.033652604 0.053926744 -0.0048486362
0.056504831 0.053811401 -0.0014734705
0.12371372 0.053292662 -0.0097285546
0.14385678 0.052982785 -0.00028667951
0.15800041 0.052830495 -0.001410439
0.25983107 0.050802752 -0.0065935934
0.26055771 0.050800197 -0.0085919043
-0.46443817 0.033172876 0.0098463381
-0.38388416 0.036417101 0.008986895
-0.34144375 0.037839621 0.0049240966
-0.33189064 0.03818661 0.0071799192
0.27886012 0.039652497 0.0029062165
0.31802672 0.038645085 0.0074318037
0.33308673 0.038117357 0.0038355442
0.34335399 0.037808493 0.0090107722
0.37486511 0.036665011 0.0016941843
0.38738415 0.036278933 0.0068567293
0.42252243 0.034849036 0.00010313749
-0.42778242 0.045306817 0.0082001621
-0.4149932 0.045780152 0.00074179424
-0.36467561 0.047670633 0.0071275709
-0.31446347 0.04931999 0.0038156942
-0.20559597 0.04135263 0.004163004
-0.12428633 0.042614881 0.0026126648
-0.068275884 0.043218963 0.009012565
-0.046393588 0.043302875 0.0090676444
-0.033250649 0.043323003 0.0055402238
0.0047388612 0.043422334 0.0044720522
0.17199023 0.04200495 0.0055629574
0.23465574 0.040828947 0.0077447593
0.25196743 0.040385518 0.004701315
0.44078138 0.044716783 0.0029437344
-0.27311963 0.0504186 0.0032467351
-0.21699715 0.051744152 0.0040313099
-0.20781752 0.051886588 0.00016389621
-0.15522781 0.052898299 0.0058501186
-0.12216614 0.053253409 0.0031187551
-0.11478417 0.05331549 0.0004656977
-0.072857797 0.053812776 0.0091842311
-0.033698943 0.0539601 0.0089284815
0.09265212 0.053630814 0.0078533292
0.15133564 0.05292752 0.0040348037
0.18814412 0.052333616 0.0087059448
0.2157288 0.05178472 0.0059760576
0.24639466 0.051147375 0.0050875191
0.26867762 0.050521165 0.0013477287
-0.48099199 0.039774373 0.015523093
-0.37072861 0.036890276 0.011543829
-0.31629604 0.038714632 0.010202268
-0.30463582 0.039089251 0.017720491
-0.29204562 0.039366797 0.010773561
-0.28347683 0.039630614 0.014936576
0.30664331 0.039009139 0.014573109
0.36830899 0.037050139 0.019311214
0.40611604 0.035649788 0.013341781
0.46948326 0.033006273 0.015159795
-0.48099348 0.041267216 0.019071439
-0.47256786 0.043548603 0.019936379
-0.33523846 0.048753221 0.015641261
-0.26049322 0.04021547 0.011532716
-0.21185791 0.041339621 0.016788514
-0.20300284 0.041508365 0.016144596
-0.19034943 0.041770659 0.018873382
-0.16305348 0.042260278 0.015660387
-0.1580115 0.042321358 0.013586503
-0.12709031 0.04268536 0.014593845
-0.11802725 0.042762347 0.011621706
-0.072475642 0.043227155 0.011887624
-0.065074265 0.043287985 0.015759852
-0.027260769 0.043444104 0.017174803
0.067942992 0.043285094 0.016715882
0.075091846 0.043229468 0.01334745
0.10637352 0.042966027 0.019100938
0.19791466 0.041620962 0.018641669
0.22632559 0.041049726 0.01510798
0.26285562 0.04018116 0.014945072
0.2991581 0.049794536 0.011655887
0.32138836 0.049232885 0.016373917
0.36502916 0.047741674 0.016938515
0.39074928 0.046829641 0.013497522
0.41096008 0.046038173 0.011201937
0.4470492 0.04457359 0.017065395
0.47504103 0.043357052 0.012117211
-0.241081 0.051343158 0.011494422
-0.12739748 0.053296447 0.015334079
-0.021525905 0.054058202 0.015044823
-0.0048851431 0.05410669 0.013281264
0.097061537 0.05362647 0.013326363
0.12347064 0.053343289 0.015564129
0.19369005 0.052249506 0.011273528
0.20949709 0.051953979 0.011965971
0.22614878 0.051669713 0.015906455
0.24223334 0.051335219 0.014201909
-0.46195927 0.03340444 0.020746576
-0.37970436 0.036849931 0.026844399
-0.35883981 0.037482377 0.023543201
-0.31546602 0.038913116 0.02280833
-0.30444959 0.039271377 0.025342088
0.28872958 0.039700974 0.025736423
0.29459178 0.039621592 0.028778661
0.3053413 0.039167967 0.022200746
0.31278622 0.039014649 0.023992456
0.36453295 0.037234012 0.021452878
0.47896087 0.033101477 0.02742197
-0.43180448 0.045506578 0.029696802
-0.39494088 0.046946209 0.027209103
-0.37215716 0.047739148 0.027639152
-0.35930806 0.048017573 0.021223688
-0.33965123 0.048719198 0.022285216
-0.2188108 0.041386914 0.025129482
-0.20559919 0.041629031 0.024745256
-0.19211736 0.041887626 0.024810165
-0.12609372 0.042883657 0.024759777
-0.092923753 0.043318141 0.026929535
-0.077404879 0.043375906 0.02302813
-0.035478801 0.043650143 0.027544988
-0.0024651347 0.043620605 0.021405229
0.013993604 0.043741833 0.027930371
0.02345092 0.043618847 0.024497092
0.04897996 0.043480836 0.022891341
0.17455477 0.042228416 0.025049925
0.22977519 0.041094843 0.021853391
0.23390296 0.041139182 0.026711918
0.30531234 0.0499123 0.027463093
0.33441496 0.048890788 0.021963801
0.34886703 0.04854171 0.027763028
0.35219759 0.048282545 0.022048527
0.36493382 0.047896612 0.024069943
0.42379779 0.045776378 0.027095374
0.45320153 0.044436194 0.022911534
-0.29216993 0.050296951 0.02880222
-0.217464 0.051918998 0.021049164
-0.12999678 0.053468041 0.02550781
-0.10240234 0.053756524 0.02443758
-0.080897011 0.054033428 0.025660446
-0.057070315 0.054186445 0.027888641
-0.043379877 0.054277558 0.029422561
-0.032171603 0.054280791 0.027860478
-0.024188805 0.054257873 0.02575101
-0.016411204 0.054231666 0.023541326
-0.0028554904 0.054252598 0.022324983
0.072867267 0.054000758 0.022939291
0.1531982 0.053121425 0.022295021
0.16062266 0.053025566 0.021952411
0.1742387 0.052843809 0.025022041
0.18951574 0.052668326 0.029587442
0.19326442 0.052546497 0.02760144
0.22997585 0.05183595 0.027188387
0.24765795 0.051335093 0.022889987
-0.43417358 0.034953285 0.03586768
-0.40691894 0.035975363 0.031064786
-0.34440982 0.038270291 0.035093974
0.30590844 0.039468851 0.034671374
0.32385272 0.038987458 0.034894746
0.36319983 0.037594691 0.033883251
0.37945291 0.037237212 0.039974362
0.44228345 0.034692794 0.038304307
-0.44258827 0.045175303 0.034488671
-0.43808562 0.04537959 0.035093211
-0.40064812 0.046938431 0.03463015
-0.36298591 0.04818444 0.032787096
-0.35677344 0.048604541 0.039466087
-0.34081784 0.048941899 0.032651115
-0.23575139 0.0411902 0.030117845
-0.19240381 0.042101666 0.033467032
-0.18409231 0.042378049 0.037770268
-0.12019425 0.04337303 0.039734837
-0.10110761 0.0433929 0.033578593
-0.098426305 0.043603905 0.039310861
-0.061912052 0.043635398 0.030944297
0.023064513 0.043859482 0.033944011
0.030876147 0.043753799 0.030946225
0.24857128 0.040979896 0.033904806
0.34649241 0.048716955 0.031460885
0.39588904 0.04715246 0.036173068
0.42989349 0.045762505 0.036637194
0.43715402 0.045355335 0.032597758
0.46633816 0.043624457 0.039755944
-0.16671033 0.053395212 0.039564349
-0.079187125 0.054184459 0.031147014
-0.052959289 0.054289099 0.031323455
0.00034251431 0.054754738 0.039973162
0.069636434 0.0542752 0.033292789
0.13756575 0.053734653 0.038558189
0.15466483 0.053352769 0.032081049
0.23651733 0.051915966 0.035273511
0.26324099 0.05120521 0.034179375
0.29319954 0.050434127 0.035299487
-0.44264024 0.034949377 0.044733383
-0.41992307 0.039647266 0.046798371
-0.39353669 0.036885794 0.043096617
-0.37518257 0.037412968 0.040661499
-0.33210516 0.038935237 0.041694224
-0.29436108 0.039965898 0.040171348
0.32353997 0.039312769 0.043670271
0.35202289 0.038441364 0.046187833
0.39316639 0.036959078 0.044534538
0.4480015 0.037121471 0.044959288
0.46302792 0.036260221 0.041205544
-0.45266098 0.043942183 0.042659055
-0.39398259 0.047567904 0.045168836
-0.33249345 0.049592122 0.043114986
-0.27612084 0.04083208 0.049150877
-0.26288816 0.040957917 0.043768808
-0.20547694 0.042137593 0.041731358
-0.15774861 0.043074459 0.042828832
-0.14072472 0.043430686 0.046653222
-0.13110645 0.043501429 0.045724232
-0.10153515 0.043939538 0.04809197
-0.057560716 0.044309154 0.04902254
-0.011243054 0.044279963 0.044154041
-0.0056674718 0.044332363 0.044891346
0.021845756 0.044463046 0.049445979
0.060575858 0.044314593 0.049422882
0.072545603 0.044216733 0.048185565
0.11880378 0.043767441 0.048690908
0.13039146 0.043293573 0.040612444
0.16654703 0.043162763 0.048423856
0.23742777 0.041780412 0.047703519
0.25589064 0.041360326 0.048873857
0.35356978 0.044967808 0.049535841
0.39312124 0.047489531 0.042613052
0.40519994 0.047090597 0.043785624
0.42674214 0.043105762 0.046516337
0.4619762 0.04308429 0.041631978
-0.2283354 0.052494437 0.04606083
-0.12162025 0.05435906 0.049016364
-0.085048355 0.054517962 0.042887881
-0.067072339 0.054507799 0.040151492
-0.051354501 0.054782428 0.045232706
-0.033435185 0.054707654 0.04184635
-0.024879951 0.05494589 0.046714194
0.012795893 0.054863006 0.043660752
0.026320443 0.054866776 0.044971071
0.067987867 0.054648425 0.043558925
0.10231179 0.054212317 0.040325955
0.12198091 0.054131571 0.043731537
0.15342399 0.05387859 0.046255924
0.16568741 0.053600378 0.043959036
0.22702397 0.052360967 0.042310327
0.23632146 0.052115228 0.040690567
0.25956693 0.051901635 0.049564864
0.32696897 0.039955657 0.059993807
-0.2571502 0.046725776 0.059585467
-0.23886567 0.041981608 0.053117737
-0.1209695 0.044274583 0.059719853
-0.082724787 0.044630282 0.058339704
-0.058456935 0.04930206 0.059698619
-0.0066871298 0.044707395 0.053862371
0.0040864311 0.044748157 0.054518394
0.024370385 0.044561312 0.051999066
0.047157317 0.044820536 0.05893489
0.052130096 0.044535305 0.053884126
0.071726777 0.044633172 0.057350371
0.096575707 0.044217378 0.053324729
0.10775746 0.044336528 0.058214463
0.11955155 0.044199042 0.05816941
0.12169699 0.043802846 0.050312132
0.13785698 0.043925945 0.057092048
0.14348277 0.043794982 0.055963896
0.16820773 0.043204613 0.050163891
0.18325147 0.042974927 0.051518187
0.24834944 0.041829389 0.055212531
-0.32502574 0.050346803 0.054451663
-0.31888521 0.050375793 0.050921988
-0.26363671 0.051912431 0.052391261
-0.19745652 0.053703465 0.059333108
-0.16359968 0.053916868 0.050508693
-0.089646578 0.055130739 0.057822701
-0.057638299 0.053751078 0.055055428
0.045867924 0.055472437 0.059567619
0.094907172 0.054922979 0.055131141
0.13854355 0.054369427 0.053845659
0.2200788 0.053040996 0.055269208
0.24639125 0.052310798 0.050926805
0.25848639 0.052127004 0.054216001
0.26673436 0.051848862 0.052842908
-0.30177021 0.040804844 0.062158726
-0.28293869 0.04171519 0.069048747
-0.24101564 0.046294361 0.065543488
-0.23635143 0.042648595 0.064348824
-0.21547571 0.043379184 0.069970161
-0.19425228 0.043235417 0.060699813
-0.17948075 0.043652806 0.062992662
-0.16656414 0.047637917 0.062303439
-0.1501404 0.045427486 0.061187357
-0.12565616 0.044760928 0.068851762
-0.095419176 0.044772487 0.063198105
-0.053208657 0.044934075 0.060438868
-0.0090472102 0.045067124 0.060652617
0.047873221 0.048255209 0.063172996
0.14428376 0.04468355 0.06560991
0.17115185 0.045666873 0.065971687
0.1869335 0.04365024 0.06535022
0.21050064 0.042970859 0.061462771
0.23983857 0.046947263 0.067076772
0.24360877 0.047132462 0.063542947
0.29349059 0.041084707 0.063155182
0.32644758 0.040063471 0.061513871
-0.28785267 0.052180756 0.068826102
-0.26627553 0.052256934 0.060384385
-0.23723274 0.053461738 0.068065502
-0.21014866 0.054004442 0.068509966
-0.19649252 0.054137751 0.066358984
-0.12046783 0.055144183 0.06401471
-0.10731129 0.055087209 0.060504887
-0.092217445 0.055270243 0.06067989
-0.072915643 0.055641342 0.064604893
-0.049523383 0.054303501 0.061964992
-0.036746323 0.055638339 0.061782934
0.026721567 0.055845782 0.064636663
0.034548312 0.055600174 0.060991533
0.043096837 0.055893097 0.066493385
0.14318989 0.054724094 0.061308559
0.19165127 0.054028213 0.062949665
0.22339708 0.053648502 0.066764288
-0.40849444 -0.023379128 0.079882704
0.40461648 -0.026503833 0.079835378
-0.11237971 0.045191772 0.073568754
0.0008838416 0.046256393 0.078923732
0.079857729 0.045396008 0.070773035
0.18911259 0.043947123 0.07107316
0.19311321 0.044282224 0.077209771
0.20592031 0.043572608 0.070159473
0.2823011 0.041998401 0.073544838
0.32572895 0.040800624 0.073547028
-0.3152217 0.051973693 0.076933444
-0.27814931 0.052860867 0.07559222
-0.19147494 0.055033769 0.078660227
-0.17442942 0.05114549 0.071949691
-0.097461239 0.055895284 0.072266072
0.017760431 0.056469232 0.074549064
0.027478332 0.056693245 0.077980101
0.075328954 0.051458277 0.073149778
0.097063556 0.056062926 0.074877582
0.12589408 0.055651277 0.073637746
0.28358817 0.052799989 0.076700598
0.3065837 0.052357785 0.078954771
0.39624089 -0.031690419 0.085151501
0.40043828 -0.035631463 0.085340001
0.39068475 -0.02548968 0.083167918
0.40261883 -0.02614923 0.084092811
0.40068698 -0.016739096 0.081284508
-0.2918016 0.042389683 0.082197919
-0.27530712 0.043597594 0.083862178
-0.23092934 0.044103831 0.084333122
-0.14050332 0.046082631 0.089668281
-0.13528758 0.04571975 0.084124058
-0.12973492 0.045670714 0.082646266
-0.11213934 0.046292536 0.088166721
-0.10564845 0.046198383 0.085954785
-0.080345899 0.046207342 0.082270861
-0.0083811497 0.046659712 0.084598273
0.01078066 0.04635217 0.080679439
0.1296013 0.045557912 0.081144594
0.2148965 0.044301681 0.082921848
0.27325034 0.043279834 0.087387338
0.32068947 0.04785078 0.083219171
-0.29282522 0.053433619 0.088255167
-0.27171451 0.05368289 0.084133118
-0.22137684 0.055010922 0.085844845
-0.098782733 0.0567168 0.083721839
-0.029476808 0.05741863 0.087609351
0.0036396848 0.057635702 0.089167863
0.075421035 0.05350852 0.080848232
0.093934841 0.057116192 0.088237904
0.19828787 0.055385318 0.084984317
0.21733788 0.055380974 0.089693412
-0.40096104 -0.023160996 0.09698642
-0.4036926 -0.016872117 0.096670158
-0.39833826 -0.017752985 0.098255619
-0.29675782 0.04339987 0.096415557
-0.2654697 0.047709145 0.09050788
-0.24241203 0.044605415 0.093783498
-0.17719588 0.0458211 0.093343854
-0.16466767 0.046532828 0.098411605
-0.14503431 0.046602055 0.096396282
-0.13062444 0.046959996 0.098470345
-0.11585294 0.047232211 0.099578649
-0.10214392 0.046612516 0.090865724
-0.038131524 0.047325708 0.094482705
0.0084220301 0.047575444 0.095950618
0.075800419 0.046925128 0.091455758
0.081608251 0.047171839 0.094610125
0.112428 0.047033396 0.097021371
0.13879992 0.046872474 0.098532401
0.14323464 0.046330709 0.093261711
0.15068498 0.046737261 0.094918817
0.21757194 0.045615252 0.099392302
0.24465139 0.044520207 0.093511105
0.25117803 0.049743287 0.094166003
0.28559756 0.044021308 0.099889085
0.30317914 0.043107763 0.095117092
0.3147957 0.048854597 0.090917297
-0.28953832 0.054164492 0.096004814
-0.27207673 0.054181449 0.090808123
-0.26460865 0.052796509 0.091168433
-0.24279737 0.055306681 0.094875857
-0.19264135 0.056692246 0.099303842
-0.18049774 0.056616619 0.096008107
-0.1238255 0.056975231 0.090877332
-0.090397909 0.057382446 0.091203898
-0.060737185 0.055266343 0.09469714
-0.039891437 0.058333341 0.09882538
0.10123178 0.057698648 0.096196316
0.12466482 0.057297811 0.094688892
0.20719184 0.055623818 0.090343572
0.22061914 0.055512369 0.092240855
0.24054916 0.052967723 0.091842368
0.27586269 0.054597177 0.096734233
-0.24523889 0.045608651 0.1053626
-0.15432096 0.047146425 0.10338052
-0.12038338 0.047639597 0.10450868
-0.08160805 0.048400152 0.10791361
-0.041308995 0.048259683 0.1046402
0.0070356117 0.048312344 0.10380331
0.016844437 0.048410848 0.10526098
0.091977701 0.047608916 0.10068825
0.10536246 0.04794658 0.10595911
0.15962228 0.047584806 0.10873709
0.19444218 0.046326727 0.10229877
0.22021186 0.046256643 0.10681833
0.23084916 0.046110988 0.10743099
0.24057385 0.045783132 0.10369177
0.25485849 0.045273326 0.10451917
0.26576647 0.045647394 0.10714487
0.28652135 0.046472661 0.10517317
-0.27275217 0.055510327 0.10564179
-0.25520805 0.050488375 0.10873127
-0.22401556 0.056265295 0.10113875
-0.21764192 0.05704857 0.10824172
-0.18632656 0.057607859 0.10783856
-0.052762959 0.059296709 0.10969664
-0.046391368 0.059317969 0.1096639
-0.03864596 0.059024543 0.10619599
0.018188577 0.059244663 0.10771995
0.044092558 0.059127536 0.10752355
0.052924838 0.058449201 0.10059947
0.080861263 0.058516935 0.10252619
0.18943454 0.056919992 0.10109229
0.21773919 0.056531012 0.10270704
0.25177872 0.050887123 0.10900164
0.27719793 0.052217782 0.10680644
-0.17215952 0.049120925 0.11060143
-0.12801273 0.048147745 0.11090058
0.060534835 0.048833512 0.1112759
0.2083433 0.046804652 0.1102705
0.23886432 0.046375923 0.11001996
-0.15720558 0.051370155 0.11072677
-0.11470326 0.05685116 0.11108301
-0.077804632 0.052593946 0.11123735
-0.045541871 0.054863211 0.11130936
0.0076216725 0.053152561 0.11139399
0.043405771 0.052726202 0.11131412
0.075083584 0.051463272 0.11124343
0.16387165 0.056210667 0.11067091
0.19858071 0.050811529 0.11037999
0.20952773 0.053259745 0.11028823
