# .PCD v0.7 - Point Cloud Data file format
VERSION 0.7
FIELDS x y z
SIZE 4 4 4
TYPE F F F
COUNT 1 1 1
WIDTH 919
HEIGHT 1
VIEWPOINT 0 0 0 1 0 0 0
POINTS 919
DATA ascii
-0.23952892 0.082469098 -0.19003479
-0.10853886 0.082469106 -0.19073616
-0.22332902 0.082469098 -0.18934821
-0.19344924 0.082469106 -0.18085176
-0.15431845 0.082469098 -0.18670386
-0.13479038 0.082469098 -0.18017143
-0.037248097 0.082469098 -0.18258646
-0.011237398 0.082469098 -0.18316513
0.084470361 0.082469098 -0.18063898
0.23479271 0.082469098 -0.18480664
-0.32759321 0.082469098 -0.17736259
-0.30786288 0.082469091 -0.17918886
-0.1309634 0.082469098 -0.17877847
0.0014236718 0.082469098 -0.17659226
0.015567079 0.082469091 -0.17848884
0.06284599 0.082469098 -0.17053734
0.15426901 0.082469098 -0.17218365
0.20160711 0.082469091 -0.1707454
0.23076439 0.082469098 -0.17709783
0.24255899 0.082469098 -0.17905003
0.26468685 0.082469098 -0.17488112
0.29666477 0.082469098 -0.1711598
0.30987632 0.082469098 -0.17440125
0.32961047 0.082469098 -0.1790739
0.33191746 0.082469098 -0.17608933
-0.31165397 0.082469098 -0.16036695
-0.29950142 0.082469098 -0.1677195
-0.1632511 0.082469098 -0.16526674
-0.14581206 0.082469098 -0.16401914
-0.13472217 0.082469098 -0.16732655
-0.096313328 0.082469098 -0.16544518
0.0065339208 0.082469106 -0.16722305
0.025579859 0.082469098 -0.1679596
0.031919628 0.082469091 -0.16152549
0.062541708 0.082469098 -0.16128032
0.074832454 0.082469091 -0.16682726
0.10659213 0.082469106 -0.16839963
0.1191128 0.082469098 -0.16487265
0.12641776 0.082469098 -0.16493234
-0.3663719 0.082469106 -0.15443271
-0.34691119 0.082469098 -0.1523542
-0.22260989 0.082469098 -0.15679143
-0.20611757 0.082469098 -0.15871783
-0.18830907 0.082469098 -0.15345377
-0.15069546 0.082469098 -0.15540102
-0.1064916 0.082469098 -0.15539847
-0.097466588 0.082469106 -0.15265109
0.11019116 0.082469098 -0.15264255
0.14534301 0.082469098 -0.15622312
0.223864 0.082469098 -0.15080377
0.23036014 0.082469098 -0.15353644
0.2512123 0.082469098 -0.15306538
0.28465658 0.082469091 -0.15879734
0.34513256 0.082469098 -0.15522778
-0.25637668 -0.079713821 -0.14541632
-0.28796598 -0.062650636 -0.147387
-0.26822609 -0.051007137 -0.147387
-0.3131831 -0.043696884 -0.14148721
-0.31443977 -0.03579852 -0.147387
-0.2074838 -0.036506791 -0.147387
-0.29298645 -0.020267745 -0.147387
-0.28617829 -0.02841839 -0.147387
-0.26351398 -0.021627868 -0.147387
-0.21606974 -0.026480913 -0.147387
-0.1989515 -0.022199929 -0.147387
-0.30384719 -0.00068089028 -0.147387
-0.29571506 -0.00056444266 -0.147387
-0.28048986 -0.0077632312 -0.147387
-0.27047184 0.009522371 -0.147387
-0.24727914 0.0092100613 -0.147387
-0.21376199 0.007210915 -0.147387
-0.29006931 0.010916417 -0.147387
-0.2289405 0.010047861 -0.147387
-0.24098253 0.023370035 -0.147387
-0.25440943 0.037569296 -0.147387
-0.28429788 0.041695245 -0.147387
-0.24286105 0.047744408 -0.147387
-0.26891974 0.050929107 -0.147387
-0.33409923 0.082469098 -0.1494759
-0.30461949 0.082469098 -0.14605054
-0.26284224 0.082469098 -0.14699648
-0.24990176 0.082469098 -0.14948514
-0.17545892 0.082469098 -0.14848518
-0.1043463 0.082469091 -0.14188093
-0.036420837 0.082469098 -0.14838848
0.14827445 0.082469098 -0.14017259
0.21848993 0.082469098 -0.14794937
0.22718245 0.082469091 -0.14048983
0.30297667 0.082469098 -0.14321391
0.32584056 0.082469098 -0.1452757
0.34653866 0.082469098 -0.1454314
-0.27445602 -0.076472342 -0.13897936
-0.26251438 -0.079627171 -0.13773397
-0.31981143 -0.024944574 -0.13893747
-0.18700621 -0.024511971 -0.13772731
-0.20695888 0.036209218 -0.1382736
-0.28303248 0.048193015 -0.13704216
-0.32392204 0.082469098 -0.13026223
-0.29485017 0.082469098 -0.13725525
-0.23483101 0.082469098 -0.13746196
-0.15037736 0.082469098 -0.13716964
-0.015608005 0.082469098 -0.13811728
0.020639315 0.082469098 -0.135341
0.033616811 0.082469098 -0.1310223
0.047865547 0.082469106 -0.13734029
0.083973035 0.082469098 -0.13187045
0.12930185 0.082469091 -0.13276273
0.21763849 0.082469098 -0.13290954
0.30974567 0.082469098 -0.13163857
-0.2632044 -0.079617426 -0.1279043
0.19340232 -0.076872781 -0.12459231
0.21127027 -0.072255656 -0.126121
0.17462385 -0.065745123 -0.126121
0.18652754 -0.059343833 -0.126121
-0.31427526 -0.041742206 -0.12416987
0.17092767 -0.041851662 -0.126121
0.21668264 -0.045256242 -0.126121
0.26569006 -0.046257228 -0.12612098
-0.31576994 -0.039067086 -0.12716627
0.16957945 -0.030091755 -0.126121
0.23437044 -0.030944858 -0.126121
0.15423283 -0.027386602 -0.126121
0.19550923 -0.025252666 -0.126121
0.20869367 -0.020354394 -0.126121
0.26483411 -0.023199707 -0.126121
0.2001349 -0.001031421 -0.126121
0.25249696 -0.0065914639 -0.126121
0.18478408 0.01239912 -0.126121
0.17787877 0.032771189 -0.126121
0.21221542 0.036916412 -0.126121
0.18301064 0.043541402 -0.126121
-0.32516479 0.082469098 -0.12406284
-0.29061005 0.082469098 -0.12372984
-0.19523798 0.082469098 -0.12531985
-0.16391626 0.082469106 -0.12284515
-0.13059747 0.082469098 -0.12497652
-0.12553184 0.082469091 -0.1290103
-0.11621252 0.082469098 -0.12981859
-0.10776569 0.082469098 -0.12464598
-0.077047177 0.082469098 -0.12160926
-0.024228774 0.082469098 -0.12413619
0.063908756 0.082469106 -0.12359817
0.084291905 0.082469091 -0.12656575
0.12009571 0.082469098 -0.12685503
0.15062785 0.082469098 -0.12691988
0.23441903 0.082469098 -0.12682194
0.2973575 0.082469098 -0.12646021
0.33936164 0.082469098 -0.12982503
0.3628225 0.082469098 -0.12452395
-0.28625432 -0.071300879 -0.11455045
-0.27114993 -0.077408373 -0.11341093
0.23348239 -0.076661304 -0.11116379
-0.20837837 -0.062403806 -0.11500619
-0.19940025 -0.053061925 -0.11663784
-0.19726318 -0.049478415 -0.11821264
0.27052474 -0.047224857 -0.11077741
-0.18622565 -0.012369885 -0.11177693
-0.23766936 0.053026348 -0.11254019
0.2036797 0.054662209 -0.11560431
-0.3562912 0.082469106 -0.11721046
-0.31706142 0.082469098 -0.11129876
-0.28037721 0.082469091 -0.11750123
-0.25915831 0.082469091 -0.11548366
-0.22950342 0.082469091 -0.11747794
-0.097541802 0.082469098 -0.11943699
-0.072885253 0.082469098 -0.11362828
-0.020703614 0.082469098 -0.11779512
0.084405296 0.082469098 -0.1136073
0.1115806 0.082469098 -0.1104417
0.12689295 0.082469098 -0.11561549
0.25432894 0.082469098 -0.1154272
0.35562322 0.082469098 -0.11287536
-0.27311835 -0.076851062 -0.10768766
-0.30160525 -0.059563473 -0.10706453
0.15149799 -0.040542081 -0.10650121
0.27652323 -0.034806184 -0.10527791
0.14558308 -0.012363467 -0.1014896
0.28017893 -0.0151628 -0.10056759
-0.18619199 -0.0099834912 -0.10273392
-0.30951852 0.025121076 -0.10623478
-0.30245841 0.033888198 -0.10721863
0.21102883 0.054908022 -0.10477316
-0.41045231 0.082469098 -0.1033956
-0.38390106 0.082469106 -0.1073903
-0.36966655 0.082469098 -0.10391346
-0.064575195 0.082469098 -0.10839542
-0.055031899 0.082469098 -0.10143489
-0.025697261 0.082469098 -0.10581414
-0.013799533 0.082469098 -0.10247605
-0.0028202385 0.082469098 -0.10528226
0.067531958 0.082469098 -0.10766015
0.091086969 0.082469098 -0.10084547
0.20592301 0.082469098 -0.1002458
0.28927296 0.082469098 -0.10404517
0.3848533 0.082469098 -0.10536402
-0.25944874 -0.079670459 -0.093203388
0.20865871 -0.079693943 -0.092346661
0.25582534 -0.064581729 -0.093446985
-0.30832821 -0.052021615 -0.096052758
0.15444803 -0.045822561 -0.095709078
0.14830977 0.0065183886 -0.093194619
-0.19828022 0.026654875 -0.090780251
-0.30584532 0.030595522 -0.099168211
-0.29006183 0.044265918 -0.090550028
0.17421317 0.043054145 -0.09341152
0.20782366 0.054953277 -0.091036543
-0.42206103 0.082469098 -0.098387405
-0.17451352 0.082469098 -0.095453128
-0.063648954 0.082469098 -0.094152033
0.023083881 0.082469098 -0.098701485
0.12780848 0.082469098 -0.091691434
0.19735855 0.082469098 -0.091943979
0.30080098 0.082469098 -0.094375983
0.3525472 0.082469098 -0.095116049
0.38677678 0.082469098 -0.094280601
-0.22587122 -0.074079454 -0.082182623
0.22804368 -0.078036472 -0.086584866
0.14560893 -0.010536782 -0.086243145
0.14854853 0.0073617315 -0.087997429
0.15000352 0.012500941 -0.083757281
0.26239777 0.033213183 -0.08944793
-0.26151606 0.054785009 -0.086077064
-0.24428365 0.054750875 -0.086672179
0.21243888 0.054888118 -0.087853856
-0.40960243 0.082469091 -0.086595714
-0.34357709 0.082469106 -0.083064839
-0.29324949 0.082469098 -0.086643368
-0.2685585 0.082469091 -0.08689265
-0.18438612 0.082469106 -0.085569844
-0.044027835 0.082469098 -0.081394017
0.13853121 0.082469091 -0.082461551
0.15838352 0.082469106 -0.084248252
0.20558941 0.082469106 -0.089261234
0.2375007 0.082469098 -0.082511425
0.26599908 0.082469098 -0.081826791
0.39289308 0.082469098 -0.086081117
0.4039917 0.082469098 -0.088043392
-0.27090567 -0.071617365 -0.074326098
-0.27109757 -0.064861998 -0.074326098
-0.26377448 -0.065277189 -0.074326098
-0.22180465 -0.063627318 -0.074326098
-0.28768376 -0.050060652 -0.074326098
-0.24135815 -0.057339907 -0.074326098
-0.27820107 -0.044577491 -0.074326098
-0.25746855 -0.047131509 -0.074326098
-0.2209812 -0.040178873 -0.074326098
0.15435548 -0.045656897 -0.076670319
-0.27276927 -0.03882248 -0.074326098
-0.26424032 -0.037755735 -0.074326098
-0.29101872 -0.027278287 -0.074326098
-0.28364694 -0.028145207 -0.074326098
-0.27557361 -0.026754495 -0.074326098
-0.25910056 -0.020617906 -0.074589901
-0.2230171 -0.02740128 -0.074326098
0.27795339 -0.029754948 -0.072224267
-0.30466592 -0.010699639 -0.074326098
-0.27372104 -0.01391576 -0.074589901
-0.26244941 -0.014268674 -0.074589901
-0.30293411 -0.004686418 -0.074326098
-0.24718142 0.0020676022 -0.074458003
-0.23537014 0.0032232977 -0.074326098
-0.22233777 0.0061726365 -0.074326098
-0.20397756 0.0076715737 -0.074326098
-0.30160019 0.011649976 -0.074326098
-0.25647202 0.01195121 -0.074326098
-0.23709434 0.019071566 -0.074326098
0.27516511 0.014122635 -0.077337533
-0.28114447 0.029654903 -0.074326098
-0.20878068 0.020049661 -0.074326098
-0.28748006 0.031672943 -0.074326098
-0.26114026 0.030064013 -0.074326098
-0.24768376 0.031686373 -0.074326098
-0.22495206 0.039514434 -0.074326098
-0.20865595 0.037954915 -0.07634557
-0.29397383 0.042080373 -0.076621383
0.17466988 0.04330929 -0.079809517
0.19990654 0.053708069 -0.077730745
-0.27015835 0.082469098 -0.073899791
-0.062639959 0.082469098 -0.070784457
-0.054241903 0.082469098 -0.079298265
0.024673548 0.082469098 -0.074037299
0.072849996 0.082469098 -0.074162051
0.089995682 0.082469098 -0.075423755
0.19249658 0.082469106 -0.076872475
0.3483389 0.082469098 -0.07659106
0.3512705 0.082469098 -0.072663218
0.20598315 -0.079656169 -0.064495154
0.22213858 -0.079529569 -0.061251428
0.14550135 -0.018133622 -0.068004496
-0.28836301 -0.0073327157 -0.062701777
0.27977118 -0.0023196561 -0.064648338
-0.28836301 0.004713296 -0.06767258
0.15615715 0.023832586 -0.06336119
0.18287155 0.047891352 -0.06650161
0.23489562 0.051293075 -0.063406527
-0.44118106 0.082469098 -0.066753551
-0.34680471 0.082469106 -0.066849634
-0.25513053 0.082469098 -0.068574779
-0.06805896 0.082469098 -0.069627739
-0.03293936 0.082469098 -0.060159355
-0.0013239086 0.082469098 -0.062926002
0.0028750375 0.082469106 -0.066971302
0.024057597 0.082469098 -0.065964974
0.074064381 0.082469098 -0.066071361
0.28807822 0.082469106 -0.062514096
0.22465464 -0.065642729 -0.053059701
0.23497713 -0.063099816 -0.053059705
0.23450898 -0.054534458 -0.053059701
0.26003447 -0.051222034 -0.053059701
0.15908968 -0.042404704 -0.053059705
0.22653151 -0.046197072 -0.053059697
0.27076209 -0.045157347 -0.053059701
0.18999389 -0.03519211 -0.053059701
0.19744663 -0.030193903 -0.0517102
0.24620619 -0.030400824 -0.053059701
0.26949665 -0.032781169 -0.053059701
0.27477378 -0.033156194 -0.053059701
0.22523959 -0.024430558 -0.053059701
0.24616729 -0.011173414 -0.053059701
0.25676739 -0.015324733 -0.053059697
0.20490564 -0.008990759 -0.056200601
0.23561901 -0.002432005 -0.051132433
0.25287312 -0.0064148498 -0.053059701
0.16600053 0.0077194613 -0.053059705
0.18852252 0.0021805293 -0.053059701
0.19193 0.00061807409 -0.051598884
0.22542885 0.001640291 -0.056200601
0.27084324 0.0092788525 -0.053059701
0.22672158 0.014459635 -0.053059701
0.25360522 0.012092774 -0.053059701
0.26438186 0.018439064 -0.053059705
0.23565623 0.02045707 -0.053059701
0.25235456 0.039558824 -0.053059701
0.23822568 0.050350253 -0.053285647
-0.42332429 0.082469098 -0.059522629
-0.40715897 0.082469098 -0.059797775
-0.16834034 0.082469098 -0.055257995
-0.14339167 0.082469098 -0.051260307
-0.035528764 0.082469098 -0.058357708
0.018370941 0.082469098 -0.053899929
0.037637353 0.082469106 -0.05185027
0.096483484 0.082469091 -0.056782693
0.16964075 0.082469098 -0.057696443
0.31523865 0.082469098 -0.052073058
0.35900983 0.082469098 -0.052031793
0.44100797 0.082469106 -0.053944893
-0.28015456 -0.0282089 -0.04378061
-0.2742492 -0.0282089 -0.044484898
0.22823691 0.0134948 -0.040856421
-0.41476756 0.082469098 -0.04278798
-0.40648103 0.082469098 -0.042217266
-0.36703518 0.082469091 -0.042868495
-0.27541944 0.082469098 -0.04447541
-0.20269622 0.082469098 -0.044939548
-0.15380234 0.082469098 -0.047586106
-0.081302553 0.082469098 -0.042326678
0.057655569 0.082469098 -0.043479182
0.12372515 0.082469098 -0.041044917
0.18858759 0.082469098 -0.04614057
0.20601723 0.082469106 -0.048948683
0.2225735 0.082469106 -0.04650056
0.2785821 0.082469098 -0.043651417
0.28122541 0.082469098 -0.048075039
0.32683513 0.082469098 -0.041005827
0.3373608 0.082469091 -0.047131762
0.34975553 0.082469098 -0.049323041
0.42695767 0.082469098 -0.045359477
-0.24668398 -0.0048106471 -0.031519547
0.20912711 0.013494799 -0.03858678
-0.33662665 0.082469098 -0.034381472
-0.29733515 0.082469098 -0.03909808
-0.24384204 0.082469098 -0.030884895
-0.17706984 0.082469098 -0.039237767
-0.1628883 0.082469098 -0.03893289
-0.11160085 0.082469098 -0.031196656
-0.025614649 0.082469098 -0.033981226
0.049512863 0.082469098 -0.03648942
0.062219977 0.082469091 -0.036766026
0.13412212 0.082469098 -0.03582035
0.42438096 0.082469098 -0.036665328
0.2293828 -0.030193901 -0.026778162
0.20779563 0.013494799 -0.029992923
-0.34609857 0.082469098 -0.020088926
-0.099426202 0.082469098 -0.028837848
-0.055690173 0.082469098 -0.028360248
0.026741877 0.082469098 -0.025051482
0.055629469 0.082469106 -0.023489144
0.064256154 0.082469098 -0.028003778
0.088372231 0.082469098 -0.027858455
0.11770938 0.082469098 -0.02760078
0.14469485 0.082469098 -0.02668733
0.23010205 0.082469098 -0.023238169
0.24632502 0.082469106 -0.024622507
0.2527526 0.082469098 -0.021086469
0.28065318 0.082469098 -0.025615253
0.19437711 -0.030193901 -0.011392336
-0.25115633 -0.0282089 -0.01701336
-0.28836301 -0.011154395 -0.010304401
-0.24668401 -0.0059878598 -0.013988242
-0.28836301 0.0063124858 -0.014529945
0.19205016 0.0134948 -0.019650625
0.20311999 0.0134948 -0.010866289
-0.246684 0.022212761 -0.013087967
-0.28115675 0.035458315 -0.018647701
-0.24668398 0.038626157 -0.015627649
-0.25074658 0.040654968 -0.018647701
-0.24668401 0.044486396 -0.016225142
-0.28836301 0.05312261 -0.011340084
-0.37712759 0.082469098 -0.018369369
-0.34102088 0.082469098 -0.013746977
-0.25678322 0.082469098 -0.01365599
-0.16911092 0.082469098 -0.010360111
-0.064339809 0.082469098 -0.01956078
-0.015394681 0.082469098 -0.016573377
-0.0011414351 0.082469098 -0.012191684
0.25622895 0.082469098 -0.015543878
0.26571265 0.082469098 -0.019310987
0.3758319 0.082469098 -0.018846907
-0.27409208 -0.0282089 -0.00071165338
-0.25466123 -0.0282089 -0.0061168075
0.19193 0.023448488 -0.0044443696
0.20510456 0.021445118 -0.0077750105
0.23561899 0.028627466 -0.0018016496
0.21761338 0.04360852 -0.0077750105
0.20546389 0.053578503 -0.0077750105
-0.24668398 0.060124204 -0.0043154121
0.19646671 0.068328768 -0.0077750101
0.23561899 0.066125035 -0.00042380241
-0.27023152 0.078654297 -0.0094848722
-0.31711712 0.082469106 -0.0024868399
-0.28642184 0.082469098 -0.0044862349
-0.2750667 0.082469098 -0.005082312
-0.26263878 0.082469098 -0.0096350759
-0.25118425 0.082469091 -0.0037463978
-0.17907673 0.082469098 -0.0068933442
-0.16554007 0.082469098 -0.0025292486
-0.10516895 0.082469098 -0.00031587295
-0.016449509 0.082469098 -0.0081347087
-0.00020125508 0.082469098 -0.0072106272
0.20247233 0.081427701 -0.0061080814
0.21926939 0.08142148 -0.0066310931
0.31016144 0.082469098 -0.00067154132
0.32145065 0.082469106 -0.0064905323
0.39020878 0.082469098 -0.007962808
0.43601179 0.082469098 -0.009512838
0.23561898 -0.011858789 0.0027674332
-0.246684 0.008452177 0.0053106137
-0.28836301 0.026198734 0.0013403635
0.23561901 0.024264053 0.0049112379
-0.28836301 0.047459505 0.0026607281
-0.246684 0.078573525 0.0034795003
-0.43763828 0.082469098 0.0093329921
-0.41654634 0.082469098 0.0096692294
-0.34619951 0.082469098 0.00026678108
-0.33753258 0.082469098 0.0034194142
-0.31956953 0.082469098 0.005671028
-0.25208935 0.082469098 0.0068865716
0.028935842 0.082469098 0.0073619522
0.092530578 0.082469098 0.0095829591
0.13282298 0.082469106 0.0069499686
0.40636632 0.082469106 0.0057890303
0.20649917 -0.030193901 0.013590451
0.21183951 -0.030193901 0.013343249
0.22263975 -0.030193901 0.010735372
-0.26867315 -0.0282089 0.01953424
-0.25742558 -0.0282089 0.019125137
-0.24668401 -0.01638272 0.017328469
-0.246684 0.031825788 0.018527592
0.19193 0.032746807 0.010945169
-0.246684 0.069970414 0.016296629
-0.28836301 0.075505242 0.015111022
-0.36855111 0.082469098 0.019142419
-0.35234141 0.082469098 0.014777273
-0.31531686 0.082469098 0.012674982
-0.23686811 0.082469098 0.017655291
-0.094541237 0.082469098 0.016577862
0.14791346 0.082469098 0.014980427
0.16437666 0.082469098 0.011101158
0.1887006 0.082469098 0.019993497
0.19143012 0.082469098 0.019751571
0.3197225 0.082469098 0.016286768
0.32976791 0.082469098 0.016482383
0.39324674 0.082469098 0.014574394
0.22536352 -0.030193901 0.024293946
-0.28674251 -0.024134859 0.023642529
-0.27575707 -0.0282089 0.021872051
0.23561899 -0.022933606 0.021635681
0.19193 -0.013277622 0.028646821
0.23561898 -0.00017341506 0.023652114
0.23561899 0.0077730501 0.026102819
0.19193 0.014865629 0.022962524
-0.27838138 0.025350686 0.023031201
-0.25323743 0.025543392 0.023031197
0.21682677 0.020568699 0.029758001
-0.27574351 0.046843056 0.023031199
-0.25237039 0.048026901 0.023031199
0.20468771 0.04565005 0.029758001
0.22787651 0.055107236 0.029757999
0.19963205 0.066648252 0.029758003
0.21281368 0.064003058 0.029758003
-0.28415141 0.073291503 0.023031199
-0.25462046 0.078650139 0.023031199
0.23561899 0.074031308 0.027178766
-0.29744613 0.082469098 0.026792973
-0.21813765 0.082469098 0.020380571
-0.041534379 0.082469091 0.021166448
0.010731183 0.082469098 0.024347365
0.036564041 0.082469098 0.021064358
0.056086056 0.082469098 0.02654108
0.15312865 0.082469106 0.024045097
0.26957998 0.082469098 0.02352652
0.29378536 0.082469098 0.020110074
0.32930726 0.082469098 0.024096439
0.33437765 0.082469098 0.029824745
0.34113225 0.082469106 0.021818724
0.36353043 0.082469098 0.024508364
0.44493696 0.082469098 0.028640777
0.2286818 -0.030193899 0.033864476
-0.28836301 -0.014462275 0.030550096
0.23561901 -0.018034294 0.034270745
-0.28836301 0.0037089535 0.03610244
-0.43638954 0.082469098 0.033506721
-0.38477302 0.082469091 0.033274624
-0.3048591 0.082469098 0.038168516
-0.29773587 0.082469098 0.032284856
-0.19291547 0.082469106 0.035335656
-0.074976504 0.082469098 0.031928793
-0.0075585544 0.082469098 0.033340968
0.043435119 0.082469098 0.031204619
0.15613931 0.082469098 0.034930561
0.23634222 0.082469098 0.03026196
0.38679299 0.082469098 0.039857224
0.44384387 0.082469098 0.038130887
0.19716366 -0.030193901 0.042288806
-0.28836301 0.0037905849 0.048354939
0.19193 0.003692196 0.040360235
0.23561898 0.0080809556 0.047626339
-0.4430002 0.082469098 0.04344378
-0.39354989 0.082469098 0.046995115
-0.28293395 0.082469098 0.043858983
-0.1623491 0.082469098 0.044438358
-0.13770051 0.082469098 0.049154505
-0.084721707 0.082469098 0.044392027
-0.075780772 0.082469098 0.043815661
0.012847163 0.082469098 0.048872821
0.027719863 0.082469091 0.044443965
0.072041214 0.082469098 0.046086684
0.28441089 0.082469098 0.046776086
0.37724024 0.082469098 0.048255537
0.21140471 -0.030193899 0.058724031
-0.25586158 -0.0282089 0.05137857
0.19193 0.0097278832 0.058386583
-0.27723005 0.0105159 0.058108218
-0.26502407 0.0105159 0.057583582
-0.40618181 0.082469098 0.051723301
-0.39257625 0.082469098 0.058123261
-0.34869725 0.082469098 0.059194695
-0.31048626 0.082469098 0.056331139
-0.27682239 0.082469098 0.056012388
-0.19098204 0.082469098 0.053696286
-0.013581973 0.082469098 0.053903449
0.020431191 0.082469098 0.056485433
0.04482903 0.082469098 0.050289705
0.098629028 0.082469106 0.05138468
0.2117321 0.082469098 0.059321266
0.26174629 0.082469098 0.051160403
0.31983787 0.082469098 0.056918219
0.36495399 0.082469098 0.052620716
0.37550679 0.082469098 0.055964135
0.42679679 0.082469098 0.059892185
0.23561899 -0.019165507 0.065417424
-0.24668401 -0.0061614607 0.067238688
0.23561899 0.00021553412 0.066152871
0.21220432 0.0134948 0.063772693
-0.28867131 0.082469098 0.060223207
-0.26791352 0.082469098 0.061186738
-0.18878868 0.082469106 0.067835666
-0.16109523 0.082469098 0.068201452
-0.11836984 0.082469098 0.066150688
-0.095242098 0.082469098 0.065666452
0.077248536 0.082469098 0.067189112
0.11325897 0.082469106 0.062934294
0.26622137 0.082469098 0.067853518
0.27825475 0.082469098 0.062261824
0.32773766 0.082469098 0.066180684
0.39605695 0.082469098 0.067649223
0.41950679 0.082469098 0.066047758
0.42802769 0.082469098 0.061801977
-0.25882998 -0.073040418 0.076946698
-0.2493695 -0.079235643 0.076946698
-0.23065233 -0.072397813 0.076946698
0.1860856 -0.074795015 0.076900385
0.19274762 -0.070127107 0.076875903
0.23567802 -0.072116628 0.076875903
0.17878136 -0.061344616 0.076875903
0.21165368 -0.063602172 0.076875903
0.18219857 -0.050127689 0.076875903
0.2272494 -0.054275129 0.076875903
-0.3090378 -0.046787865 0.076946698
-0.2708025 -0.046436831 0.076946698
-0.29891807 -0.030981768 0.076946698
-0.28086555 -0.033366531 0.076946698
-0.27049655 -0.036533054 0.076946698
-0.20387816 -0.035027746 0.076946698
0.18350042 -0.031669714 0.076875903
0.27085844 -0.030741069 0.076875903
-0.22863832 -0.021076057 0.076946698
0.14784995 -0.024619874 0.078087449
0.15191247 -0.028859455 0.076875903
-0.32325178 -0.013579112 0.076946698
-0.29467607 -0.017818958 0.076946698
-0.246684 -0.017771412 0.075585596
0.16824517 -0.013251772 0.076875903
0.17010395 -0.014737771 0.076875903
0.23939143 -0.015950512 0.076875903
-0.20254648 -0.0012482814 0.076946698
0.2661576 -0.0092210649 0.076875903
-0.32649365 0.0047103921 0.076946706
-0.23989242 0.0040365937 0.076946698
-0.22315213 0.0030544864 0.076946698
0.26699212 0.0035607475 0.076875903
-0.3069219 0.01891724 0.076946698
-0.20510381 0.015931698 0.078986645
0.19862565 0.015425026 0.076875903
0.27606025 0.011852611 0.076940112
-0.31345722 0.023035234 0.076946698
-0.29530314 0.023673823 0.076946698
0.19551249 0.026161134 0.076875903
0.23555019 0.029066952 0.076875903
-0.2267521 0.035424016 0.076946698
0.1697295 0.037708566 0.076875903
0.1771006 0.031327263 0.076875903
0.19712636 0.032957096 0.076875903
-0.25704643 0.051096939 0.076946706
-0.42061198 0.082469098 0.079747275
-0.35537484 0.082469098 0.078500554
-0.29122838 0.082469098 0.076129094
-0.20594539 0.082469098 0.071276762
-0.04168874 0.082469098 0.079403102
-0.0047015175 0.082469098 0.072258711
0.094926506 0.082469098 0.079344101
0.10587405 0.082469098 0.073098376
0.17588641 0.082469098 0.072289594
0.25833023 0.082469091 0.074914634
0.28873974 0.082469098 0.07239107
0.41400748 0.082469098 0.070720613
-0.25672719 -0.082401887 0.086484537
-0.24156828 -0.078568302 0.086446978
0.24962069 -0.069036968 0.080583453
0.26442981 -0.056238227 0.088240504
-0.19763578 -0.018526532 0.085850567
0.27649307 0.010730808 0.086009815
-0.31763589 0.02757369 0.088577867
0.25224814 0.042483069 0.085332967
0.20836622 0.054945931 0.08053381
0.23379406 0.051611461 0.080822185
-0.38268176 0.082469098 0.084860884
-0.27801335 0.082469098 0.08176893
-0.268419 0.082469098 0.082530402
-0.20772767 0.082469098 0.083514065
-0.15622704 0.082469098 0.08430241
-0.08021263 0.082469098 0.084488526
-0.076922625 0.082469098 0.088793598
-0.052167386 0.082469098 0.081701748
-0.040698171 0.082469098 0.082473278
-0.014443673 0.082469091 0.086467154
0.013678998 0.082469098 0.088068344
0.049554903 0.082469106 0.089953087
0.092508763 0.082469098 0.080946572
0.1390702 0.082469098 0.087443925
0.19516532 0.082469098 0.083099
0.29199967 0.082469106 0.08272136
0.31976137 0.082469091 0.08256083
0.36521354 0.082469098 0.08567477
-0.23043332 -0.072884828 0.095265739
0.22566579 -0.078643464 0.099085703
0.26189244 -0.058705147 0.092923298
0.27378163 -0.041800529 0.097310536
-0.2010127 -0.036462929 0.093594626
0.15013635 -0.038065381 0.099494115
-0.33222103 -0.014943874 0.096726522
-0.20026401 0.0039004844 0.096908584
-0.20809883 0.021292623 0.098013967
0.19586313 0.052679874 0.094758548
0.23535055 0.051170781 0.096062154
-0.33690631 0.082469098 0.099268995
-0.3039808 0.082469098 0.099432811
-0.19722258 0.082469091 0.098208614
-0.18058141 0.082469098 0.090351619
-0.12890393 0.082469098 0.092193708
-0.015318078 0.082469098 0.093262717
-0.0031521576 0.082469098 0.096549958
0.15263526 0.082469098 0.094451196
0.18035328 0.082469098 0.093526348
0.21454664 0.082469098 0.098139621
-0.21122338 -0.05644219 0.10839682
0.270069 -0.048025981 0.10836002
0.27518126 -0.039453644 0.10009368
0.14836377 0.0066330484 0.10215572
0.25592363 0.039895371 0.10557851
0.17402267 0.04288727 0.10447088
-0.34351248 0.082469098 0.10343023
-0.27235016 0.082469098 0.10578087
-0.1362578 0.082469091 0.10562378
-0.095347255 0.082469098 0.10655595
-0.072895996 0.082469098 0.10962674
-0.029173438 0.082469098 0.10387194
0.01227221 0.082469091 0.10971438
0.15725411 0.082469098 0.10180657
0.19675384 0.082469098 0.10111031
0.34724933 0.082469098 0.10979234
0.39993179 0.082469098 0.10844657
0.42193896 0.082469098 0.10398555
-0.29177707 -0.077385396 0.11510965
0.2456139 -0.071275473 0.11013597
-0.30555141 -0.069170922 0.11647486
0.16761419 -0.062395789 0.11186913
0.15946238 -0.054010458 0.11118954
-0.33232167 -0.022076547 0.11545691
-0.1976597 -0.020222582 0.11546409
-0.33229035 -0.019856598 0.11338297
-0.19752368 -0.010579717 0.11553462
-0.20113786 0.0073562618 0.11235227
-0.32510307 0.015433312 0.11440044
-0.22403836 0.038961835 0.11198711
0.16129282 0.031248957 0.11257129
0.24859613 0.044660982 0.11925679
0.20213771 0.054266669 0.11352341
0.23189104 0.052150246 0.11963872
-0.41384956 0.082469091 0.11201394
-0.37428635 0.082469106 0.11361478
-0.29834974 0.082469098 0.11208175
-0.26504511 0.082469098 0.11455859
-0.19788867 0.082469098 0.11853278
-0.14274172 0.082469098 0.11705262
0.050960738 0.082469106 0.11624613
0.11921051 0.082469098 0.11854732
0.16450627 0.082469098 0.11501985
0.19098775 0.082469098 0.1165342
0.27453336 0.082469098 0.11945108
-0.27340481 -0.0822374 0.12175049
-0.2610085 -0.082412407 0.12254027
-0.23572652 -0.075842008 0.12711819
0.18033116 -0.071372122 0.1238441
-0.32324827 -0.048617497 0.12797838
0.26928353 -0.049343087 0.12275179
-0.20080018 -0.035712276 0.12458566
0.14806126 -0.030507386 0.12510855
-0.33211941 -0.02379884 0.12739086
0.14574108 -0.0026913874 0.12528716
-0.37304753 0.082469098 0.12567793
-0.33704332 0.082469098 0.12269575
-0.31813827 0.082469091 0.12427367
-0.27655989 0.082469106 0.12074859
-0.24385127 0.082469098 0.12478332
-0.18095189 0.082469098 0.12699774
-0.17246883 0.082469091 0.12090556
-0.16076834 0.082469106 0.12446856
-0.053426698 0.082469098 0.12521592
-0.029610615 0.082469098 0.12886833
-0.0069428068 0.082469098 0.12963316
0.010773644 0.082469098 0.12054662
0.064234056 0.082469098 0.12002719
0.12576196 0.082469098 0.12419653
0.15658057 0.082469106 0.12984914
0.16861871 0.082469098 0.12363467
0.29180527 0.082469106 0.12158847
0.21917365 -0.079842076 0.13551398
-0.30866024 -0.066594929 0.13614093
0.2502645 -0.068677299 0.13013211
-0.21057233 -0.055350482 0.13311616
0.28022435 -0.013505011 0.13765229
-0.33028069 0.0011396308 0.13675827
-0.1999694 0.0027354883 0.13216031
0.14777255 0.0045451764 0.13940734
0.27868661 0.0020563281 0.13220426
0.15708886 0.025358174 0.13257784
0.27023697 0.022983296 0.13127489
0.17647032 0.044302717 0.13445958
0.20820697 0.054948181 0.13910508
0.21063317 0.054913931 0.13282628
0.23325519 0.051764026 0.13243222
-0.39276648 0.082469098 0.13910183
-0.38911948 0.082469098 0.1310288
-0.37478459 0.082469106 0.13820541
-0.36520761 0.082469106 0.13651779
-0.34127307 0.082469106 0.13792472
-0.28537762 0.082469106 0.13752359
-0.1856394 0.082469098 0.13622071
-0.17530353 0.082469106 0.1314176
-0.11672527 0.082469098 0.13312559
-0.046389952 0.082469098 0.13240142
0.12021507 0.082469098 0.13432322
0.17205673 0.082469091 0.13728726
0.28113896 0.082469091 0.13723154
0.3327637 0.082469098 0.13227747
0.34752107 0.082469098 0.13646671
0.35306674 0.082469098 0.13925651
0.20709378 -0.076813094 0.149937
0.23714462 -0.072154813 0.149937
0.2017848 -0.062423296 0.149937
0.24008171 -0.063611969 0.149937
0.16407737 -0.053050824 0.14822134
0.17735122 -0.050573491 0.149937
0.20696521 -0.042448662 0.149937
0.21759444 -0.04914315 0.149937
0.23466809 -0.04258886 0.149937
0.24439785 -0.048450172 0.149937
0.25020716 -0.043171924 0.149937
0.26959923 -0.048813678 0.14430299
0.16417535 -0.030497536 0.149937
0.20571975 -0.030509822 0.149937
0.24664284 -0.038858887 0.149937
0.14598194 -0.022284564 0.14223392
0.15497333 -0.026616964 0.149937
0.21154529 -0.013483079 0.149937
0.14585541 -0.0094519826 0.149937
0.16345315 -0.0063693179 0.149937
0.18136677 -0.0054086857 0.149937
0.19923458 -0.0075486619 0.149937
0.20438567 -0.0077948803 0.149937
0.20835292 0.003719148 0.149937
0.23901261 0.0025388612 0.149937
0.20760469 0.011194335 0.149937
0.26412517 0.011972222 0.149937
0.15929773 0.029062493 0.14220059
0.17035294 0.025588134 0.149937
0.18006203 0.027263841 0.149937
0.22087006 0.023423668 0.149937
0.17233741 0.033895604 0.149937
0.20965938 0.037073776 0.149937
0.23199899 0.039406203 0.149937
-0.24219039 0.048486594 0.14323527
0.19605699 0.048960961 0.149937
0.22833981 0.044146784 0.149937
0.24417664 0.04055227 0.149937
-0.24957353 0.050577149 0.14990747
0.22161743 0.050507553 0.149937
-0.29129764 0.082469098 0.14572926
-0.086965069 0.082469098 0.14752334
-0.064774692 0.082469098 0.14899832
-0.048071757 0.082469106 0.14127222
0.073331922 0.082469098 0.14661896
0.088426203 0.082469098 0.14475977
0.097540766 0.082469091 0.14675033
0.10969852 0.082469098 0.14529258
0.1315134 0.082469098 0.14801097
0.14939812 0.082469106 0.14147562
0.23651867 0.082469098 0.14966451
0.25308099 0.082469098 0.14407566
0.27852416 0.082469098 0.14815444
0.29128021 0.082469091 0.148303
0.36138934 0.082469091 0.14007939
-0.22599402 -0.062610291 0.15000699
-0.30239141 -0.054051723 0.15000699
-0.27514097 -0.057396144 0.15000699
-0.25268126 -0.054753974 0.15000699
-0.24950926 -0.053938221 0.15000699
-0.22916532 -0.054934055 0.15000699
-0.30756888 -0.03901891 0.15000699
-0.29881424 -0.034739081 0.15000699
-0.32668412 -0.027051469 0.15000699
-0.26821327 -0.012565636 0.15000699
-0.22719097 -0.016358269 0.15000699
-0.31338263 -0.0013785218 0.15000699
-0.26129177 -0.0067618098 0.15000699
-0.25946805 0.00032133586 0.15000699
-0.26657206 0.019115701 0.15000699
-0.24284047 0.018303219 0.15000699
-0.27014342 0.026140943 0.15000699
-0.2452229 0.029233221 0.15000699
-0.3028326 0.034213901 0.15000699
-0.2505554 0.036049772 0.15000699
-0.22476672 0.034031108 0.15000699
-0.2491471 0.047973238 0.15000701
-0.33648363 0.082469098 0.15800282
-0.2090655 0.082469106 0.15177444
-0.13145016 0.082469098 0.1578283
-0.12169334 0.082469098 0.15179363
-0.11303733 0.082469098 0.15670533
-0.1020046 0.082469098 0.153726
-0.094176039 0.082469098 0.15063325
0.01121838 0.082469098 0.15071699
0.2904771 0.082469098 0.15686803
0.3176623 0.082469098 0.15273164
0.35772941 0.082469098 0.15810166
0.36045569 0.082469098 0.15049063
-0.21575399 0.082469098 0.16658884
-0.12790971 0.082469098 0.16270384
-0.11800595 0.082469091 0.16962697
-0.10107272 0.082469098 0.16830902
-0.097254246 0.082469106 0.16446698
-0.082536444 0.082469098 0.16026273
-0.066067144 0.082469098 0.16534644
-0.032382239 0.082469098 0.16897827
-0.0032244027 0.082469106 0.16207008
0.0094848871 0.082469098 0.16988371
0.076921642 0.082469091 0.16240484
0.25982878 0.082469098 0.16949984
-0.19766498 0.082469098 0.17716961
-0.17579229 0.082469098 0.17862874
-0.16374843 0.082469098 0.17873728
-0.087103039 0.082469098 0.17402355
-0.0030008815 0.082469098 0.17309409
0.008524172 0.082469098 0.17744435
0.15750235 0.082469098 0.17399348
0.2137652 0.082469098 0.17731342
-0.21885809 0.082469106 0.18682933
-0.19071841 0.082469098 0.18442613
-0.11596058 0.082469098 0.18431568
-0.017692398 0.082469091 0.18990329
-0.0050626174 0.082469098 0.18049461
0.047020592 0.082469091 0.18357916
0.099320039 0.082469098 0.18758145
0.24429637 0.082469098 0.18999057
0.29093099 0.082469098 0.18180072
0.3129172 0.082469098 0.18213393
0.32292572 0.082469091 0.18006466
-0.26198947 0.082469106 0.19034746
