# .PCD v0.7 - Point Cloud Data file format
VERSION 0.7
FIELDS x y z
SIZE 4 4 4
TYPE F F F
COUNT 1 1 1
WIDTH 919
HEIGHT 1
VIEWPOINT 0 0 0 1 0 0 0
POINTS 919
DATA ascii
-0.18526411 0.0089257164 -0.12185048
0.15336952 0.0087849461 -0.12001267
-0.31709987 0.019746587 -0.122197
-0.29532281 0.012295797 -0.122197
-0.27440336 0.016430443 -0.122197
-0.21553238 0.016369034 -0.12158805
-0.16710642 0.010869822 -0.122197
-0.1491506 0.018311849 -0.122197
-0.044602942 0.013615565 -0.122197
-0.016014442 0.010577383 -0.122197
0.0031509846 0.014108047 -0.122197
0.025626853 0.014398402 -0.122197
0.061065555 0.018379807 -0.122197
0.11301546 0.017686285 -0.122197
0.16354647 0.015277912 -0.12219699
0.21819872 0.015502494 -0.122197
0.22114335 0.019727373 -0.12219699
0.24329144 0.011125057 -0.122197
0.25310814 0.015393275 -0.122197
0.27451414 0.01113118 -0.12219701
0.2867381 0.019864809 -0.12138779
0.31399179 0.010255786 -0.12098098
-0.35058656 0.024662968 -0.122197
-0.29468232 0.020091854 -0.12161231
-0.30527145 0.0095872115 -0.11909719
-0.27539095 0.0080576539 -0.11004031
-0.20602915 0.0082912287 -0.11356705
-0.11109254 0.0081519522 -0.11172387
0.082962364 0.0083784973 -0.11466743
0.25493371 0.0085404404 -0.11682057
0.26754329 0.0086609125 -0.11839338
-0.25487447 0.019208144 -0.11532764
-0.011727422 0.018950213 -0.11195563
0.035790861 0.018958515 -0.11207098
0.16058651 0.019360887 -0.11732028
0.17166273 0.019402333 -0.11786099
0.24348614 0.019555565 -0.11986003
0.25463513 0.018897999 -0.11121689
0.29398844 0.019190077 -0.11009088
0.3160944 0.010077007 -0.11661533
0.37609839 0.016987279 -0.11203949
-0.39741147 0.021154981 -0.11370414
-0.35338414 0.024401493 -0.11322144
-0.3403933 0.022896834 -0.11455557
-0.33043802 0.022033164 -0.11678851
0.31246716 0.020411234 -0.11428003
0.32735401 0.021477718 -0.11344419
0.39270437 0.026682094 -0.11994995
0.40637451 0.029217158 -0.11740132
0.39820322 0.03115017 -0.11909813
0.40765926 0.033411209 -0.11677519
-0.24536392 -0.048510186 -0.10696635
-0.23355818 -0.0328997 -0.10698649
0.27091348 -0.028337929 -0.1053215
0.28764701 -0.028100222 -0.10104749
0.26666909 -0.014442299 -0.1069904
0.28344995 -0.019044418 -0.10196597
-0.2736682 0.0073574837 -0.10035707
-0.23360133 0.0077430764 -0.105939
-0.21345589 0.0075477138 -0.10312754
-0.19702849 0.0076410533 -0.10449553
-0.16879736 0.0078001455 -0.10674642
-0.13045081 0.0078821927 -0.10790724
-0.083951056 0.0078923153 -0.10805047
-0.066569522 0.0078212954 -0.10704565
0.10424419 0.0074337842 -0.10153393
0.16423762 0.0076308446 -0.10435112
0.19748482 0.0074925632 -0.10239466
0.20860153 0.0076143383 -0.10411757
0.27748719 0.0077912412 -0.10583246
0.2974329 0.0085447468 -0.10986297
0.31529951 0.0092913108 -0.10671766
-0.28296304 0.018291136 -0.10058849
-0.26295727 0.018309778 -0.10289448
-0.25205308 0.0185671 -0.10653519
-0.24356759 0.018489078 -0.10543129
-0.23462664 0.018380543 -0.10389566
-0.16133559 0.018311283 -0.10291576
-0.15183499 0.018787641 -0.10965551
0.094136879 0.018597027 -0.1069586
0.12036727 0.018280592 -0.10248151
0.2101405 0.018390693 -0.10403928
0.3001166 0.019043131 -0.10416552
0.33938175 0.011197064 -0.10327184
0.38280475 0.018016078 -0.10978277
-0.36194408 0.025143843 -0.1075918
-0.31659254 0.020105571 -0.10581956
0.38530192 0.029213136 -0.10875792
0.41666368 0.025223374 -0.10885594
-0.42636707 0.038132526 -0.10348876
0.40485084 0.032731503 -0.10120638
-0.25487152 -0.051221184 -0.094612129
0.285887 -0.040615216 -0.094045974
0.260932 -0.013002031 -0.096573256
-0.24012032 0.0068390025 -0.092360012
-0.19308574 0.0068515493 -0.092553556
-0.17649981 0.0068431958 -0.092412367
-0.093583159 0.0068844203 -0.093060628
-0.087683141 0.007066838 -0.095874146
-0.072775401 0.007025315 -0.095233701
-0.058278613 0.0069720568 -0.094412297
-0.042402253 0.0068766531 -0.092940882
-0.011627957 0.0068347375 -0.092294425
0.021817148 0.0067126038 -0.090276569
0.077524036 0.0068362532 -0.092317894
0.099117421 0.0070849191 -0.09615314
0.10180605 0.006736618 -0.090685003
0.12704441 0.007085484 -0.096161895
0.15198885 0.0072240201 -0.098298579
0.27067193 0.0073188124 -0.099760711
0.31303197 0.0084505314 -0.096772403
-0.31915814 0.019386273 -0.092141137
-0.29962948 0.018278234 -0.092899866
-0.2301317 0.018088281 -0.099567391
-0.22969685 0.01749197 -0.090228014
-0.21204871 0.017522635 -0.090748601
-0.13136321 0.017921846 -0.096998513
-0.055977911 0.017569549 -0.091545269
0.043059547 0.018091301 -0.099614032
0.11318897 0.017768253 -0.094628036
0.13442311 0.017772216 -0.094689235
0.21436951 0.018007074 -0.098314106
-0.43024454 0.027989034 -0.098034076
-0.35760403 0.023954127 -0.098726735
-0.44308883 0.032576256 -0.094126046
0.40575993 0.032593735 -0.09589833
0.43115607 0.038919166 -0.09668339
-0.4475196 0.041839667 -0.090126023
0.27942756 -0.044699755 -0.085718378
-0.26738432 -0.022551756 -0.081776038
0.26503137 -0.017900435 -0.082410686
-0.18708581 0.0064267498 -0.085415721
-0.056819685 0.0065170154 -0.0869506
-0.019968785 0.0064126113 -0.085175306
0.027183786 0.0062825037 -0.082962967
0.030946098 0.0063407319 -0.08395309
0.1111306 0.0066672233 -0.089504957
0.15572712 0.0062872493 -0.08304365
0.16358522 0.0063200807 -0.083601922
0.18508533 0.0065489057 -0.087493077
-0.36356649 0.013332494 -0.088021882
-0.2641708 0.017047068 -0.082674734
-0.24311815 0.017094433 -0.083478875
-0.17476706 0.017414955 -0.088920489
-0.1137214 0.016938746 -0.080754869
-0.061896317 0.017334148 -0.087548584
-0.029477404 0.017295135 -0.086886242
0.20135732 0.016991982 -0.081739567
0.36644718 0.013906607 -0.089727059
0.39442444 0.029456021 -0.085027546
0.41878077 0.023948027 -0.080184974
0.42781794 0.026771728 -0.0886316
0.43821794 0.029245321 -0.081502587
-0.45195991 0.034813043 -0.085915573
-0.44918713 0.032580391 -0.083757721
0.4225626 0.035983637 -0.085019045
-0.44154978 0.041370001 -0.087861218
-0.24169573 -0.032048061 -0.073029377
0.27502266 -0.030491199 -0.079283528
-0.25314206 -0.027137388 -0.073583275
-0.24699597 -0.027569249 -0.075566843
-0.31497997 0.0071808188 -0.072337799
-0.29348111 0.0062514702 -0.075947799
-0.26175556 0.0060152239 -0.078074262
-0.06614621 0.0059197769 -0.07627289
0.0059605688 0.0059672086 -0.07716807
0.010648243 0.0058464794 -0.074889526
0.028404392 0.0056358818 -0.070857972
0.11488832 0.0059883166 -0.077566437
0.14447276 0.0058715739 -0.075338192
0.3375085 0.0095573589 -0.079854771
-0.39980626 0.019296799 -0.075942799
-0.35609427 0.011634001 -0.076204158
-0.28077847 0.016531091 -0.071041182
-0.19485721 0.01675142 -0.077212721
-0.1431379 0.016726051 -0.07673303
-0.13907096 0.016755415 -0.0772883
-0.12610242 0.016397599 -0.070418939
-0.10668762 0.016462248 -0.071729749
-0.077426165 0.016475635 -0.071997911
-0.050265826 0.01667369 -0.075742945
-0.033304207 0.016506579 -0.072583035
0.0053057559 0.016542792 -0.073267803
0.068809278 0.016815599 -0.078426287
0.16757661 0.016479008 -0.07206171
0.23025566 0.0165969 -0.074257128
0.36737365 0.013177167 -0.073992133
0.33753434 0.020065244 -0.074629523
0.42756057 0.02592954 -0.074778847
-0.42904428 0.037082464 -0.074546188
-0.40487385 0.031070687 -0.072994053
0.40227166 0.03051215 -0.073577702
0.45090503 0.032541726 -0.072777025
0.4488554 0.04298231 -0.078863911
0.45496935 0.044706013 -0.07402052
0.27493149 -0.035930213 -0.063476771
-0.22495271 0.0051812558 -0.061199386
-0.21640001 0.0055400515 -0.068822049
-0.16174187 0.0052669328 -0.063019596
-0.12564312 0.0053325635 -0.064413935
-0.025104832 0.0052774968 -0.063181609
0.0071319118 0.0055556977 -0.069154456
0.20687 0.0053732847 -0.065279067
0.23756777 0.0054610679 -0.067144021
0.33394068 0.0082868235 -0.061803713
-0.36661747 0.012742821 -0.067733258
-0.34974867 0.01043397 -0.069384292
-0.3372784 0.019798499 -0.06993594
-0.29093021 0.0163729 -0.06444481
-0.25272116 0.015974527 -0.061408836
-0.20960549 0.01611712 -0.064466447
-0.057869069 0.016161786 -0.065414391
-0.027701132 0.015978092 -0.061515942
0.055307835 0.016058134 -0.063214615
0.083987474 0.016201954 -0.066266827
0.14813566 0.016082421 -0.063730046
0.15935916 0.016357722 -0.069572628
0.19518891 0.016067084 -0.063404553
0.20581767 0.016224533 -0.066746019
0.38817632 0.016419804 -0.065202549
-0.44106811 0.029213365 -0.064489074
-0.42031777 0.023776345 -0.06920328
0.37167862 0.024445228 -0.069607683
0.41619909 0.022537712 -0.065489113
-0.42237908 0.034973521 -0.066714942
-0.3340798 0.0082082348 -0.059631862
-0.27516374 0.0049329554 -0.05465316
-0.25616267 0.0048440383 -0.053011362
-0.20031679 0.0048348894 -0.052789047
-0.17679191 0.0050988933 -0.059202623
-0.033386152 0.004989306 -0.05653964
0.088902205 0.0049985973 -0.056765873
0.097027205 0.0051127286 -0.059539102
0.17088105 0.0048217047 -0.052468322
0.19628912 0.0050871875 -0.05891927
0.26526991 0.0050257635 -0.057424806
0.2845524 0.0051994217 -0.057752158
0.29859617 0.0054921983 -0.054765217
-0.24472114 0.015577323 -0.051829971
-0.23910549 0.015662886 -0.053908169
-0.22242616 0.01560378 -0.052472588
-0.18190816 0.015869617 -0.058929358
-0.14538173 0.015723832 -0.055388451
0.077257231 0.015861005 -0.058720175
0.080279849 0.015566612 -0.051569812
0.12726358 0.015804237 -0.057341345
0.13213679 0.015707666 -0.054995809
0.16776589 0.015857086 -0.058624987
0.19080248 0.015812948 -0.057552945
0.23876378 0.015849659 -0.058444612
0.34152228 0.019682067 -0.057645135
0.38589334 0.015444965 -0.052926224
-0.37373745 0.024258416 -0.058046468
0.41881871 0.02257793 -0.05059126
-0.46353638 0.035707187 -0.052157369
-0.45412549 0.032604076 -0.050785173
-0.41257226 0.031987917 -0.054849111
-0.23988728 -0.0026965167 -0.04037001
-0.21231067 -0.00067841873 -0.048280664
-0.33956134 0.0080482624 -0.040304698
-0.28056037 0.0047361758 -0.047432214
-0.26657265 0.0034097801 -0.040546853
-0.23604348 0.0045674071 -0.045515228
-0.22656807 0.0034097801 -0.04147841
-0.18982804 0.0034097803 -0.040441677
-0.1004882 0.0046537011 -0.047958653
-0.09246774 0.0043865913 -0.040310025
-0.080579326 0.0045376364 -0.04467183
-0.051888045 0.0045780456 -0.0458166
0.047742762 0.0045401384 -0.044740386
0.11377618 0.0046214489 -0.047044791
0.22192505 0.0034097801 -0.043201938
0.24862412 0.0034097801 -0.04319543
-0.32311529 0.017357303 -0.043679442
-0.24946879 0.015278112 -0.043485895
-0.12580816 0.015492255 -0.049557865
-0.078752905 0.01540784 -0.047164328
-0.054082513 0.015328062 -0.044902228
0.042062212 0.015389128 -0.046633746
0.081814907 0.015425337 -0.047660429
0.091276012 0.015482274 -0.049274873
0.10361616 0.015397754 -0.046878345
0.12348758 0.015162924 -0.040103488
0.13291311 0.015488107 -0.049440257
0.2085028 0.015440764 -0.048097841
0.21022955 0.015204737 -0.041405406
0.26592779 0.015369937 -0.046089582
-0.44471627 0.029648654 -0.049568426
0.41563106 0.021564573 -0.045210421
-0.43415061 0.037208661 -0.045310661
0.45473802 0.04344615 -0.046867419
-0.47465798 0.050016761 -0.042604573
-0.29493687 -0.0010948441 -0.0375075
-0.27253541 -0.0036997609 -0.035831004
-0.26517552 -0.0043023531 -0.034075357
-0.25205171 -0.0041372282 -0.034722626
0.24754044 -0.0029486509 -0.039381005
0.25096038 -0.0051016295 -0.030941032
0.30942523 -0.0016033096 -0.036935825
-0.35081446 0.0091959275 -0.033466443
-0.29128078 0.0034097801 -0.035692405
-0.25214332 0.0042866543 -0.036909778
-0.18901774 0.0034097801 -0.035976984
-0.17514932 0.0042527071 -0.035754003
-0.1347093 0.0043616756 -0.039462969
0.076181084 0.0041355384 -0.031769019
0.10405856 0.0042270729 -0.034883071
0.21821174 0.004139015 -0.031885445
0.2454246 0.0041304571 -0.031594198
0.30786115 0.0052073244 -0.034635831
-0.36891907 0.011895645 -0.036100253
-0.32646754 0.017426282 -0.038156651
-0.31289706 0.016310383 -0.034395512
-0.28256741 0.015177954 -0.036163542
-0.21787465 0.015150854 -0.039692719
-0.14426708 0.014869601 -0.030001063
-0.098588817 0.014960446 -0.033212543
0.0418863 0.01505325 -0.036370952
0.12084389 0.015052024 -0.036329247
0.18231067 0.015055566 -0.036449764
0.19308746 0.014917887 -0.031764053
0.21188033 0.014976923 -0.033773247
0.22273925 0.014932812 -0.03227203
0.2305986 0.015009125 -0.034869187
0.24855992 0.015065701 -0.036794666
0.2581633 0.015137852 -0.039250229
0.26031032 0.015016527 -0.03512115
0.27671534 0.015009793 -0.03338524
0.30531365 0.0160241 -0.039666351
0.38338247 0.014278449 -0.032743879
-0.37996063 0.024370981 -0.031930927
-0.45832384 0.033301007 -0.030146029
-0.43752348 0.037955798 -0.038273908
-0.41350478 0.031551793 -0.03641462
0.46814191 0.036734901 -0.035873834
0.25989923 -0.036157683 -0.029739181
0.27807069 -0.034663808 -0.029839309
-0.24514225 -0.022022787 -0.022043176
-0.23456275 -0.020214058 -0.020130938
0.22331408 -0.010172524 -0.020513309
0.27595198 -0.016717782 -0.0218536
-0.26556104 -0.0067755859 -0.02438063
-0.25343412 -0.0061749052 -0.026735216
-0.20091762 -0.00054373703 -0.028383896
-0.17034283 -0.00099895557 -0.027395695
0.20081389 -0.0038483965 -0.021224951
0.22225489 -0.00056373322 -0.026848394
0.29707652 -0.0046373578 -0.021282138
-0.351192 0.0089344382 -0.020908346
-0.29655993 0.0034097801 -0.021849494
-0.26465625 0.0036774252 -0.024685029
-0.23634367 0.0039999457 -0.026288763
-0.19130684 0.0034097801 -0.025560115
-0.16285563 0.0040290775 -0.027528336
-0.073188066 0.0038640825 -0.02050768
-0.047388289 0.0039796103 -0.025423452
-0.033499464 0.0039623161 -0.024687588
-0.023824781 0.0039010383 -0.022080176
-0.012903407 0.0038806819 -0.021213993
0.038292728 0.0040271068 -0.027444448
0.059901476 0.0039842501 -0.025620889
0.099548593 0.0039124386 -0.022565262
0.19408002 0.0036567643 -0.022245478
0.23556609 0.0040077632 -0.026621379
0.24485758 0.0034097801 -0.026996192
0.2723949 0.003986924 -0.025734657
0.28238627 0.004153396 -0.027372207
-0.40692386 0.018904425 -0.021935614
-0.33376127 0.017792208 -0.024220554
-0.29492772 0.015273638 -0.029609233
-0.21906102 0.014766056 -0.025604339
-0.1722028 0.014660273 -0.021112548
0.0067329034 0.014732966 -0.024199251
0.10435468 0.014664447 -0.021289822
0.11523451 0.014859692 -0.029580303
0.12805641 0.014748389 -0.024854153
0.26180753 0.014858535 -0.029531201
0.30471727 0.015538871 -0.022417028
0.3383162 0.018188503 -0.020950451
0.37441722 0.012554952 -0.027069619
0.39533871 0.016425308 -0.025303446
-0.39084482 0.026247431 -0.02178257
0.41510442 0.020802261 -0.023331083
-0.4313218 0.035776224 -0.023452375
0.41615421 0.031981315 -0.02836027
-0.21122269 -0.012104847 -0.015950233
0.2314387 -0.012719201 -0.018168038
-0.30030441 -0.0021190469 -0.018896816
-0.24914975 -0.0074202595 -0.015276753
-0.20164934 -0.0078040087 -0.016686745
0.20206921 -0.0042456989 -0.011013046
0.21843061 -0.0073158192 -0.018017797
0.22959743 -0.0074197706 -0.015585518
0.27646914 -0.0074198986 -0.012966023
-0.35415745 0.0093112485 -0.019901663
-0.31587863 0.005366696 -0.018640716
-0.24349868 0.0035678428 -0.013629774
-0.22284019 0.0037718187 -0.015320031
-0.21134862 0.0034097801 -0.012505432
-0.20895964 0.0038511804 -0.019811515
-0.165181 0.0038589004 -0.016487962
-0.12028909 0.0037697221 -0.015201366
-0.040234566 0.0036911366 -0.010753835
-0.020363495 0.0037489976 -0.014028474
-0.011504303 0.0037849948 -0.016065735
0.090283878 0.0037427284 -0.013673666
0.15354945 0.0038336206 -0.018817717
0.18731877 0.0034097801 -0.010708907
0.26730657 0.0034097801 -0.012400048
0.29843745 0.0034097801 -0.019219767
-0.2264698 0.01458896 -0.017304322
-0.17420647 0.014574856 -0.016504001
-0.10282446 0.014614429 -0.018749464
-0.05434607 0.014606645 -0.018307775
0.011275291 0.01446156 -0.01001278
0.021928713 0.014625558 -0.01938089
0.055140104 0.014504769 -0.012527362
0.065450184 0.01450354 -0.012457673
0.18242499 0.014482792 -0.011280403
0.21957859 0.014522788 -0.013549799
0.30849165 0.015485369 -0.010573556
0.38527006 0.01429458 -0.017580932
-0.40061611 0.028159805 -0.016888125
-0.36992687 0.022415131 -0.018891368
0.38105866 0.024193132 -0.014115795
0.40499425 0.029169967 -0.017939938
-0.47751087 0.039672025 -0.019215666
-0.45662418 0.043283202 -0.019257352
-0.24138375 -0.036835954 -0.0090717953
0.25671577 -0.035342187 -0.0076031815
0.27840003 -0.027626842 -0.0064320075
-0.2650705 -0.014743599 -0.0057679648
0.28664964 -0.0103827 -0.0086430339
-0.2155492 -0.0020081913 -0.0068066604
0.18473986 -0.00092993939 -0.0030823834
0.20235731 -0.0043006577 -0.0059495401
0.23312831 -0.00060733937 -0.0026674634
0.24638177 -0.0074199494 -0.00098902348
0.28775859 -0.0094827414 -0.0035464494
-0.25303131 0.0036575901 -0.008175863
-0.19604889 0.0036465398 -0.0072351559
-0.13809343 0.003647648 -0.0073295017
-0.082463115 0.0036074582 -0.0039081695
-0.052741021 0.0035770754 -0.0013216716
0.087116703 0.0035757278 -0.0012069683
0.1103009 0.0036395995 -0.0066443309
0.19554561 0.003569786 -0.00070113019
0.23875242 0.0034097801 -0.0066598589
0.28506953 0.0037762518 -0.0040160897
0.33729017 0.0070691076 -0.0070108073
0.34192657 0.0075729005 -0.0088665765
-0.33939612 0.018054117 -0.0056354646
-0.30896553 0.015494513 -0.0097498884
-0.28664082 0.014594722 -0.0051128967
-0.18849079 0.014397232 -0.0045569995
-0.16565242 0.014460611 -0.0099322833
-0.10008208 0.014354295 -0.00091551559
-0.085614264 0.014352405 -0.00075528462
-0.071927451 0.01443779 -0.0079968413
-0.029908121 0.014407951 -0.0054661776
0.13173863 0.014432528 -0.0075506475
0.15103959 0.014343699 -1.6873153e-05
0.19446671 0.014412425 -0.0058455518
0.31669718 0.015984021 -0.0037163862
0.40034956 0.027877335 -0.0013878702
0.44198656 0.027810344 -0.0089001162
-0.23839556 -0.034368753 0.0060452437
0.26510835 -0.038199134 0.0015392725
0.25677744 -0.027972855 0.0082680434
0.27797592 -0.022096733 0.0079342956
-0.22900602 -0.016436592 0.0040587657
-0.29891309 -0.0024627382 0.0012662602
-0.21498695 -0.00054373703 0.0027608215
-0.19204424 -0.00054373703 0.0087940907
0.18843219 -0.0016362838 0.0015425161
0.19428661 -0.0027562343 0.0058215922
0.22435559 -0.00117097 0.0079668928
0.24457473 -0.00742026 0.0073860907
-0.2667461 0.0034097801 0.004390195
-0.2450269 0.0034097801 0.00015822984
-0.22189006 0.0034097801 0.004447985
-0.18546787 0.0034097801 0.0068504214
-0.17980872 0.0036415383 0.0068097133
-0.15945983 0.0035749851 0.001143751
-0.1117082 0.003626399 0.0055208406
0.045754157 0.0036710664 0.0093235541
0.1176341 0.0035979787 0.0031013107
0.14421189 0.0035832492 0.0018473392
0.21909265 0.003566175 0.00039372928
0.25683481 0.0035642816 0.00023252824
0.26583478 0.0034097801 0.0078636501
0.27972332 0.0034097801 0.0013764892
0.31779963 0.0034097801 0.0098489923
-0.28355432 0.01454701 0.0049458994
-0.24533567 0.014434582 0.0077251103
-0.16515864 0.01441478 0.0060455753
-0.12762365 0.014381356 0.0032107723
-0.048518755 0.0143729 0.0024935782
-0.017374992 0.01445945 0.0098344069
0.10387057 0.01441415 0.0059922906
0.13161454 0.014438178 0.008030124
0.20409827 0.01435765 0.0012001778
0.23628815 0.014421442 0.0066105518
0.25421622 0.014416028 0.0061514541
0.27336168 0.014440983 0.0082680332
0.31893623 0.016223386 0.0099449456
0.37587601 0.012413427 0.0063980008
-0.35623935 0.020135675 0.0046360097
-0.44425392 0.039212331 0.0055653639
0.43819624 0.037392795 0.00061131926
0.45699579 0.032412469 0.0060599544
0.47864562 0.039903175 0.0088748764
0.4523581 0.041707095 0.0073062964
-0.24038473 -0.025834002 0.016607597
-0.28195304 -0.0057076719 0.010790635
-0.27961922 -0.0061541991 0.018854378
-0.21777675 -0.0013970007 0.014205355
-0.2080123 -0.00054373703 0.017071497
-0.19654062 -0.00054373709 0.01459708
0.18342842 -0.00067906477 0.01954771
0.19651513 -0.0031828722 0.014350206
0.27430087 -0.0074201818 0.017035954
-0.30299181 0.0045662615 0.016644103
-0.29397166 0.0037783477 0.013885245
-0.25016832 0.0034097801 0.010415447
-0.23247501 0.0034097801 0.012759597
-0.20970854 0.0034097801 0.018471513
-0.17534477 0.0034097801 0.017233074
-0.14112088 0.003770323 0.015235908
-0.053483076 0.00375045 0.014111186
-0.04556185 0.0036947597 0.010959396
0.10195252 0.0038146495 0.017744321
0.11462129 0.0037506286 0.014121201
0.21084464 0.0037847348 0.016051233
0.22962803 0.0038039489 0.017138598
0.23277682 0.0034097801 0.015640669
0.24749085 0.0034097801 0.018412219
0.26825771 0.0034097801 0.010202425
0.28620216 0.0034097801 0.011320179
-0.33810106 0.018118665 0.01843781
-0.3216843 0.016576247 0.018479317
-0.29338467 0.014842813 0.012158973
-0.25623459 0.014589122 0.017313994
-0.062860951 0.014524749 0.013661312
-0.009879902 0.014590316 0.017381512
0.009870179 0.014574619 0.016490884
0.017473752 0.014557722 0.015532123
0.06066478 0.014533367 0.014150298
0.1061141 0.014565565 0.015977124
0.16168194 0.014619484 0.019036302
0.22701706 0.014601087 0.017992511
0.32063144 0.016376192 0.011571118
0.40272406 0.017875232 0.018027488
-0.43210807 0.024977462 0.01153512
-0.42796713 0.02398815 0.016569775
-0.37886822 0.023814943 0.014889035
0.36720556 0.021868559 0.0132707
0.37944046 0.023858087 0.011997571
0.392609 0.026392108 0.010923341
-0.46552202 0.035316948 0.015532197
-0.45275861 0.031097626 0.010683035
-0.43756908 0.037367068 0.012668001
-0.42563123 0.03408502 0.011939484
0.42360952 0.033663202 0.017621487
-0.45140523 0.041492268 0.013568262
-0.24014944 -0.034366608 0.027400643
0.26310319 -0.036432508 0.028088968
0.27917624 -0.032947157 0.029959548
-0.26784343 -0.011511838 0.027801558
0.27943838 -0.018934391 0.023536207
-0.20616451 -0.0014341911 0.020777052
-0.19209357 -0.0056435214 0.024593579
-0.16672702 -0.0008394685 0.023161111
-0.30667317 0.0046506063 0.025832372
-0.26291358 0.0034097801 0.021353902
-0.25802737 0.0034097801 0.02568325
-0.20704907 0.0034097801 0.020364311
-0.19394997 0.0034097801 0.028979842
-0.15287027 0.0039672246 0.024896871
0.0037902594 0.003912095 0.0225509
0.089845963 0.0039611133 0.024636606
0.093723364 0.0040171528 0.027021248
0.12926455 0.0039330688 0.023443246
0.16646434 0.0040427563 0.028110733
0.1745064 0.004019476 0.027120117
0.22640584 0.0036495931 0.023979617
0.23330685 0.0040408522 0.028029725
0.32432458 0.0061009661 0.023701292
-0.08710485 0.014643753 0.020411415
0.012075886 0.014724128 0.02382423
0.13738158 0.014788184 0.026544223
0.21226901 0.014783124 0.026329309
0.25616848 0.014672056 0.021612961
0.28419173 0.014865375 0.023248348
0.3097063 0.015822679 0.024651915
0.36531842 0.010962673 0.022983637
0.3881821 0.015096929 0.028236384
-0.44348744 0.028534984 0.024349777
-0.40555277 0.029389443 0.022507748
0.37543762 0.023466524 0.025437009
0.43661654 0.026451932 0.020719469
0.41418934 0.031488281 0.026360672
0.42054415 0.033143107 0.02987442
0.4701001 0.037110675 0.023377705
-0.46142015 0.045063425 0.029188953
0.47268283 0.048864421 0.025388811
0.26552904 -0.037816677 0.036749028
-0.23871258 -0.023752905 0.030613299
0.26119542 -0.024517495 0.031860981
0.27492154 -0.025231253 0.030016273
-0.25202951 -0.019326203 0.032025032
-0.24429089 -0.016247932 0.032056902
-0.23808423 -0.014371882 0.032056902
0.25355217 -0.015510268 0.031879298
-0.3043009 -0.0013278679 0.030714029
-0.17947716 -0.0024271966 0.039413273
0.20947157 -0.0060987859 0.030622002
0.25726074 -0.0072763804 0.032620899
0.26745224 -0.0060813981 0.037305146
0.298374 -0.00054373703 0.033367816
-0.29620844 0.0047915308 0.038088031
-0.26741701 0.0035946332 0.032783255
-0.23696402 0.0041856603 0.033472236
-0.21670099 0.0034097801 0.033109821
-0.20307608 0.0041175364 0.031156715
-0.16904098 0.0038068579 0.032749757
-0.10433142 0.0040898258 0.030113671
0.012514729 0.004240538 0.03534051
0.056438319 0.0042921696 0.037097633
0.085137174 0.0041117752 0.030959353
0.24212046 0.0041800421 0.033281997
0.32021895 0.0062306626 0.039831519
-0.32762599 0.017385209 0.033351708
-0.30416492 0.015853707 0.035601944
-0.24208453 0.015114607 0.038459666
-0.091380924 0.015122712 0.03873539
-0.015960176 0.015086131 0.037490431
-0.0016031489 0.014962466 0.033261016
0.0019162637 0.015039981 0.035919845
0.013698667 0.014895231 0.03099354
0.040679529 0.014937244 0.03242334
0.16899398 0.015130548 0.039001849
0.17737144 0.015158096 0.039939314
0.253739 0.014986362 0.034094885
0.30434829 0.015824569 0.034334116
0.33691174 0.018528664 0.039417461
0.34547216 0.019170376 0.030285945
0.38827664 0.015258702 0.033581831
-0.35924169 0.021291768 0.039726101
0.40194654 0.028846757 0.033452101
-0.46313488 0.035094626 0.038244266
-0.25535801 -0.025981836 0.044565581
-0.279266 -0.0034838475 0.044972822
-0.25629127 -0.0049785678 0.041628167
-0.22251466 -0.0033805952 0.047892112
-0.19535165 -0.00054373703 0.040425584
0.21905309 -0.0030734995 0.048571456
0.25824249 -0.0042648744 0.044425797
-0.2962687 0.0034097801 0.044095244
-0.27130091 0.0034097801 0.045955643
-0.26383364 0.0034097801 0.041666619
-0.24508843 0.0040414222 0.044612378
-0.20395254 0.0034097799 0.045035567
-0.15733768 0.0046657026 0.048299927
-0.14458066 0.0046305619 0.047304455
-0.11807625 0.0046693617 0.048401743
-0.10130058 0.0043992437 0.040741444
-0.029010348 0.0045499378 0.045020387
0.045140386 0.0046875239 0.048915714
0.062198609 0.0045817611 0.045919735
0.14170036 0.0046849386 0.048843812
0.15200971 0.0046694241 0.048404429
0.22721225 0.0034097801 0.045145541
0.28152907 0.0040327972 0.044004377
0.31180125 0.0059227766 0.048944626
-0.32750392 0.017649937 0.042458396
-0.23783699 0.015507659 0.04999467
-0.1705201 0.015234939 0.042262096
-0.077647746 0.01548684 0.049404357
-0.038198918 0.01516524 0.040182617
-0.015536509 0.015172263 0.040421613
0.014042944 0.01532132 0.044711098
0.071375735 0.015328806 0.044923339
0.097469062 0.015249355 0.042670555
0.19542289 0.015482681 0.049286399
0.2544502 0.015503388 0.049873546
0.28503531 0.015611874 0.048204742
0.35909659 0.010844232 0.049935397
0.36662254 0.011688233 0.04170496
-0.39626327 0.02786421 0.042266261
-0.36709356 0.022662554 0.044965237
0.37191817 0.023349158 0.041937031
0.40452069 0.02989126 0.047755338
0.43958166 0.038857084 0.047277957
-0.46197051 0.045887284 0.049655296
0.47360951 0.049703408 0.043205839
-0.24153098 -0.035559554 0.058849171
-0.26891541 -0.0017674899 0.054100204
-0.24147785 -0.00057098689 0.058905583
-0.21532318 -0.0022815298 0.052200373
0.23934266 -0.0019515074 0.05349404
-0.28706786 0.0034097801 0.050168011
-0.25677252 0.0034097801 0.057141796
-0.18622822 0.0034097801 0.0518695
-0.14563267 0.0048195687 0.052416861
-0.10808486 0.0050773555 0.058678061
0.20042689 0.0048264293 0.052583411
0.24883358 0.0034097801 0.058507148
0.25423467 0.0034097801 0.050014596
0.29790664 0.0034097801 0.055814579
-0.40177339 0.018921178 0.058767341
-0.27283895 0.015686985 0.054493498
-0.17995423 0.015871877 0.058984216
-0.025421806 0.015531275 0.050664302
0.074030951 0.015612671 0.052688546
0.083738528 0.015908031 0.059862364
0.096009225 0.015606018 0.052526928
0.26903144 0.015821032 0.057749279
-0.44261274 0.029279865 0.055670295
-0.36659741 0.023087796 0.05813903
0.35870051 0.021901045 0.058053792
0.40365994 0.029889252 0.052902333
-0.46887755 0.039836396 0.059023649
-0.40859777 0.030919407 0.050721195
0.42032999 0.033809748 0.052091807
0.27643335 -0.027837057 0.068099856
-0.27907351 0.0056558745 0.069600947
-0.10067047 0.0052108336 0.061828025
-0.088841669 0.0053457255 0.064694934
-0.044662163 0.0055596298 0.069238827
-0.024260618 0.0054028761 0.065908201
0.0033875182 0.00557674 0.069602288
0.18646358 0.0054759383 0.067461602
-0.39183113 0.017057128 0.063581929
-0.35767984 0.01124141 0.063950509
-0.33110511 0.019042891 0.067515165
-0.24387842 0.01628479 0.068024822
-0.22609556 0.015934248 0.060499135
-0.21175028 0.015938809 0.060609929
-0.18176779 0.015983639 0.061633658
-0.16660997 0.016346926 0.069343507
-0.033306148 0.01602721 0.062558345
0.02830898 0.016075959 0.063592911
0.096298911 0.016029276 0.062602177
0.10476839 0.016072785 0.063525543
0.17719963 0.016104713 0.064203173
0.20821264 0.015915887 0.060053192
0.30431116 0.017022539 0.066078275
0.31005451 0.017362734 0.067460366
0.32406697 0.018449785 0.068502106
0.38382682 0.015620463 0.066262677
-0.43154743 0.026549965 0.066508509
-0.42690963 0.025449637 0.068580851
-0.39601374 0.028615564 0.062719807
0.37524286 0.024969462 0.068292595
-0.40315723 0.030098297 0.060744815
0.41921091 0.034298982 0.069768891
0.46353126 0.04685967 0.061192602
-0.25337797 -0.026399132 0.076392844
-0.26345971 0.0057124393 0.072359748
-0.2213515 0.0057327854 0.072743744
-0.21911824 0.0059185326 0.076249406
0.070788674 0.0057227649 0.072554633
0.1155113 0.0060115336 0.078004614
0.17444804 0.0060955891 0.079591013
0.25269777 0.0060921423 0.07952597
-0.3231867 0.018700104 0.074779831
-0.27491358 0.016603293 0.074078247
-0.013734795 0.016428538 0.071075529
0.0064522699 0.016528452 0.072996631
0.095035285 0.016854927 0.079169974
0.38775027 0.016853139 0.07563936
-0.35361725 0.021983191 0.074299827
-0.42319918 0.035857562 0.079921603
-0.413674 0.033360738 0.07859873
0.44803557 0.031995762 0.079542205
0.45759761 0.044060275 0.077273108
0.26747173 -0.027012765 0.084647425
-0.30362689 0.007152128 0.0841607
-0.2945115 0.0065615331 0.080939822
-0.28002816 0.0063242009 0.082088456
-0.22274967 0.006438314 0.085612558
-0.20979469 0.0063556498 0.084206872
-0.11317621 0.0064684758 0.086125456
-0.088093676 0.0066612368 0.089403316
-0.0096078515 0.0065511176 0.087530755
0.037651736 0.0065832185 0.088076629
0.13267365 0.0064674639 0.086108245
0.14829645 0.0066785812 0.089698255
0.1925592 0.006486807 0.086437173
0.20671198 0.0065485016 0.087486282
0.2395148 0.0064885803 0.086467318
0.31604847 0.0076827146 0.080316186
-0.34552988 0.010834259 0.087210625
-0.28119335 0.017236767 0.084019035
-0.20462932 0.017139085 0.084237084
-0.13705081 0.016952841 0.081021413
-0.070181467 0.017053107 0.082777329
-0.058020733 0.017048005 0.082690731
0.038725413 0.017091906 0.083436072
0.11883496 0.017001832 0.081906788
0.16116259 0.017092811 0.08345142
0.31793463 0.018660277 0.081371672
0.36637414 0.013459698 0.082343414
0.39253509 0.018381745 0.086327791
-0.40608257 0.021139532 0.083659537
-0.3640945 0.024113607 0.086531132
-0.34111977 0.020802971 0.081517637
-0.44864359 0.039654821 0.089111604
0.45071638 0.033899497 0.087240301
-0.45113045 0.042575032 0.086866498
0.45257547 0.042248514 0.084972262
-0.23535785 -0.044784486 0.097356841
-0.26485264 -0.03341407 0.092355192
-0.25116783 -0.032552268 0.093488403
-0.23115221 -0.02613622 0.093468055
-0.2461039 -0.012728326 0.092194468
0.28315806 -0.018664012 0.099418059
-0.27768737 0.0071169911 0.095743269
-0.11621099 0.0069145444 0.093525574
-0.1073021 0.0068623619 0.092720754
0.026315223 0.0071390783 0.096988626
0.054472893 0.0067819078 0.091455296
0.082251176 0.0071575069 0.097272843
0.13140011 0.0067495266 0.090904668
0.14513484 0.0067768749 0.091369726
0.22166963 0.0071231108 0.096742347
-0.3201147 0.019387938 0.091008455
-0.20824084 0.017955869 0.097523883
-0.064765915 0.017722126 0.093907312
-0.034876466 0.017828524 0.095558427
0.12532917 0.017813487 0.095326334
0.16702285 0.017736433 0.094137087
0.18579695 0.017633609 0.092550099
0.37691078 0.016100867 0.097221598
0.39272332 0.019240761 0.099514753
-0.32580405 0.020144252 0.096241549
-0.44104671 0.037734844 0.095969617
-0.43890989 0.040336553 0.097898737
0.44117087 0.04153334 0.092436194
-0.23149346 -0.038050272 0.10364646
0.24832681 -0.035183337 0.10806014
0.24844679 -0.027259108 0.10082038
-0.31457201 0.009121228 0.10507565
-0.29443252 0.0081270076 0.10583803
-0.019082069 0.0077115265 0.10549262
0.036601961 0.0075154454 0.10271841
0.17974532 0.0075524016 0.10324129
0.21773197 0.0075499881 0.10320715
0.24673459 0.0076815845 0.10506899
0.30347908 0.0083300257 0.10295849
0.31116527 0.0089722965 0.1065374
-0.22020005 0.018240359 0.10191229
-0.20876215 0.018540656 0.10616104
-0.17956889 0.018748213 0.10909764
-0.10688812 0.01847982 0.10530031
-0.010733753 0.018500945 0.10559918
0.13959131 0.018443711 0.10478943
0.26950213 0.018515483 0.10580488
0.29153937 0.018603086 0.10331567
0.33444792 0.010904307 0.10638979
0.35414439 0.01336202 0.10824149
0.37722698 0.016479084 0.10222883
-0.34177902 0.022275241 0.10393504
0.3364417 0.021783937 0.10483368
0.39633721 0.020588437 0.10879517
-0.4001646 0.031940222 0.1050835
-0.39061815 0.030323334 0.10977985
0.26885432 -0.051689718 0.11192012
0.27823579 -0.048732113 0.11577518
-0.23193586 -0.039118186 0.11349741
-0.23792325 -0.016464343 0.11590569
-0.30146328 0.0092871692 0.11738508
-0.21840316 0.0083144847 0.11387067
-0.20679262 0.0087504881 0.11956281
-0.19512273 0.0087588038 0.11967138
-0.16849434 0.0084653664 0.11584047
-0.037957683 0.0084597664 0.11576736
-0.016914308 0.0085385451 0.11679584
0.040411815 0.0082408395 0.11290921
0.12616907 0.0087357061 0.11936982
0.14261517 0.0087829772 0.11998697
0.17807004 0.0083157215 0.11388682
0.23405337 0.0084391516 0.11549821
0.24842066 0.0083086016 0.11379386
-0.33053762 0.011249403 0.11663282
-0.30083576 0.01983054 0.11463593
-0.27739197 0.019047331 0.11252131
-0.15724832 0.019184405 0.11501794
-0.13537237 0.019471286 0.11876055
-0.10737154 0.019240426 0.11574877
0.050610058 0.018834131 0.11031325
0.28838289 0.019201271 0.11240918
0.329687 0.01099587 0.1144781
-0.30970824 0.020488365 0.11795331
0.35435879 0.024541089 0.11333792
0.39815187 0.023018865 0.11910598
0.40168616 0.021992978 0.11201806
-0.40224954 0.033058453 0.11405271
-0.28572899 0.0089941127 0.12042497
0.16947816 0.0088042505 0.12026469
-0.3173582 0.014964314 0.122197
-0.30689052 0.018296732 0.122197
-0.21450694 0.019642731 0.1209972
-0.19190846 0.010302196 0.12219701
-0.12032619 0.012322329 0.122197
-0.07327009 0.018190645 0.12214649
-0.05013822 0.015959702 0.122197
-0.037941694 0.018203124 0.122197
0.024244413 0.017992182 0.122197
0.11463836 0.017569449 0.122197
0.12166263 0.019646756 0.1210497
0.1629215 0.019084562 0.122197
0.30830142 0.018052978 0.122197
0.33305517 0.014426006 0.12219701
0.351298 0.014027244 0.12219515
-0.39229316 0.027482629 0.12001403
-0.38259929 0.028527979 0.1215155
-0.29886359 0.020182982 0.12037857
