# .PCD v0.7 - Point Cloud Data file format
VERSION 0.7
FIELDS x y z
SIZE 4 4 4
TYPE F F F
COUNT 1 1 1
WIDTH 875
HEIGHT 1
VIEWPOINT 0 0 0 1 0 0 0
POINTS 875
DATA ascii
-0.23130307 -0.042644843 -0.12071185
-0.22619714 -0.045564577 -0.12082169
-0.21470325 -0.046386331 -0.12165456
-0.17880511 -0.049439501 -0.12059726
-0.098542489 -0.046668731 -0.12604028
-0.084158316 -0.048975591 -0.12632608
-0.070042238 -0.042339519 -0.12660654
-0.062641524 -0.049439501 -0.12566817
-0.012974538 -0.04889597 -0.12718901
0.022091286 -0.040650859 -0.12712859
0.03950049 -0.049439501 -0.12117869
0.054480996 -0.048666239 -0.12604763
0.069383986 -0.049439505 -0.12352672
0.076860383 -0.049439497 -0.12528996
0.12856641 -0.046202399 -0.12518641
0.14260578 -0.043774039 -0.12472065
0.15547758 -0.049439505 -0.12220934
0.20118065 -0.049439501 -0.12106727
0.21308987 -0.049439497 -0.12063208
-0.094017945 -0.035497699 -0.12384678
-0.065013766 -0.035497699 -0.12669095
-0.0049668374 -0.035497699 -0.12119721
0.018759597 -0.035497699 -0.12673989
0.17384811 -0.036291916 -0.12355126
0.19192936 -0.03642641 -0.12271183
0.20171571 -0.038706563 -0.1222575
-0.32266927 -0.046349902 -0.11459112
-0.31270269 -0.049223822 -0.11531955
-0.30024803 -0.049439505 -0.11372881
-0.29370031 -0.040444851 -0.1167076
-0.27101359 -0.049439501 -0.11094268
-0.24494331 -0.049439501 -0.11389992
-0.2271014 -0.049439505 -0.1129709
-0.12467915 -0.049439501 -0.11628412
-0.095012523 -0.049439501 -0.11716554
0.064750686 -0.049439501 -0.11363754
-0.31123483 -0.038045667 -0.11542678
-0.30386353 -0.035497699 -0.11096869
-0.22473119 -0.035497699 -0.11072315
-0.074638091 -0.035497699 -0.11022894
-0.015234685 -0.035497695 -0.11386906
0.0073843077 -0.035497699 -0.11330856
0.07955616 -0.035497699 -0.11504164
0.22622824 -0.035497699 -0.11499195
0.25140202 -0.035497699 -0.11449395
0.26818892 -0.035497699 -0.11091444
0.2896156 -0.035497699 -0.11696384
-0.29567653 -0.049439505 -0.10327902
-0.27020559 -0.049439501 -0.10978042
-0.24173442 -0.049439501 -0.10425553
-0.19641796 -0.049439505 -0.10736756
-0.15581749 -0.049439501 -0.1022372
-0.14335486 -0.049439501 -0.1098115
-0.13348936 -0.049439501 -0.10988016
-0.086195044 -0.049439497 -0.10668222
-0.041690085 -0.049439501 -0.10250784
-0.018149463 -0.049439501 -0.10300355
0.039521471 -0.049439501 -0.10406953
0.086801305 -0.049439501 -0.10523982
0.10939582 -0.049439501 -0.10311168
0.16954279 -0.049439501 -0.10708256
0.1744789 -0.049439501 -0.10190494
0.23809811 -0.049439505 -0.10783793
0.27150014 -0.049439501 -0.1001623
0.33692151 -0.046981156 -0.10250945
-0.30671781 -0.035497695 -0.10060497
-0.19996072 -0.035497699 -0.10822722
-0.11244953 -0.035497699 -0.10639668
-0.099411033 -0.035497699 -0.10601477
0.052714005 -0.035497699 -0.10615438
0.067071959 -0.035497699 -0.10642365
0.092626274 -0.035497699 -0.10112307
0.10745334 -0.035497699 -0.10108495
0.12416372 -0.035497699 -0.10213765
0.13378993 -0.035497695 -0.1057075
0.20363377 -0.035497699 -0.10324447
0.2749325 -0.035497699 -0.10750906
0.29636621 -0.035497699 -0.10041174
0.32632419 -0.035497699 -0.10883921
0.33656001 -0.038351014 -0.10295389
-0.3439872 -0.043776073 -0.095253989
-0.3156932 -0.049439501 -0.096211344
-0.28742027 -0.049439501 -0.096513823
-0.24930522 -0.049439501 -0.094931141
-0.23686349 -0.049439501 -0.094029836
-0.1251843 -0.049439501 -0.092763029
-0.11913964 -0.049439497 -0.094299421
-0.087666497 -0.049439505 -0.090556033
-0.07638143 -0.049439501 -0.095677115
-0.061580159 -0.049439505 -0.09115532
-0.015181114 -0.049439497 -0.095474862
0.12489385 -0.049439501 -0.093414903
0.13651812 -0.049439497 -0.094198242
0.15946804 -0.049439501 -0.093132123
0.23618858 -0.049439501 -0.097929165
0.27884722 -0.049439497 -0.09522111
-0.34295774 -0.037504632 -0.09518306
-0.28400123 -0.035497699 -0.090241075
-0.23824829 -0.035497699 -0.0972974
-0.15549125 -0.035497699 -0.097522885
-0.12287203 -0.035497699 -0.091677226
-0.0039004709 -0.035497699 -0.09502729
0.093514949 -0.035497699 -0.098156199
0.12165596 -0.035497699 -0.09733779
0.16287413 -0.035497699 -0.095999129
0.21577972 -0.035497699 -0.092439935
0.23424551 -0.035497699 -0.098359577
0.24735016 -0.035497699 -0.093166463
0.28839782 -0.035497699 -0.097277224
0.29253998 -0.035497699 -0.095444933
0.30845317 -0.035497699 -0.097084217
0.32830054 -0.035497699 -0.095486052
-0.30483603 -0.049439501 -0.088238806
-0.29009503 -0.049439501 -0.08915595
-0.25392726 -0.049439501 -0.083599351
-0.18813698 -0.049439497 -0.089693017
-0.1752561 -0.049439501 -0.08068198
-0.1213872 -0.049439501 -0.085887544
-0.072525889 -0.049439501 -0.085850626
-0.045698553 -0.049439501 -0.087068811
0.11192237 -0.049439501 -0.086732276
0.23933262 -0.049439497 -0.087360859
0.26247686 -0.049439505 -0.08622846
-0.29107365 -0.035497699 -0.085508049
-0.27824479 -0.035497699 -0.08465609
-0.17072614 -0.035497699 -0.080603763
-0.088814296 -0.035497699 -0.080070511
-0.052201368 -0.035497699 -0.084195964
-0.010831658 -0.035497699 -0.082961969
0.042832125 -0.035497699 -0.08332406
0.087985277 -0.035497699 -0.085204624
0.19969523 -0.035497699 -0.080962598
0.22067058 -0.035497699 -0.087562382
0.27609071 -0.035497699 -0.080357127
0.33706343 -0.035497699 -0.085287377
-0.36176485 -0.04178986 -0.079781532
-0.34012398 -0.049439501 -0.078446679
-0.31808275 -0.049439501 -0.077519245
-0.28835976 -0.049439501 -0.070827112
-0.24795905 -0.049439501 -0.078571133
-0.22939448 -0.049439497 -0.073176362
-0.15151919 -0.049439497 -0.075768083
-0.057377297 -0.049439501 -0.077953547
0.025865372 -0.049439501 -0.078590952
0.17331652 -0.049439497 -0.072707891
0.22594024 -0.049439501 -0.071680553
0.29555598 -0.049439501 -0.078767322
0.33046025 -0.049439505 -0.072992697
0.36033627 -0.049439505 -0.075057089
-0.36607069 -0.035497695 -0.076082118
-0.33756909 -0.035497699 -0.076490238
-0.204624 -0.035497703 -0.078304812
-0.055807665 -0.035497699 -0.071541741
0.0090841763 -0.035497699 -0.076621875
0.12877487 -0.035497699 -0.07207647
0.18660298 -0.035497699 -0.072811075
0.31775522 -0.035497699 -0.077923834
0.34312487 -0.035497699 -0.077152997
-0.38262188 -0.049439505 -0.06444139
-0.3738144 -0.049439501 -0.063039094
-0.34962901 -0.049439501 -0.060145572
-0.33487207 -0.049439497 -0.065890878
-0.24807537 -0.049439501 -0.068819635
-0.21369521 -0.049439497 -0.064273603
-0.15316534 -0.049439497 -0.064352676
0.10762001 -0.049439501 -0.061667424
0.16798881 -0.049439505 -0.068973571
0.22849774 -0.049439501 -0.067479104
0.29653537 -0.049439501 -0.063906178
-0.34032381 -0.035497699 -0.06639909
-0.32541108 -0.035497699 -0.06281209
-0.30607632 -0.035497699 -0.0661823
-0.20488743 -0.035497699 -0.067508712
-0.10054559 -0.035497699 -0.069434308
-0.088379912 -0.035497699 -0.060272042
0.052520715 -0.035497699 -0.066677436
0.079198457 -0.035497699 -0.061186425
0.085305139 -0.035497699 -0.063381948
0.11359984 -0.035497703 -0.060156904
0.12546434 -0.035497699 -0.064191371
0.14940579 -0.035497699 -0.063457265
0.18704218 -0.035497703 -0.062752843
0.25365981 -0.035497699 -0.060390022
0.26651433 -0.035497699 -0.069988064
0.32368097 -0.035497699 -0.062082268
0.33521581 -0.035497699 -0.062492441
-0.38067436 -0.049439497 -0.057559535
-0.34077027 -0.049439501 -0.051898621
-0.33827972 -0.049439497 -0.050615806
-0.19089203 -0.049439497 -0.05483263
-0.13698745 -0.049439501 -0.056476176
-0.092354402 -0.049439501 -0.053220592
-0.077669553 -0.049439501 -0.059693385
-0.055925146 -0.049439497 -0.056523718
0.059549421 -0.049439501 -0.050056353
0.083724648 -0.049439505 -0.055415992
0.10102207 -0.049439501 -0.059916638
0.11695782 -0.049439501 -0.054142863
0.17819366 -0.049439501 -0.053812698
0.2093246 -0.049439497 -0.054670881
0.2435661 -0.049439497 -0.058573991
0.35218203 -0.049439505 -0.056122489
0.39219654 -0.049439501 -0.057905819
-0.36484829 -0.035497699 -0.053843562
-0.35357252 -0.035497699 -0.056608927
-0.34497669 -0.035497699 -0.057154775
-0.31934994 -0.035497699 -0.056044072
-0.28804979 -0.035497699 -0.055135503
-0.21472859 -0.035497699 -0.05650609
-0.19107932 -0.035497699 -0.050063748
-0.1298907 -0.035497699 -0.050818238
-0.11186999 -0.035497695 -0.054958798
0.025961123 -0.035497699 -0.053137451
0.065252364 -0.035497699 -0.056257103
0.098301575 -0.035497699 -0.055180594
0.11482733 -0.035497699 -0.052132323
0.12484479 -0.035497699 -0.051399253
0.13933699 -0.035497699 -0.059889421
0.19741586 -0.035497699 -0.056275599
0.27631655 -0.035497699 -0.051220141
0.33336276 -0.035497703 -0.056285784
0.41943282 -0.035497699 -0.050876979
0.42426553 -0.037726179 -0.051056229
-0.43583843 -0.049439501 -0.041757446
-0.36514577 -0.049439501 -0.048241541
-0.28192362 -0.049439501 -0.040950753
-0.26735601 -0.049439501 -0.044180356
-0.20971349 -0.049439501 -0.043229915
-0.15038808 -0.049439501 -0.046740919
-0.089971974 -0.049439505 -0.048460659
0.0093803285 -0.049439505 -0.041057546
0.09367153 -0.049439501 -0.046784874
0.11897752 -0.049439505 -0.043741595
0.12517741 -0.049439505 -0.04045172
0.13884652 -0.049439501 -0.046889901
0.2102908 -0.049439505 -0.044933975
0.28506562 -0.049439501 -0.046873413
0.33577013 -0.049439497 -0.044989429
0.34774113 -0.049439497 -0.04089218
0.37797371 -0.049439501 -0.047280978
0.40599129 -0.049439501 -0.043465443
0.42714563 -0.049439501 -0.041696608
0.43308029 -0.046880711 -0.045554627
-0.41156977 -0.035497699 -0.045034233
-0.40033498 -0.035497699 -0.045137476
-0.3844232 -0.035497699 -0.044944458
-0.28167406 -0.035497699 -0.049675673
-0.27625495 -0.035497699 -0.040857099
-0.20552506 -0.035497699 -0.042386547
0.027269315 -0.035497699 -0.04346218
0.042592388 -0.035497699 -0.046627913
0.064151078 -0.035497699 -0.043665245
0.13757201 -0.035497699 -0.041081768
0.18244985 -0.035497703 -0.040193193
0.19313142 -0.035497699 -0.040246356
0.21504942 -0.035497699 -0.048033286
0.22393209 -0.035497699 -0.049316324
0.27457753 -0.035497699 -0.047729619
0.30029777 -0.035497699 -0.042539041
0.39256504 -0.035497699 -0.042072266
0.43742231 -0.037227005 -0.048610877
-0.44566402 -0.049439501 -0.035378732
-0.37916055 -0.049439505 -0.03159884
-0.31415141 -0.049439497 -0.039703295
-0.27387843 -0.049439501 -0.031360745
-0.26984605 -0.049439501 -0.038660549
-0.19850466 -0.049439501 -0.03111136
-0.1789787 -0.049439501 -0.038147386
-0.14171645 -0.049439501 -0.036476672
-0.099839754 -0.049439505 -0.033319652
0.0087613631 -0.049439501 -0.035532229
0.039658185 -0.049439501 -0.033759531
0.048900042 -0.049439505 -0.039993398
0.098179534 -0.049439501 -0.039495781
0.10872641 -0.049439501 -0.030928841
0.17864767 -0.049439497 -0.030820441
0.1917197 -0.049439501 -0.038232222
0.29690671 -0.049439505 -0.03772641
0.36223614 -0.049439501 -0.038090538
0.41245031 -0.049439501 -0.039985929
0.43263322 -0.049439501 -0.032555982
-0.46928382 -0.037878755 -0.035496593
-0.45549768 -0.035497699 -0.034210797
-0.43238449 -0.031667288 -0.038320001
-0.27946001 -0.035497699 -0.034531444
-0.25196064 -0.035497699 -0.030730709
-0.17324495 -0.035497699 -0.032599393
-0.143434 -0.035497699 -0.030395893
-0.1121137 -0.035497699 -0.03769001
-0.10060747 -0.035497699 -0.035065748
-0.062931538 -0.035497699 -0.033045512
-0.027347606 -0.035497695 -0.03200217
0.04471375 -0.035497699 -0.031912886
0.16580753 -0.035497703 -0.039065361
0.23427647 -0.035497699 -0.032071605
0.32975203 -0.035497699 -0.037340604
0.43117306 -0.031514201 -0.034379032
0.45202836 -0.035497699 -0.035983659
-0.47261065 -0.046562485 -0.02808797
-0.33121914 -0.049439497 -0.027410205
-0.32410893 -0.049439501 -0.025110561
-0.27878952 -0.049439501 -0.025447547
-0.234447 -0.049439501 -0.027590442
-0.026118526 -0.049439501 -0.021467198
0.025104964 -0.049439497 -0.023919109
0.06276688 -0.049439501 -0.024813473
0.10384962 -0.049439501 -0.029441152
0.12006116 -0.049439501 -0.025309198
0.32428953 -0.049439501 -0.026702143
0.37855339 -0.049439501 -0.021172928
0.42873618 -0.049439505 -0.028886367
0.44686201 -0.049439505 -0.021990843
-0.47000495 -0.035497699 -0.022517867
-0.46551141 -0.035497699 -0.025134051
-0.44415197 -0.035497703 -0.025567248
-0.42201152 -0.031514201 -0.028950714
-0.39982688 -0.031514201 -0.027301889
-0.32430482 -0.035497699 -0.024174985
-0.28855395 -0.035497699 -0.027819991
-0.26886907 -0.035497699 -0.026384251
-0.10502396 -0.035497699 -0.029197719
0.025205234 -0.035497699 -0.02226276
0.070593804 -0.035497699 -0.026557118
0.11064519 -0.035497699 -0.024836835
0.14303721 -0.035497699 -0.024517093
0.16967064 -0.035497699 -0.029898621
0.22525707 -0.035497699 -0.020922897
0.2888402 -0.035497699 -0.028450556
0.29481107 -0.035497699 -0.026310828
0.35144663 -0.035497699 -0.020528661
0.44279817 -0.031514201 -0.025300231
0.47167838 -0.035497695 -0.02642132
-0.41661656 -0.026795976 -0.0204814
0.41901779 0.0098684207 -0.026546
0.41979322 0.011597825 -0.026485719
-0.45584118 -0.049439497 -0.013428161
-0.44481575 -0.049439497 -0.016801169
-0.33431521 -0.049439501 -0.016461194
-0.30286139 -0.049439501 -0.014558665
-0.16702931 -0.049439501 -0.01424888
-0.058408562 -0.049439505 -0.0181059
-0.024807066 -0.049439501 -0.013298452
-0.018413788 -0.049439497 -0.012300709
-0.0050695608 -0.049439505 -0.013690997
0.0011428001 -0.049439501 -0.011821527
0.0444736 -0.049439501 -0.013289571
0.07667651 -0.049439501 -0.011429447
0.081778899 -0.049439501 -0.014999386
0.1182328 -0.049439501 -0.01758334
0.25261852 -0.049439501 -0.011874646
0.2691451 -0.049439501 -0.011154249
0.34775782 -0.049439497 -0.019263964
0.47643989 -0.046047296 -0.015141772
-0.46562621 -0.035497699 -0.01248356
-0.43129298 -0.031514201 -0.01601842
-0.35075313 -0.031514201 -0.014866614
-0.34726286 -0.034501825 -0.01606288
-0.32330245 -0.035497699 -0.015091442
-0.26786005 -0.035497699 -0.014770512
-0.23918578 -0.035497699 -0.016688224
-0.20192616 -0.035497699 -0.010813333
-0.19611987 -0.035497699 -0.01107402
-0.18162477 -0.035497699 -0.013848191
-0.054753024 -0.035497699 -0.017046122
-0.038008586 -0.035497699 -0.015159857
0.026195411 -0.035497699 -0.014870569
0.041276425 -0.035497699 -0.018548366
0.056383923 -0.035497699 -0.019793201
0.1649985 -0.035497699 -0.017284654
0.17425881 -0.035497699 -0.012247967
0.18947905 -0.035497695 -0.016711175
-0.37040234 -0.025325269 -0.015321316
0.37584835 -0.021174248 -0.012844183
-0.41814798 -0.016676413 -0.018494947
-0.40205839 1.502689e-05 -0.019389134
0.40762466 0.0068222843 -0.01386128
0.42373586 0.0020690681 -0.018521115
0.41907737 0.013327735 -0.016781453
-0.46235967 -0.049439501 -0.0073218681
-0.45089066 -0.049439501 -0.0020832736
-0.40181869 -0.049439501 -0.0084807267
-0.23493089 -0.049439501 -0.0065324269
-0.20446664 -0.049439501 -0.00490495
-0.14834562 -0.049439497 -0.00062335283
-0.13876069 -0.049439501 -0.0034536836
-0.12822245 -0.049439505 -0.006353125
-0.087674484 -0.049439505 -0.0075472258
-0.013743284 -0.049439501 -0.0067436164
0.040921688 -0.049439501 -0.0084386822
0.059497193 -0.049439505 -0.0056957081
0.060451798 -0.049439501 -0.0049933903
0.097968012 -0.049439497 -0.0064837076
0.1388886 -0.049439501 -0.0074724127
0.18758672 -0.049439505 -0.009245988
0.3590714 -0.049439501 -0.0077709537
0.37353393 -0.049439505 -0.0058825877
0.46509391 -0.049439501 -0.0083214529
0.47407401 -0.049439501 -0.0095098857
-0.47216007 -0.035497699 -0.0030983924
-0.43599236 -0.035640188 -0.0064188382
-0.36206061 -0.03082159 -0.0066386499
-0.33214998 -0.035497699 -0.004612288
-0.30283904 -0.035497699 -0.0085256211
-0.28689593 -0.035497699 -0.0042355433
-0.16447887 -0.035497699 -0.0074218661
-0.029061643 -0.035497699 -0.0074887089
-0.017837571 -0.035497699 -0.0096512139
0.059810463 -0.035497699 -0.0012114495
0.10758204 -0.035497699 -0.006315954
0.11016353 -0.035497699 -0.0087041222
0.1319426 -0.035497699 -0.0087604001
0.24704325 -0.035497699 -9.1146678e-05
0.27433619 -0.035497699 -0.003287643
0.28284001 -0.035497699 -0.0029053949
0.3198393 -0.035497699 -0.0061926618
0.35704499 -0.032365173 -0.007038021
-0.41814798 -0.020536326 -0.0094886515
-0.41814801 -0.016915068 -0.004502154
-0.39836654 -0.015798613 -0.00040201272
0.427742 -0.011689383 -0.0046977932
-0.41745597 -0.0059406664 -0.0023577763
-0.3928932 -0.0085333977 -0.0023121384
-0.38326684 -0.0072148619 -0.0054528732
0.41330904 -0.0069163856 -0.0036151293
-0.38027793 0.0057666404 -0.0065153744
-0.37245235 0.0046918811 -0.0079672597
0.39163867 0.0037796088 -0.0024913792
0.40464985 0.0086983638 -0.0088361045
0.42237383 0.0053608855 -0.0039299792
-0.38340944 0.018969305 -0.0095418999
0.38672796 0.018526416 -0.0057420656
0.41766062 0.016751487 -0.0028642151
-0.39490047 0.027456615 -0.0095418999
-0.37599593 0.022367055 -0.0047731842
0.41507748 0.022993632 -0.00078785903
-0.47782731 -0.042783443 0.0037719093
-0.34360191 -0.049439501 0.0036084503
-0.33491877 -0.049439497 0.0088869333
-0.27171656 -0.049439501 0.0054751132
-0.26515323 -0.049439501 0.0055230092
-0.23703444 -0.049439497 0.0029416233
-0.22057438 -0.049439501 0.0070147775
-0.12207162 -0.049439501 0.0095586479
-0.040020041 -0.049439501 0.0045662634
-0.033745762 -0.049439501 0.0062214974
0.16309913 -0.049439501 0.0091656763
0.19861028 -0.049439501 0.0034361072
0.22273821 -0.049439501 0.0032044351
0.27017725 -0.049439505 0.0072361198
0.29947415 -0.049439501 0.00895698
0.34163806 -0.049439501 0.006698098
0.35830909 -0.049439497 0.0099753086
0.40354797 -0.049439501 0.0075378786
0.45595226 -0.049439497 0.0088830832
0.46192366 -0.049439501 0.0070238002
-0.46902359 -0.035497699 0.0067581013
-0.45057386 -0.035497699 0.0010559596
-0.33812204 -0.035497699 0.0016746279
-0.32093608 -0.035497699 0.0066748187
-0.31903428 -0.035497699 0.0068115704
-0.27286753 -0.035497699 0.0054916646
-0.25397888 -0.035497699 0.0090963263
-0.1817213 -0.035497699 0.0039557666
-0.13323797 -0.035497699 0.0035412908
-0.070784047 -0.035497699 0.0082228109
-0.047648225 -0.035497699 0.0048687644
-0.026139297 -0.035497699 0.0035634451
0.0070787556 -0.035497699 0.006198626
0.076445282 -0.035497699 0.0024592392
0.088639021 -0.035497703 0.004706433
0.13170396 -0.035497699 0.0053652339
0.14806214 -0.035497699 0.0074571092
0.19219185 -0.035497699 0.0062188557
0.21059184 -0.035497699 0.0052033104
0.33304703 -0.035497699 0.0045518801
0.46233767 -0.035497699 0.0068625673
0.427742 -0.020753771 8.3851628e-05
-0.40327173 -0.013769229 0.0012045251
-0.35848209 -0.0031664304 0.00055802648
-0.39055938 0.0089934357 0.0038526659
-0.38256952 0.0045710295 0.0018129991
0.39239642 0.0027566284 0.0054258746
0.4050236 0.0088530239 0.0088842064
0.42252582 0.0049934611 0.0040635844
-0.40726787 0.018681161 0.0028605713
-0.37989295 0.023979627 0.0091128256
-0.43696398 -0.049439501 0.013770735
-0.39731368 -0.049439501 0.015291171
-0.38967359 -0.049439501 0.016089559
-0.36024299 -0.049439501 0.012297957
-0.35910922 -0.049439501 0.014860556
-0.34232384 -0.049439501 0.01951953
-0.30575597 -0.049439497 0.016039377
-0.23797639 -0.049439505 0.010408588
-0.21335426 -0.049439497 0.010525752
-0.18646434 -0.049439497 0.019338101
-0.096502155 -0.049439501 0.01010929
0.021541454 -0.049439501 0.019574001
0.13821939 -0.049439501 0.01860629
0.18913317 -0.049439501 0.019826353
0.25476173 -0.049439505 0.012486843
0.30321383 -0.049439501 0.019604683
0.37439501 -0.049439505 0.013722402
0.38596952 -0.049439501 0.016270723
0.44774494 -0.049439501 0.019379511
0.4766283 -0.045575581 0.014373032
-0.47154611 -0.035497699 0.018025516
-0.34796995 -0.035497695 0.010855932
-0.33849755 -0.035497699 0.01705081
-0.31927356 -0.035497699 0.018539028
-0.23939922 -0.035497699 0.01837365
-0.2015425 -0.035497699 0.013716718
-0.11065769 -0.035497699 0.011313729
-0.10367064 -0.035497703 0.019133605
-0.097256094 -0.035497699 0.019463923
-0.049974117 -0.035497699 0.018994052
-0.037409388 -0.035497699 0.01345681
-0.012160655 -0.035497699 0.011002386
0.07637842 -0.035497699 0.011332892
0.10764763 -0.035497699 0.01379914
0.12007335 -0.035497699 0.01875338
0.18213286 -0.035497699 0.019636568
0.2412267 -0.035497699 0.013335206
0.31725276 -0.035497699 0.013145503
0.32480776 -0.035497695 0.019822858
0.35964739 -0.031514201 0.012953378
0.37326992 -0.025687214 0.010537347
0.3818658 -0.020153539 0.018795418
0.427742 -0.023387374 0.012105767
-0.37933463 -0.012896191 0.016464099
-0.36761203 -0.016975863 0.011113713
0.39390367 -0.015071066 0.017591499
0.41057271 -0.00030289218 0.010380214
-0.40560099 0.016754527 0.014581094
-0.38160643 0.017888006 0.0128719
0.38897002 0.010229284 0.011870887
-0.38003612 0.024038874 0.010447511
0.40416151 0.020927992 0.0120614
-0.47340697 -0.0459796 0.026458841
-0.428514 -0.049439497 0.029363908
-0.40262908 -0.049439501 0.026489584
-0.37958321 -0.049439501 0.026237709
-0.3392309 -0.049439501 0.027499348
-0.27939242 -0.049439501 0.023873117
-0.20143068 -0.049439497 0.024864811
-0.088860959 -0.049439501 0.028326843
-0.022931473 -0.049439501 0.022306431
-0.019103058 -0.049439505 0.025878631
0.068011843 -0.049439497 0.027662238
0.1482213 -0.049439497 0.022099379
0.16851676 -0.049439501 0.025051512
0.19730535 -0.049439501 0.02980426
0.22588883 -0.049439501 0.029179089
0.247825 -0.049439501 0.025751866
0.25657898 -0.049439497 0.024206355
0.40069816 -0.049439501 0.02399113
0.42195579 -0.049439501 0.024749327
0.44869807 -0.049439501 0.027195891
-0.4650324 -0.035497699 0.024432369
-0.45911938 -0.035497699 0.021817032
-0.44175255 -0.035497699 0.02013211
-0.43574408 -0.031514201 0.028513415
-0.358798 -0.031514201 0.023238719
-0.33107254 -0.035497699 0.022416227
-0.32496527 -0.035497699 0.02035246
-0.31222183 -0.035497699 0.029539768
-0.27716556 -0.035497699 0.020961514
-0.096385717 -0.035497699 0.026203632
-0.088604517 -0.035497699 0.026498884
-0.0775268 -0.035497699 0.026627203
-0.068205528 -0.035497699 0.027826402
-0.042471975 -0.035497699 0.026771789
0.066821493 -0.035497699 0.020435367
0.10796929 -0.035497699 0.028718743
0.13016942 -0.035497699 0.020541981
0.29063836 -0.035497699 0.025617043
0.32523125 -0.035497699 0.02842804
0.35091662 -0.035497699 0.024446808
0.39431906 -0.031514201 0.028497823
0.42229828 -0.031514201 0.029510928
0.44331312 -0.031514201 0.026988769
-0.41304371 -0.027821299 0.025328301
0.39117497 -0.022744242 0.020900819
0.42478299 -0.025908379 0.025239103
-0.41254285 -0.00330601 0.025328301
0.42274982 -0.0049868515 0.025239101
-0.40889335 0.0050400971 0.025328301
-0.42515296 -0.049439497 0.038827963
-0.31270516 -0.049439497 0.033626106
-0.23117562 -0.049439501 0.031035759
-0.22808456 -0.049439501 0.032920688
-0.1089925 -0.049439501 0.03251072
0.18889648 -0.049439501 0.030442946
0.32192549 -0.049439505 0.039419536
0.33313495 -0.049439505 0.038993981
-0.41310355 -0.031514201 0.031980019
-0.38115376 -0.031514205 0.039742023
-0.348441 -0.032645945 0.03185844
-0.32102305 -0.035497699 0.036362443
-0.30255514 -0.035497699 0.032262564
-0.28451812 -0.035497699 0.03585336
-0.10454293 -0.035497699 0.035856951
-0.072407305 -0.035497699 0.03354343
-0.029213183 -0.035497699 0.037231274
-0.0021942842 -0.035497699 0.035258535
0.0063695479 -0.035497703 0.039038531
0.018405955 -0.035497699 0.039692037
0.037654474 -0.035497699 0.035751592
0.054115839 -0.035497699 0.035506602
0.16892008 -0.035497699 0.030051852
0.22326411 -0.035497699 0.038450651
0.23850116 -0.035497699 0.035181478
0.25622165 -0.035497699 0.038761556
0.38832724 -0.031514201 0.03201896
-0.45553976 -0.040199399 0.047406908
-0.39654642 -0.049439501 0.044081736
-0.38492647 -0.049439505 0.042409204
-0.29476464 -0.049439501 0.044285625
-0.28411317 -0.049439505 0.042259883
-0.25275335 -0.049439501 0.042924035
-0.20372698 -0.049439501 0.048021313
-0.1905133 -0.049439501 0.043900728
-0.13534001 -0.049439497 0.046215288
-0.017001674 -0.049439501 0.045408972
0.045875028 -0.049439501 0.043999821
0.055283234 -0.049439501 0.046961956
0.11637434 -0.049439497 0.043348439
0.19247563 -0.049439501 0.042797357
0.28009519 -0.049439505 0.04460647
0.38722038 -0.049439501 0.040227577
-0.46235466 -0.035497699 0.04710713
-0.33145511 -0.035497699 0.045808993
-0.28649956 -0.035497699 0.04174393
-0.2742168 -0.035497699 0.047206279
-0.15182024 -0.035497699 0.044163033
-0.12278882 -0.035497699 0.047085237
-0.098913275 -0.035497699 0.040099498
-0.044531465 -0.035497699 0.046949275
0.0082178144 -0.035497699 0.044962317
0.063765645 -0.035497699 0.048544787
0.11705299 -0.035497699 0.042830743
0.12966008 -0.035497699 0.049393728
0.14233935 -0.035497699 0.049254902
0.19268718 -0.035497699 0.04241455
0.27825758 -0.035497699 0.046806678
0.29991186 -0.035497699 0.043276846
0.36646122 -0.035497699 0.041988045
0.40386939 -0.035497699 0.047913779
0.4232814 -0.035497699 0.045174655
0.46302935 -0.035497699 0.041466508
-0.33945256 -0.049439501 0.050061129
-0.31865209 -0.049439505 0.05544566
-0.26526076 -0.049439501 0.056606214
-0.2554546 -0.049439501 0.057330426
-0.24304065 -0.049439497 0.054167911
-0.21734117 -0.049439501 0.053860903
-0.16772132 -0.049439505 0.057592981
-0.13518067 -0.049439501 0.058502119
-0.09326008 -0.049439501 0.057231765
-0.047645032 -0.049439501 0.057754364
0.028435595 -0.049439505 0.058807269
0.13393915 -0.049439497 0.054702379
0.14538263 -0.049439501 0.050469752
0.21345535 -0.049439501 0.056040227
0.23145735 -0.049439501 0.05075407
0.25061682 -0.049439501 0.054066628
0.31011963 -0.049439505 0.05431512
0.34306723 -0.049439501 0.055707254
0.41223359 -0.046241198 0.0546185
-0.38465592 -0.035497703 0.055741392
-0.2524994 -0.035497699 0.055637952
-0.1787198 -0.035497703 0.057586886
-0.11394195 -0.035497699 0.054788437
-0.076099478 -0.035497699 0.054732628
-0.042733043 -0.035497699 0.053084653
0.028365435 -0.035497699 0.055262297
0.11110437 -0.035497699 0.05841171
0.26473016 -0.035497699 0.053355902
0.31262636 -0.035497699 0.053835932
0.33112201 -0.035497699 0.053028643
0.34398466 -0.035497699 0.059393737
0.40382099 -0.038135111 0.057427283
-0.38225091 -0.049439497 0.063363343
-0.29511759 -0.049439501 0.06544105
-0.21058893 -0.049439501 0.067709729
-0.06218021 -0.049439501 0.066492759
-0.055199236 -0.049439501 0.066388078
0.12241548 -0.049439497 0.060531937
0.13140702 -0.049439497 0.065493718
0.22252351 -0.049439501 0.06231102
0.315889 -0.049439501 0.062856987
0.33755094 -0.049439501 0.060261875
0.38167289 -0.049439501 0.063573308
0.39391965 -0.040329676 0.061511237
-0.30043474 -0.035497699 0.065737322
-0.26330888 -0.035497699 0.06162449
-0.23599198 -0.035497699 0.06185431
-0.16476896 -0.035497699 0.062828049
-0.058258999 -0.035497699 0.065746382
0.0060557965 -0.035497699 0.068934172
0.028794719 -0.035497699 0.061091028
0.23368034 -0.035497699 0.069757275
0.24573834 -0.035497699 0.064875543
0.25365144 -0.035497699 0.060270675
0.33964646 -0.035497699 0.063993521
-0.35474575 -0.049439505 0.073893443
-0.32259291 -0.049439501 0.075478226
-0.24505046 -0.049439501 0.076783463
-0.23457481 -0.049439501 0.070799835
-0.13797694 -0.049439501 0.079563886
-0.1130877 -0.049439501 0.072354078
-0.10093118 -0.049439497 0.078978479
-0.097767107 -0.049439505 0.077973731
-0.057416514 -0.049439501 0.076257803
0.048202801 -0.049439505 0.074516878
0.05778962 -0.049439501 0.076215185
0.16488296 -0.049439505 0.078209169
0.18395093 -0.049439501 0.076086432
0.22292456 -0.049439501 0.070087761
0.25976789 -0.049439501 0.072329991
0.28557003 -0.049439497 0.076865263
0.29085532 -0.049439501 0.078372225
0.3021059 -0.049439505 0.071657948
0.32876748 -0.049439501 0.072787426
0.33682486 -0.049439497 0.074625954
0.34154201 -0.049439501 0.075958624
0.35835004 -0.049439501 0.073781386
-0.32736832 -0.035497699 0.071228079
-0.31387746 -0.035497699 0.076987118
-0.25993484 -0.035497699 0.073232278
-0.20509124 -0.035497699 0.07728751
-0.14272167 -0.035497699 0.078795791
-0.13694939 -0.035497699 0.076183178
-0.064021453 -0.035497699 0.071971923
0.01791906 -0.035497699 0.073670827
0.17126261 -0.035497695 0.076258905
0.19831429 -0.035497699 0.078983657
0.20020401 -0.035497699 0.072397821
0.32851622 -0.035497695 0.07109528
-0.351455 -0.0442365 0.088618092
-0.33704194 -0.049439501 0.080706649
-0.32469115 -0.049439501 0.08291547
-0.27409682 -0.049439505 0.082179494
-0.14593193 -0.049439501 0.082148455
-0.11424682 -0.049439501 0.085500941
-0.09887065 -0.049439501 0.089414358
0.0089620864 -0.049439501 0.08466237
0.019267904 -0.049439501 0.087382831
0.030571453 -0.049439501 0.082095802
0.12632442 -0.049439505 0.085586838
0.13760206 -0.049439501 0.084961422
0.20834696 -0.049439501 0.085831463
0.22514182 -0.049439501 0.08484254
0.31338462 -0.049439501 0.08069776
-0.32024264 -0.035497699 0.080059238
-0.31295583 -0.035497699 0.089894049
-0.27284598 -0.035497699 0.085295156
-0.23158787 -0.035497699 0.083048105
-0.18717295 -0.035497699 0.089116454
-0.11033357 -0.035497699 0.084530212
-0.089827746 -0.035497699 0.084551662
-0.025827162 -0.035497699 0.082674891
0.028149806 -0.035497699 0.087571107
0.043573003 -0.035497699 0.087737687
0.069641434 -0.035497699 0.081448525
0.084754296 -0.035497699 0.084406145
0.097208738 -0.035497699 0.082570046
0.10166385 -0.035497699 0.080130197
0.11144485 -0.035497699 0.0810894
0.17583016 -0.035497699 0.08193621
0.24715576 -0.035497699 0.085068136
0.3263236 -0.035497699 0.083799198
-0.24689144 -0.049439501 0.093926273
-0.11885053 -0.049439501 0.091344997
-0.10425798 -0.049439501 0.091256432
-0.044569883 -0.049439505 0.093067236
0.023832783 -0.049439501 0.094881073
0.078229994 -0.049439501 0.091601297
0.099592313 -0.049439501 0.094626509
0.13937657 -0.049439497 0.094607487
0.15755084 -0.049439501 0.097308919
0.16675311 -0.049439501 0.098653778
0.21452166 -0.049439501 0.09909831
0.31999111 -0.049439501 0.09950307
-0.3239581 -0.035497699 0.097926646
-0.28537005 -0.035497699 0.093397692
-0.2316469 -0.035497699 0.099131726
-0.19145164 -0.035497699 0.095750332
-0.053788178 -0.035497699 0.095112115
-0.0031114155 -0.035497699 0.098828927
0.13376412 -0.035497699 0.091512784
0.18087965 -0.035497699 0.096774071
0.22961377 -0.035497699 0.097296886
0.23511551 -0.035497699 0.098208107
0.32777092 -0.035497699 0.098424062
0.34196731 -0.035497699 0.096890427
-0.25043082 -0.049439505 0.10831659
-0.20785646 -0.049439501 0.1002602
-0.17756963 -0.049439497 0.10653949
-0.14814046 -0.049439501 0.10569797
-0.095556743 -0.049439501 0.10511768
-0.067549966 -0.049439501 0.10107395
-0.032603785 -0.049439501 0.10381213
-0.028607506 -0.049439501 0.10120049
0.010634188 -0.049439497 0.10877314
0.057882689 -0.049439501 0.10974396
0.067619599 -0.049439497 0.10200483
0.091715038 -0.049439501 0.10765669
0.11708471 -0.049439497 0.10675406
0.13840765 -0.049439501 0.10100348
0.19936875 -0.049439505 0.1019322
0.21225955 -0.049439501 0.10295241
0.24497324 -0.049439505 0.10444394
0.28405216 -0.049439501 0.10548049
0.2981655 -0.049439501 0.10858727
0.30420825 -0.049439501 0.10180197
-0.2119455 -0.035497699 0.10815802
-0.15476024 -0.035497699 0.10912231
-0.035739854 -0.035497699 0.10780722
-0.024159016 -0.035497699 0.10272867
0.011212678 -0.035497699 0.10182732
0.044147957 -0.035497699 0.1012828
0.062979266 -0.035497699 0.10720745
0.070279106 -0.035497699 0.1024126
0.17341872 -0.035497699 0.1029814
0.19654593 -0.035497699 0.10570268
0.23455086 -0.035497699 0.10584089
0.25881287 -0.035497699 0.10530841
-0.32066432 -0.049439501 0.1146353
-0.29110175 -0.049439501 0.11283614
-0.28221515 -0.049439501 0.11662039
-0.2543312 -0.049439501 0.11703105
-0.19420025 -0.049439501 0.1171769
-0.091739073 -0.049439505 0.11994292
-0.038698237 -0.049439497 0.11407927
0.011181509 -0.049439497 0.11286262
0.029555902 -0.049439501 0.11781407
0.13080162 -0.049439501 0.11248447
0.16090131 -0.049439501 0.11070757
0.22692867 -0.049439501 0.11048888
0.31721672 -0.045215208 0.11538282
-0.30235118 -0.037077181 0.11604051
-0.25525275 -0.035497699 0.11935154
-0.20318049 -0.035497695 0.11226098
-0.18961781 -0.035497699 0.11121476
-0.15124847 -0.035497699 0.11110624
-0.10017221 -0.035497699 0.11399749
-0.058263808 -0.035497695 0.11258154
-0.01931534 -0.035497699 0.11399243
0.0036706557 -0.035497699 0.11635869
0.018501475 -0.035497703 0.11264484
0.065360315 -0.035497699 0.11617251
0.076227397 -0.035497699 0.11879875
0.19264495 -0.035497699 0.11383589
0.21406926 -0.035497699 0.11806247
0.25755978 -0.03791352 0.11953636
-0.20609994 -0.049439501 0.12228771
-0.15747613 -0.040196367 0.12462021
-0.1300327 -0.049439501 0.12486372
-0.090332702 -0.046570934 0.12659611
-0.07246533 -0.049439505 0.12631245
-0.008076394 -0.049439505 0.12312171
0.061836671 -0.049174629 0.12716331
0.12607351 -0.049439497 0.12344797
0.17941618 -0.048679527 0.12368576
0.18463475 -0.040526651 0.12344349
0.21776129 -0.040879071 0.12190559
0.22607848 -0.042024463 0.12141694
-0.2330671 -0.039630987 0.12099947
-0.20369694 -0.038387574 0.12255853
-0.19234611 -0.035740849 0.12308548
-0.088200532 -0.035497699 0.12624593
-0.014161671 -0.036030617 0.1275744
0.0036653399 -0.035774972 0.12764376
0.060620211 -0.035988472 0.12718754
