# .PCD v0.7 - Point Cloud Data file format
VERSION 0.7
FIELDS x y z
SIZE 4 4 4
TYPE F F F
COUNT 1 1 1
WIDTH 851
HEIGHT 1
VIEWPOINT 0 0 0 1 0 0 0
POINTS 851
DATA ascii
-0.40358931 0.028374944 -0.082092755
-0.3964909 0.027323229 -0.082358159
-0.37542459 0.025274299 -0.084688097
-0.3543064 0.026231907 -0.0847449
-0.33801225 0.029320141 -0.0847449
-0.3019653 0.026577134 -0.0847449
-0.2286614 0.028304268 -0.0847449
-0.18622561 0.025718018 -0.0847449
-0.15836731 0.029336929 -0.0847449
-0.14566116 0.029569419 -0.0847449
-0.13860974 0.025274299 -0.082680821
-0.12249433 0.025274299 -0.084114283
-0.0865964 0.025274299 -0.084480897
-0.074157082 0.025274299 -0.082146168
-0.048844993 0.029833939 -0.0847449
0.035488248 0.025274299 -0.081198625
0.085884392 0.025274299 -0.082832277
0.14389479 0.027885649 -0.0847449
0.22280478 0.026883751 -0.0847449
0.23375052 0.025859803 -0.0847449
0.26275873 0.025274299 -0.084021255
0.30659717 0.026007101 -0.084482834
-0.38727209 0.032905903 -0.083007321
-0.30764955 0.031865802 -0.08334998
-0.25634724 0.031865802 -0.084644005
-0.15664837 0.031865802 -0.081660189
-0.098165698 0.030357698 -0.0847449
-0.063355461 0.031865802 -0.080756612
-0.013904563 0.031865802 -0.083125971
0.024395883 0.031865802 -0.08111304
0.033131219 0.031865802 -0.081845671
0.082125522 0.030608436 -0.0847449
0.22948688 0.031865802 -0.084640704
0.26499811 0.031865802 -0.084296755
0.28067124 0.031865802 -0.081527241
0.34406868 0.031865802 -0.081039764
0.35842001 0.031324491 -0.084529951
-0.37782976 0.025388218 -0.076259606
-0.34917307 0.025274299 -0.073136076
-0.32479483 0.025274299 -0.074612923
-0.29663637 0.025274299 -0.076899633
-0.21882409 0.025274299 -0.073594928
-0.18080819 0.025274299 -0.07116805
-0.11701947 0.025274299 -0.071675293
-0.080708638 0.025274299 -0.0721834
-0.04818207 0.025274299 -0.078928337
0.0060267299 0.025274299 -0.073432401
0.12898213 0.025274299 -0.079371154
0.18659197 0.025274299 -0.076366469
0.24154451 0.025274299 -0.077858917
0.33040991 0.025274299 -0.074060492
0.39294022 0.026923763 -0.075486898
-0.42436576 0.031350367 -0.076161273
-0.41191992 0.036071621 -0.072327271
-0.34094977 0.031865802 -0.07341148
-0.23600858 0.031865802 -0.072214529
-0.20187561 0.031865802 -0.077514857
-0.15942554 0.031865802 -0.070837297
-0.11770729 0.031865802 -0.077446572
-0.070540413 0.031865802 -0.073256291
-0.0080661848 0.031865802 -0.073454663
0.052558009 0.031865802 -0.078558438
0.07233271 0.031865802 -0.075505979
0.083815515 0.031865802 -0.076596573
0.10810833 0.031865802 -0.075089701
0.12350449 0.031865802 -0.077615112
0.13103567 0.031865802 -0.079310611
0.15700425 0.031865802 -0.073354296
0.18422854 0.031865802 -0.07086546
0.19284551 0.031865802 -0.075492397
0.2060779 0.031865802 -0.071006961
0.24106494 0.031865802 -0.077160597
0.27434826 0.031865802 -0.072988398
0.36458188 0.031865802 -0.07388404
-0.40076143 0.027857753 -0.067594171
-0.31924534 0.025274299 -0.060348123
-0.28246972 0.025274299 -0.065745808
-0.25716087 0.025274299 -0.062985733
-0.24006715 0.025274299 -0.065126017
-0.14094013 0.025274299 -0.064025916
-0.091099896 0.025274299 -0.061393797
-0.06014061 0.025274299 -0.065595999
0.031777874 0.025274299 -0.067645587
0.054971322 0.025274299 -0.068688951
0.10044754 0.025274299 -0.069448426
0.11070754 0.025274299 -0.067923471
0.14861727 0.025274299 -0.06943991
0.16163552 0.025274299 -0.060742155
0.17062551 0.025274299 -0.063787401
0.22182289 0.025274299 -0.06240467
0.28060746 0.025274299 -0.062797472
0.30829072 0.025274299 -0.063444175
0.31387585 0.025274299 -0.067302369
0.35859483 0.025274299 -0.060219914
-0.4505564 0.036375254 -0.062921152
-0.3802461 0.032211505 -0.067700878
-0.36377633 0.031865802 -0.063354015
-0.24508269 0.031865802 -0.068902373
-0.12456496 0.031865802 -0.066983283
-0.11053653 0.031865802 -0.061612677
-0.10152575 0.031865802 -0.060431253
-0.070666611 0.031865802 -0.063076243
-0.03106124 0.031865802 -0.065719277
0.10082024 0.031865802 -0.062010828
0.11181146 0.031865802 -0.065721922
0.13345695 0.031865802 -0.064378597
0.14904037 0.031865802 -0.07
0.15285237 0.031865802 -0.065558672
0.1664504 0.031865802 -0.062987201
0.17717901 0.031865802 -0.064950295
0.20671788 0.031865802 -0.065864034
0.22166002 0.031865802 -0.066481821
0.24640951 0.031865802 -0.064956158
0.25407526 0.031865802 -0.069142267
0.27679205 0.031865802 -0.066059932
0.32483912 0.031865802 -0.06261614
0.37250105 0.031865802 -0.067406341
0.39112312 0.033338971 -0.061371222
0.41444385 0.033109859 -0.064351946
0.43469328 0.033178434 -0.065191664
0.43587464 0.04021306 -0.068865113
-0.37152296 0.025274299 -0.058216766
-0.34297493 0.025274299 -0.058161385
-0.33311641 0.025274299 -0.050046943
-0.32102242 0.025274299 -0.051745363
-0.30611193 0.025274299 -0.051286027
-0.27499005 0.025274299 -0.053562146
-0.24079676 0.025274299 -0.059616763
-0.22828758 0.025274299 -0.050285701
-0.21077223 0.025274299 -0.056147777
-0.12155668 0.025274299 -0.051073425
0.073629357 0.025274299 -0.059453905
0.25546023 0.025274299 -0.054058384
0.26102448 0.025274299 -0.054299437
0.27043349 0.025274299 -0.052484296
0.3532398 0.025274299 -0.056104105
0.36411551 0.025274299 -0.05838104
-0.40712553 0.035372656 -0.054555774
-0.33088148 0.031865802 -0.055028357
-0.2915352 0.031865802 -0.054930173
-0.14559865 0.031865802 -0.053801745
-0.11887737 0.031865802 -0.056842204
-0.0030049104 0.031865802 -0.058602098
0.073934413 0.031865802 -0.055376071
0.14437453 0.031865802 -0.059901994
0.19620386 0.031865802 -0.055927526
0.20880413 0.031865798 -0.051676556
0.24383977 0.031865802 -0.057327431
0.25867739 0.031865802 -0.053958453
0.26538366 0.031865802 -0.054783382
0.28703123 0.031865802 -0.051103834
0.33077973 0.031865802 -0.052866463
0.3572073 0.031865802 -0.050580107
0.38723704 0.032901958 -0.053275384
0.39935312 0.034329765 -0.054234378
0.40776974 0.035466447 -0.059116054
0.42113012 0.037534967 -0.059993733
0.43332803 0.039710294 -0.05416058
0.44554919 0.035297263 -0.057216778
0.4644255 0.03966102 -0.052472927
0.43731701 0.040497854 -0.057269529
-0.21454832 0.025274299 -0.047483914
-0.18071496 0.025274299 -0.040236197
-0.16521308 0.025274299 -0.049082778
-0.15891181 0.025274299 -0.044083655
-0.13840969 0.025274299 -0.042642955
-0.082172759 0.025274299 -0.04317518
-0.01659853 0.025274299 -0.044229269
0.0056054443 0.025274299 -0.042898796
0.065989248 0.025274299 -0.040313412
0.088156477 0.025274299 -0.044136874
0.11070754 0.025274299 -0.043306697
0.16174509 0.025274299 -0.040082045
0.26541531 0.025274299 -0.044592317
0.27110147 0.025274299 -0.04069411
0.28187305 0.025274299 -0.047973488
0.312877 0.025274299 -0.043506332
0.3251614 0.025274299 -0.048213828
0.34806079 0.025274299 -0.04095282
0.35615325 0.025274299 -0.047908239
0.37373602 0.025274299 -0.047497008
0.40146995 0.027948946 -0.045688517
-0.45470881 0.03728091 -0.044042081
-0.42389083 0.031258389 -0.046978667
-0.41286919 0.036210023 -0.047700729
-0.40492406 0.035051778 -0.045605734
-0.37492007 0.031865802 -0.042797789
-0.36760688 0.031865802 -0.04347387
-0.35486555 0.031865802 -0.043423526
-0.33352897 0.031865802 -0.040497769
-0.29875892 0.031865802 -0.04444176
-0.27160284 0.031865802 -0.046341747
-0.19846003 0.031865802 -0.045301404
-0.15565407 0.031865802 -0.047241282
-0.14355522 0.031865802 -0.049814567
-0.11546259 0.031865802 -0.042828433
-0.041562527 0.031865802 -0.046795726
-0.038447704 0.031865802 -0.042534027
-0.012223538 0.031865802 -0.044316195
0.029716153 0.031865802 -0.049291283
0.049400285 0.031865802 -0.043572377
0.05954475 0.031865802 -0.049951926
0.13703465 0.031865802 -0.04995022
0.15296905 0.031865802 -0.043071561
0.21560091 0.031865802 -0.040135637
0.22627899 0.031865802 -0.049035955
0.2433271 0.031865802 -0.040790047
0.26903823 0.031865802 -0.044919588
0.27997538 0.031865802 -0.048609022
0.29619774 0.031865802 -0.043654136
0.31563175 0.031865802 -0.047728382
0.41320974 0.036259539 -0.043503623
-0.47573334 0.04311201 -0.040668204
-0.46291941 0.046226349 -0.046708371
0.43966922 0.040962279 -0.045912635
0.45617849 0.044587709 -0.040123865
0.46909705 0.045555025 -0.047920763
-0.39056611 0.026656851 -0.030707097
-0.38589871 0.02616342 -0.034909699
-0.21971041 0.025274299 -0.038801041
-0.20319122 0.025274299 -0.033207763
-0.14976457 0.025274299 -0.032984659
-0.092742383 0.025274299 -0.03708956
0.026892524 0.025274299 -0.031170173
0.032481596 0.025274299 -0.03701368
0.11990263 0.025274299 -0.035221815
0.12817931 0.025274299 -0.035446413
0.2622079 0.025274299 -0.039395269
0.31594652 0.025274299 -0.03322845
0.40634179 0.028577155 -0.038515765
-0.45061904 0.036388725 -0.036770187
-0.42338765 0.034554984 -0.037324362
-0.41515166 0.036562182 -0.034894407
-0.34044009 0.031865802 -0.030523732
-0.21875665 0.031865802 -0.038447622
-0.15605859 0.031865802 -0.035367355
-0.14534244 0.031865802 -0.039041981
-0.067681149 0.031865802 -0.039512955
-0.0090417266 0.031865802 -0.034516156
0.045546215 0.031865802 -0.03487774
0.09261892 0.031865802 -0.032596987
0.10919947 0.031865802 -0.038117424
0.1383751 0.031865802 -0.036138281
0.18059361 0.031865802 -0.031188272
0.20346779 0.031865802 -0.035960261
0.21173626 0.031865802 -0.039650459
0.22362232 0.031865802 -0.037118591
0.27452752 0.031865802 -0.039259352
0.28159055 0.031865802 -0.033572074
0.30791217 0.031865802 -0.034781344
0.36885002 0.031865802 -0.031561989
0.41777092 0.036988284 -0.038088087
0.4251833 0.038228329 -0.031822726
0.45855865 0.038178265 -0.038382858
-0.47267228 0.041653007 -0.032693334
-0.46040943 0.045594543 -0.039091393
-0.43581805 0.040202133 -0.036285862
0.43691587 0.040418681 -0.038213022
0.46509784 0.046774536 -0.036727943
0.47738066 0.042926289 -0.030355044
-0.31570792 0.025274299 -0.023874991
-0.3076494 0.025274299 -0.023688421
-0.27039164 0.025274299 -0.021261498
-0.26291686 0.025274299 -0.022690231
-0.17178862 0.025274299 -0.026462113
-0.15451315 0.025274299 -0.029392144
-0.10492496 0.025274299 -0.020073347
-0.095924385 0.025274299 -0.024708508
-0.087772459 0.025274299 -0.025524234
-0.034421653 0.025274299 -0.026543498
0.08608751 0.025274299 -0.020923605
0.19538969 0.025274299 -0.025631633
0.25121835 0.025274299 -0.024563409
0.27834606 0.025274299 -0.02493936
0.39448494 0.027097503 -0.029909812
0.40476501 0.028373884 -0.026365628
-0.42023861 0.037390031 -0.028027371
-0.40190893 0.034659609 -0.021894062
-0.37075704 0.031865802 -0.021728776
-0.32643884 0.031865802 -0.026412062
-0.28733492 0.031865802 -0.02132808
-0.25887793 0.031865802 -0.025265098
-0.17777312 0.031865802 -0.02696828
-0.1453401 0.031865802 -0.026381943
-0.094067231 0.031865802 -0.027245764
-0.046294216 0.031865802 -0.024382507
-0.031347368 0.031865802 -0.027845236
0.013489068 0.031865802 -0.028857768
0.037538879 0.031865802 -0.027291996
0.055860177 0.031865802 -0.024779152
0.076644763 0.031865802 -0.022771876
0.098268785 0.031865802 -0.029139265
0.11426005 0.031865802 -0.022920586
0.15201813 0.031865802 -0.027331941
0.16049737 0.031865802 -0.02411725
0.18155301 0.031865802 -0.021216806
0.19743267 0.031865802 -0.026685026
0.20003808 0.031865802 -0.029144611
0.22755963 0.031865802 -0.022637218
0.25045153 0.031865802 -0.028389927
0.30587631 0.031865802 -0.027278196
0.31301522 0.031865802 -0.02565686
0.34552139 0.031865802 -0.024358405
0.41252455 0.036159664 -0.026970306
0.45565629 0.037501454 -0.026289232
0.46594882 0.03995309 -0.025731659
-0.48226643 0.044267856 -0.023747949
-0.47963777 0.043536779 -0.027783964
0.47877291 0.04330286 -0.026405225
-0.33616346 0.025274299 -0.015948329
-0.2977922 0.025274299 -0.015729191
-0.19665921 0.025274299 -0.01856906
-0.17950189 0.025274299 -0.015702259
-0.060952619 0.025274299 -0.010101579
-0.017442118 0.025274299 -0.019973509
0.01322107 0.025274299 -0.014958091
0.033118065 0.025274299 -0.014084711
0.052031234 0.025274299 -0.012416128
0.14267802 0.025274299 -0.017728666
0.22158146 0.025274299 -0.014850387
0.27008972 0.025274299 -0.014823565
0.31581569 0.025274299 -0.017186806
0.32477888 0.025274299 -0.015477526
0.3779819 0.025402738 -0.011890393
0.38909468 0.02649124 -0.01418408
-0.39138103 0.033367977 -0.011348046
-0.34985933 0.031865802 -0.015605138
-0.29906875 0.031865802 -0.012625583
-0.23892805 0.031865802 -0.019125197
-0.16653249 0.031865802 -0.014119148
-0.11432827 0.031865802 -0.017949026
-0.10806335 0.031865802 -0.017123882
-0.028744109 0.031865802 -0.011832348
-0.0061534494 0.031865802 -0.01526089
0.0036055073 0.031865802 -0.019719902
0.031501085 0.031865802 -0.016744517
0.13660157 0.031865802 -0.017925452
0.1534559 0.031865802 -0.019876689
0.16133051 0.031865802 -0.017676637
0.18189517 0.031865805 -0.016531091
0.19774002 0.031865802 -0.019656945
0.21644737 0.031865802 -0.018049121
0.22586474 0.031865802 -0.016129898
0.24450648 0.031865802 -0.01013267
0.26974732 0.031865802 -0.013475891
0.27449489 0.031865802 -0.014637064
0.30102822 0.031865802 -0.018241074
0.31253666 0.031865802 -0.012136579
0.37664503 0.030222617 -0.017898589
0.3894287 0.033148423 -0.018716732
0.40265861 0.034756359 -0.019756386
0.44206744 0.034596317 -0.019292522
-0.48325846 0.044555493 -0.016867898
-0.47628018 0.042628728 -0.016036116
0.44984347 0.043120198 -0.015031024
0.48268145 0.051587269 -0.013378534
-0.33484209 0.025274299 -0.0098518617
-0.30177325 0.025274299 -0.0090813879
-0.2987774 0.025274299 -0.0040288493
-0.27913776 0.025274299 -0.0013292264
-0.24925746 0.025274299 -0.0016247714
-0.21667182 0.025274299 -0.0083899107
-0.20833978 0.025274299 -0.0063946247
-0.16535005 0.025274299 -0.0080182487
-0.13601424 0.025274299 -0.0043418212
-0.10014948 0.025274299 -0.0089471871
-0.063085757 0.025274299 -0.0060994178
-0.0066985488 0.025274299 -0.0075874515
0.056604896 0.025274299 -0.0074548991
0.10611114 0.025274299 -0.0019379221
0.19512275 0.025274299 -0.0094283465
0.21308291 0.025274299 -0.0017006416
0.26961601 0.025274299 -0.0041433303
0.2761215 0.025274299 -0.0046430659
0.34984916 0.025274299 -0.0027683005
0.36029512 0.025274299 -0.0038284888
0.37066686 0.025274299 -0.0059262402
0.3991724 0.027652828 -0.00032514334
-0.4273884 0.03862517 -0.0068193823
-0.37117115 0.031865802 -0.0011036955
-0.18539071 0.031865802 -0.0045939349
-0.12796703 0.031865802 -0.00059649162
-0.097136147 0.031865802 -0.0026898403
-0.014378686 0.031865802 -0.00063491944
0.038075782 0.031865802 -0.0043482147
0.090084299 0.031865802 -0.0071307868
0.1063908 0.031865802 -0.00066237524
0.11360903 0.031865802 -0.0032990212
0.16574346 0.031865802 -0.0043644407
0.18682796 0.031865802 -0.0010082945
0.23498324 0.031865802 -0.0065299496
0.24586293 0.031865802 -0.0069527058
0.25472388 0.031865802 -0.0071797962
0.29356512 0.031865802 -0.0048933653
0.30794322 0.031865802 -0.0097763836
0.31876597 0.031865802 -0.0021615252
0.33158749 0.031865802 -0.0037453249
0.34108663 0.031865802 -0.0053164922
0.41801867 0.037028603 -0.0088613741
0.43106958 0.032501906 -0.0064453296
0.46012628 0.038544316 -0.0011349898
-0.45188946 0.04358726 -0.0032328349
0.44104257 0.041237608 -0.00811515
0.48853192 0.04677707 -0.0057227393
-0.40464309 0.028358201 0.0057732351
-0.34810549 0.025274299 0.0069716759
-0.32957569 0.025274299 0.0027588713
-0.30417174 0.025274299 0.005855646
-0.2851522 0.025274299 0.0088639222
-0.25341082 0.025274299 0.0018126084
-0.23246685 0.025274299 0.0081589539
-0.20971 0.025274299 0.0069627799
-0.18256056 0.025274299 0.0087410603
-0.17373413 0.025274299 0.0034951959
-0.16065577 0.025274299 0.0036623981
-0.13320975 0.025274299 0.0042836899
-0.1139872 0.025274299 0.0040905429
-0.084547527 0.025274299 0.0067964094
-0.060523719 0.025274299 0.0051534772
-0.037160836 0.025274299 0.0061349282
0.076812044 0.025274299 0.0067541208
0.10550389 0.025274299 0.0065817069
0.11822177 0.025274299 0.008438847
0.14081866 0.025274299 0.0097054346
0.18668646 0.025274299 0.0044052005
0.22573148 0.025274299 0.0050659981
0.30459717 0.025274299 0.0038270168
0.32394749 0.025274299 0.0097212009
0.38512167 0.026088674 0.00034520961
-0.43795326 0.033784159 0.0079907645
-0.39719951 0.034051828 0.0045568943
-0.29243314 0.031865802 0.0021420904
-0.25579119 0.031865802 0.0052181073
-0.20071551 0.031865802 0.0013092626
-0.18078959 0.031865802 0.0066469572
-0.17082439 0.031865802 0.00089896843
-0.16479181 0.031865802 0.004525125
-0.094832718 0.031865802 0.0033919122
-0.062325031 0.031865802 0.0043395017
-0.017275834 0.031865802 9.2712697e-05
0.07223133 0.031865802 0.004246145
0.10011877 0.031865802 0.0033184402
0.19516645 0.031865802 0.0039885398
0.21396104 0.031865802 0.001916117
0.22502835 0.031865802 0.0078359209
0.23408787 0.031865802 0.0058022961
0.24612866 0.031865802 0.0051383008
0.26931733 0.031865802 0.0059073381
0.29389057 0.031865802 0.0057465411
0.34197286 0.031865798 0.0093788393
0.42465067 0.034768365 0.0060422882
0.43350431 0.039745189 0.0019853427
-0.47928026 0.043440115 0.0031455732
-0.45528182 0.04437837 0.0052899644
-0.4443863 0.04194621 0.0035978891
0.46961674 0.040876321 0.00018930435
-0.4818455 0.051345319 0.0038976818
-0.39234805 0.02685727 0.010690067
-0.33897442 0.025274299 0.01698908
-0.32596818 0.025274299 0.011307823
-0.3186655 0.025274299 0.019821469
-0.28158897 0.025274299 0.014421877
-0.24258724 0.025274299 0.010123082
-0.20304188 0.025274299 0.019652119
-0.17270805 0.025274299 0.015474997
-0.13134938 0.025274299 0.017131912
-0.1135146 0.025274299 0.016577527
-0.06289994 0.025274299 0.019232422
-0.05349981 0.025274299 0.012495358
-0.042721346 0.025274299 0.01489228
-0.023539782 0.025274299 0.017590953
0.026553759 0.025274299 0.013351891
0.084762052 0.025274299 0.019117787
0.095800392 0.025274299 0.018168554
0.1298109 0.025274299 0.019135825
0.13638765 0.025274299 0.010827437
0.15435115 0.025274299 0.010682136
0.29910141 0.025274299 0.01225012
0.34028465 0.025274299 0.014457267
0.37566736 0.025274299 0.013571235
0.391579 0.026770661 0.011072512
0.41142702 0.029306449 0.018428857
-0.42719224 0.034067281 0.013343669
-0.41731399 0.033545587 0.012624457
-0.36980528 0.031865802 0.012187671
-0.35567218 0.031865802 0.012994787
-0.32125881 0.031865802 0.011784386
-0.2903837 0.031865802 0.017983519
-0.23182666 0.031865802 0.017046748
-0.21042722 0.031865802 0.014376035
-0.2088258 0.031865802 0.016825123
-0.15674511 0.031865802 0.011825938
-0.12777048 0.031865802 0.012550602
-0.025634175 0.031865802 0.011497296
0.072271064 0.031865802 0.013446376
0.090723321 0.031865802 0.010145532
0.10721159 0.031865802 0.019249856
0.20236924 0.031865802 0.012236379
0.25583714 0.031865802 0.017635588
0.28941041 0.031865802 0.017197642
0.30583835 0.031865802 0.012585396
0.31714094 0.031865802 0.011506561
0.32093439 0.031865805 0.016506325
0.37933263 0.032123767 0.015560023
0.3825438 0.032431986 0.013538662
0.39502519 0.033807032 0.016426606
0.40074256 0.034509078 0.011479557
0.42080089 0.03748139 0.014742364
0.4586668 0.045167886 0.012548886
-0.41208136 0.029401902 0.025799014
-0.40442127 0.028329603 0.022035092
-0.39955562 0.027702352 0.029863618
-0.31806752 0.025274299 0.025765816
-0.29301351 0.025274299 0.02227165
-0.18423027 0.025274299 0.028372463
-0.1651012 0.025274299 0.028941127
-0.15383409 0.025274299 0.027511623
-0.1488097 0.025274299 0.023144681
-0.10301786 0.025274299 0.025910236
-0.082792968 0.025274299 0.023899194
-0.07584399 0.025274299 0.028587054
-0.049901132 0.025274299 0.025546767
-0.036071777 0.025274299 0.02118562
0.12293165 0.025274299 0.029422028
0.15993114 0.025274299 0.027080262
0.20407762 0.025274299 0.026069893
0.24732611 0.025274299 0.020644519
0.25703353 0.025274299 0.029963717
0.26221824 0.025274299 0.021277308
0.28268197 0.025274299 0.023018721
0.29780665 0.025274299 0.022956409
0.3189871 0.025274299 0.02711443
0.33445176 0.025274299 0.027675234
0.35412437 0.025274299 0.0230958
0.37650707 0.025274299 0.022888301
-0.46177769 0.03892947 0.026436888
-0.44799101 0.035823073 0.025576498
-0.2471393 0.031865802 0.022673078
-0.21812505 0.031865802 0.024500828
-0.19304769 0.031865802 0.023796173
-0.1676521 0.031865802 0.028142832
-0.15073846 0.031865802 0.022029404
-0.11615371 0.031865802 0.022420922
-0.10698406 0.031865802 0.028291158
-0.046838388 0.031865802 0.021461522
0.12713167 0.031865802 0.025925064
0.13185224 0.031865802 0.027622757
0.1446203 0.031865802 0.020350387
0.1768102 0.031865802 0.029690035
0.18315335 0.031865802 0.025679281
0.19005869 0.031865802 0.025794037
0.25068706 0.031865802 0.022272442
0.26769537 0.031865802 0.025048146
0.29662946 0.031865802 0.022701645
0.30245185 0.031865802 0.022616459
0.31098491 0.031865802 0.026160423
0.3318606 0.031865802 0.02266264
0.34597033 0.031865802 0.02699819
0.3853904 0.032705203 0.02029144
0.39397705 0.03365992 0.022445649
0.40266448 0.034757115 0.027218584
0.44416627 0.035013206 0.027651547
-0.46665484 0.047166619 0.026034947
-0.40585864 0.028528126 0.034030996
-0.38260129 0.025846632 0.037087567
-0.29989493 0.025274299 0.034251608
-0.24151289 0.025274299 0.039051004
-0.080191791 0.025274299 0.039847568
-0.067831993 0.025274299 0.032239974
-0.020987425 0.025274299 0.032352276
0.057397142 0.025274299 0.037770718
0.064225942 0.025274299 0.0332211
0.094165333 0.025274299 0.037445404
0.13296954 0.025274299 0.036759473
0.176461 0.025274299 0.034318876
0.21267167 0.025274299 0.034405686
0.24936262 0.025274299 0.031039502
0.28848615 0.025274299 0.033634007
0.30004951 0.025274299 0.031518795
0.31574699 0.025274299 0.032544546
0.34236148 0.025274299 0.038597882
0.37024352 0.025274299 0.039547347
-0.43340421 0.039725687 0.03888756
-0.42895859 0.032122154 0.033154123
-0.3553108 0.031865802 0.037412938
-0.34921789 0.031865802 0.039645944
-0.28758013 0.031865802 0.034496043
-0.26025176 0.031865802 0.033640873
-0.21903864 0.031865802 0.035871029
-0.20574287 0.031865798 0.033493537
-0.184682 0.031865802 0.034060303
-0.024043046 0.031865802 0.033200599
0.01541304 0.031865802 0.031341203
0.17598471 0.031865802 0.038643077
0.23662476 0.031865802 0.036898561
0.29027236 0.031865802 0.032692801
0.37522155 0.031633798 0.032773115
0.455347 0.037429616 0.033389829
-0.4470582 0.042521022 0.035358232
0.43838298 0.040708378 0.03633146
-0.27111387 0.025274299 0.041211642
-0.23093168 0.025274299 0.043921798
-0.20410672 0.025274299 0.044121493
-0.19439378 0.025274299 0.044373959
-0.17192191 0.025274299 0.046379823
-0.084042951 0.025274299 0.048955493
-0.042618468 0.025274299 0.042682346
-0.014518205 0.025274299 0.047973089
0.033668235 0.025274299 0.048326574
0.043082409 0.025274299 0.041046873
0.050880045 0.025274299 0.041040167
0.090631202 0.025274299 0.045819648
0.17224732 0.025274299 0.045211803
0.18979625 0.025274299 0.049768381
0.19725309 0.025274299 0.044188399
0.2259941 0.025274299 0.043620881
0.28703952 0.025274299 0.047516786
0.31178349 0.025274299 0.041959621
0.35776514 0.025274299 0.04311303
0.37457317 0.025274299 0.04317943
0.38816679 0.026386879 0.047921717
-0.42455876 0.031356208 0.047871374
-0.37614733 0.031994827 0.042713799
-0.36753348 0.031865802 0.049895667
-0.31409115 0.031865802 0.043493442
-0.30390298 0.031865802 0.043676864
-0.29091096 0.031865802 0.041989271
-0.2796092 0.031865802 0.044820517
-0.20702749 0.031865802 0.042194329
-0.15409029 0.031865802 0.040323578
-0.14661856 0.031865805 0.044467084
-0.13991281 0.031865802 0.049041435
0.0049893409 0.031865802 0.04289823
0.064374879 0.031865802 0.045758799
0.070107214 0.031865802 0.047861185
0.11152255 0.031865802 0.047442935
0.15320468 0.031865802 0.045724016
0.16294338 0.031865802 0.04749212
0.19894862 0.031865802 0.049206227
0.20848873 0.031865802 0.047843564
0.2244648 0.031865802 0.049871132
0.2631976 0.031865802 0.047051065
0.27387145 0.031865802 0.047499292
0.2990185 0.031865802 0.040350258
0.30422577 0.031865802 0.040761512
0.32231599 0.031865802 0.046761565
0.33830515 0.031865802 0.04484145
0.36293393 0.031865802 0.042263988
0.37150949 0.031865805 0.04546982
0.38066438 0.032251589 0.040716179
0.3951453 0.0337913 0.040698186
0.42336947 0.031162482 0.049256869
0.43091941 0.032474846 0.046569169
0.45197302 0.036679957 0.041874178
-0.4349789 0.040036578 0.040821679
0.46884131 0.044432998 0.048168853
-0.41499203 0.029826177 0.052075367
-0.34525633 0.025274299 0.052465521
-0.28155053 0.025274299 0.056099176
-0.26328951 0.025274299 0.059255674
-0.22442645 0.025274299 0.050645709
-0.21824494 0.025274299 0.05485804
-0.20899694 0.025274299 0.054983668
-0.12225504 0.025274299 0.050670292
-0.084783673 0.025274299 0.054707479
-0.042203158 0.025274299 0.056899972
0.032061309 0.025274299 0.055299819
0.063695371 0.025274299 0.057302177
0.090116695 0.025274299 0.057921525
0.21449053 0.025274299 0.054229371
0.26116499 0.025274299 0.053558592
0.28958356 0.025274299 0.053538729
0.29364806 0.025274301 0.052177455
0.30487618 0.025274301 0.053066988
0.31524208 0.025274297 0.05749004
0.33451164 0.025274299 0.052476946
0.36683398 0.025274299 0.057197209
-0.44106817 0.034399159 0.052748427
-0.37384176 0.031865802 0.055002488
-0.35588583 0.031865802 0.056443125
-0.30360264 0.031865802 0.053768564
-0.282978 0.031865802 0.055344183
-0.26099861 0.031865802 0.058356512
-0.23534685 0.031865802 0.053934067
-0.18197306 0.031865802 0.051285721
-0.080038235 0.031865802 0.050834756
-0.047640219 0.031865802 0.055331856
-0.0024596602 0.031865802 0.05547554
0.094226763 0.031865802 0.051206049
0.10397598 0.031865802 0.05105995
0.11886054 0.031865802 0.052847084
0.12230871 0.031865802 0.052792761
0.13658395 0.031865802 0.052253101
0.18983829 0.031865802 0.051643308
0.19296995 0.031865802 0.05629066
0.27048254 0.031865802 0.052790843
0.29373211 0.031865802 0.053966936
0.31315213 0.031865802 0.05662743
0.34591866 0.031865802 0.056429621
0.35208416 0.031865802 0.055274755
0.37664497 0.030618865 0.05362089
0.38385418 0.032557756 0.053571112
0.463687 0.039393459 0.05319107
-0.45266259 0.043767471 0.051462289
-0.43758696 0.040551424 0.059007455
0.44620383 0.042337127 0.051691987
-0.37671578 0.025281195 0.065298826
-0.31864434 0.025274299 0.063742265
-0.24138458 0.025274299 0.062350538
-0.2122829 0.025274299 0.065632701
-0.20003116 0.025274299 0.062312152
-0.17505419 0.025274299 0.063340478
-0.12877142 0.025274299 0.062381409
-0.093563579 0.025274299 0.063524656
-0.083038554 0.025274299 0.068637967
-0.065207526 0.025274299 0.064693801
-0.059607029 0.025274299 0.068486989
-0.040859595 0.025274299 0.061625332
0.046362881 0.025274299 0.066334948
0.11372651 0.025274299 0.065239608
0.14886016 0.025274299 0.064378515
0.16268978 0.025274299 0.06074566
0.18701385 0.025274299 0.067137174
0.24301471 0.025274299 0.067901857
0.26387176 0.025274299 0.061755173
0.27878395 0.025274299 0.068591654
0.30961677 0.025274299 0.067144036
0.33204731 0.025274299 0.066518106
-0.4323501 0.032732334 0.06710232
-0.41882306 0.030422706 0.063345052
-0.3570019 0.031865802 0.068978637
-0.34460473 0.031865802 0.063285328
-0.33366174 0.031865802 0.067018978
-0.28537828 0.031865802 0.064552255
-0.24763218 0.031865802 0.069424644
-0.21678978 0.031865802 0.062008873
-0.19512406 0.031865802 0.064544663
-0.13420874 0.031865802 0.06437432
-0.10865436 0.031865802 0.063322462
0.0036636963 0.031865802 0.063113622
0.010788471 0.031865802 0.063173063
0.058951322 0.031865802 0.061125029
0.10825241 0.031865802 0.061270222
0.11384384 0.031865802 0.060502701
0.13369745 0.031865802 0.064462423
0.2552467 0.031865802 0.061754949
0.26090971 0.031865802 0.066446997
0.27335274 0.031865802 0.067981333
0.297382 0.031865802 0.0669671
0.33126432 0.031865802 0.069290332
0.4021416 0.034689635 0.064835235
0.42740577 0.03184263 0.065311827
-0.43891114 0.040812835 0.066816889
-0.40325391 0.028179124 0.070589803
-0.39027214 0.026623787 0.076373488
-0.32636192 0.025274299 0.074890614
-0.26780999 0.025274299 0.078203544
-0.25610775 0.025274299 0.079024836
-0.12711322 0.025274299 0.075963147
-0.071271777 0.025274299 0.075589232
-0.062329456 0.025274299 0.074766494
0.05861257 0.025274299 0.075156316
0.081843466 0.025274299 0.070712022
0.092237934 0.025274299 0.070555195
0.11416595 0.025274299 0.071608782
0.16952731 0.025274299 0.078874782
0.18370616 0.025274299 0.073924474
0.27174279 0.025274299 0.076258227
0.32751396 0.025274299 0.070833512
0.34639382 0.025274299 0.073096789
0.37001517 0.025274299 0.079419225
-0.43113375 0.037677072 0.07406424
-0.42964053 0.032244846 0.070448965
-0.37152687 0.031865802 0.070605099
-0.36924767 0.031865802 0.079927206
-0.35753146 0.031865802 0.076953992
-0.34834448 0.031865802 0.07139314
-0.32167223 0.031865802 0.078230292
-0.24921122 0.031865802 0.07110168
-0.22010504 0.031865802 0.075116187
-0.21887153 0.031865802 0.072797105
-0.17233099 0.031865802 0.071362294
-0.16717497 0.031865802 0.078822203
-0.14650947 0.031865802 0.079036951
-0.11911247 0.031865802 0.077242598
-0.10234815 0.031865802 0.077200197
-0.09472084 0.031865802 0.078136213
-0.087101385 0.031865802 0.07826528
-0.055668954 0.031865802 0.075408354
-0.036205076 0.031865802 0.078837566
0.0060802624 0.031865802 0.079883434
0.01616125 0.031865802 0.079842001
0.038077079 0.031865802 0.078236245
0.21955837 0.031865802 0.076388873
0.23716468 0.031865802 0.073885806
0.2573601 0.031865802 0.074328065
0.26792705 0.031865805 0.076633297
0.28401655 0.031865802 0.073645219
0.29296812 0.031865802 0.073901236
0.30498105 0.031865802 0.074831069
0.31749606 0.031865802 0.077624038
0.3447457 0.031865802 0.076598927
0.38779122 0.032964274 0.075046942
0.41651747 0.030048396 0.075061336
0.42126924 0.037557609 0.076688692
0.43194944 0.03309454 0.073182456
-0.37966618 0.025564646 0.082393736
-0.35239905 0.026503045 0.084743902
-0.3091259 0.026020257 0.084743902
-0.27539396 0.025274299 0.082438312
-0.22505204 0.027112724 0.083273657
-0.18871814 0.027763538 0.084743902
-0.16845056 0.025274299 0.080881283
-0.12964624 0.025274299 0.083030954
-0.10603777 0.028176447 0.084743895
-0.088494174 0.026013793 0.084743902
-0.059689045 0.025274299 0.080172256
-0.035092771 0.025274299 0.080094367
0.053579137 0.025274299 0.084072262
0.074429326 0.028994065 0.084743902
0.091606632 0.026951114 0.084743902
0.11330847 0.025582556 0.084743902
0.15967615 0.02914542 0.084743902
0.17279227 0.027861733 0.084743902
0.22273868 0.026367258 0.084743895
0.25263947 0.026486024 0.084743902
0.29713154 0.029938513 0.084743902
0.31176123 0.025274299 0.083453067
0.36829224 0.025886418 0.084743902
-0.40130809 0.034582064 0.080684267
-0.35323739 0.031865802 0.082331114
-0.34954664 0.031865802 0.080591932
-0.30175725 0.030264808 0.084743902
-0.25993177 0.031197343 0.084743895
-0.24727139 0.030983884 0.08326593
-0.21406572 0.030880444 0.084743895
-0.18627423 0.030555647 0.08474391
-0.14319879 0.031865802 0.081411429
-0.12053537 0.030073991 0.084743902
-0.083654925 0.03085492 0.084743902
0.036921151 0.031865802 0.080840342
0.045971338 0.031865802 0.08318501
0.054429051 0.031865802 0.083292
0.19207075 0.031865802 0.080038965
0.20112832 0.031865802 0.084733561
0.21130037 0.031240694 0.084694102
0.2350263 0.031865802 0.081556395
0.27718452 0.031865802 0.081168368
0.28213507 0.031865802 0.083221547
0.3250452 0.031865802 0.084492862
0.34290105 0.031865802 0.08176069
