# .PCD v0.7 - Point Cloud Data file format
VERSION 0.7
FIELDS x y z
SIZE 4 4 4
TYPE F F F
COUNT 1 1 1
WIDTH 913
HEIGHT 1
VIEWPOINT 0 0 0 1 0 0 0
POINTS 913
DATA ascii
-0.36660165 -0.00083461404 -0.13272412
-0.35309333 -0.0052122809 -0.13356026
-0.33397841 -0.00053324504 -0.13440999
-0.32310095 -0.0054190182 -0.13440999
-0.31360927 -0.0036852132 -0.13440999
-0.29588619 -0.0076259701 -0.13266337
-0.27316466 -0.0076259701 -0.13010629
-0.13570081 -0.0076259701 -0.13431643
-0.074410878 -0.0052773152 -0.13432981
0.0085601062 -0.00087483483 -0.13440999
0.15900874 -0.0030883278 -0.13440999
0.24964359 -0.0056003472 -0.13440999
0.25120652 -0.0061724638 -0.13440999
-0.27716297 0.0076259701 -0.13269976
-0.26196718 0.0012015535 -0.13440999
-0.23745723 0.0067127328 -0.13344263
-0.18387362 0.0023460197 -0.13440999
-0.17517728 0.0076259701 -0.1337412
-0.12568352 0.0076259701 -0.13047592
-0.10455906 0.0033696776 -0.13440999
-0.087065354 0.0038274964 -0.13440999
0.053792581 0.0072145769 -0.13440999
0.13597068 0.0048178821 -0.13440999
0.21750888 0.0056108385 -0.13440999
0.24746887 0.0075568114 -0.13324636
0.26486039 0.0055855112 -0.13371781
0.35188156 0.00055633788 -0.13349925
-0.40846181 -0.00068008667 -0.12064263
-0.35628408 -0.0076259701 -0.1223136
-0.26395178 -0.0076259701 -0.12488902
-0.24974264 -0.0076259701 -0.12961163
-0.20226927 -0.0076259701 -0.12618029
-0.15710494 -0.0076259701 -0.12872374
-0.10664877 -0.0076259701 -0.12177019
-0.075663581 -0.0076259701 -0.12164345
-0.068807557 -0.0076259701 -0.12648307
0.034374833 -0.0076259701 -0.12751088
0.056537919 -0.0076259701 -0.12912294
0.080192089 -0.0076259701 -0.12770104
0.18574329 -0.0076259701 -0.12681678
0.21988203 -0.0076259701 -0.12708531
0.3724986 -0.0076259701 -0.12111433
-0.37357488 0.0076259701 -0.12076258
-0.36434862 0.0076259701 -0.12542126
-0.35924333 0.0076259701 -0.1231674
-0.28115314 0.0076259701 -0.121311
-0.26712155 0.0076259701 -0.12349194
-0.24176052 0.0076259701 -0.12779528
-0.18001628 0.0076259701 -0.1211298
-0.107375 0.0076259701 -0.12429237
-0.023857966 0.0076259701 -0.12168396
0.21744931 0.0076259701 -0.12332498
-0.18723825 -0.0076259701 -0.11461766
-0.15323016 -0.0076259701 -0.11408164
-0.073519476 -0.0076259701 -0.11528645
-0.064984024 -0.0076259701 -0.11440888
-0.035447739 -0.0076259701 -0.11925553
0.042222861 -0.0076259701 -0.11629855
0.098110303 -0.0076259701 -0.11448334
0.23808883 -0.0076259701 -0.1149255
0.33819318 -0.0076259701 -0.11098677
0.37685654 -0.0076259701 -0.11040476
-0.41289401 0.0059822933 -0.11392053
-0.33911765 0.0076259701 -0.11070139
-0.31647694 0.0076259701 -0.11109669
-0.28371495 0.0076259701 -0.11046442
-0.20714831 0.0076259701 -0.1164497
-0.18666407 0.0076259701 -0.11848848
-0.16052787 0.0076259701 -0.11356633
-0.067745656 0.0076259701 -0.11493797
-0.044884443 0.0076259701 -0.11306021
-0.03412728 0.0076259701 -0.11797914
-0.013652088 0.0076259701 -0.1120047
0.041523144 0.0076259701 -0.11685945
0.15359294 0.0076259701 -0.11737656
0.22523853 0.0076259701 -0.11101336
0.28072268 0.0076259701 -0.119431
0.30905133 0.0076259701 -0.11078241
-0.35207573 -0.0076259701 -0.10774359
-0.32207581 -0.0076259701 -0.10294225
-0.21557087 -0.0076259701 -0.10157318
-0.1859576 -0.0076259701 -0.10645357
-0.17162956 -0.0076259701 -0.10226753
-0.11681661 -0.0076259701 -0.10207918
-0.020466194 -0.0076259701 -0.1086468
0.030433409 -0.0076259701 -0.10678312
0.17282131 -0.0076259701 -0.10193864
0.28284496 -0.0076259701 -0.10373634
0.34074581 -0.0076259701 -0.1020787
0.37667459 -0.0076259696 -0.10312884
-0.36698779 0.0076259701 -0.10238609
-0.29613882 0.0076259701 -0.10726888
-0.1801289 0.0076259701 -0.10920374
-0.14537619 0.0076259701 -0.10969558
-0.086440578 0.0076259696 -0.10004772
-0.026962385 0.0076259701 -0.10236241
0.006348446 0.0076259701 -0.10179244
0.1099726 0.0076259701 -0.10798632
0.14679147 0.0076259701 -0.10628591
0.19085494 0.0076259701 -0.10322419
0.29972437 0.0076259705 -0.10024697
0.31730035 0.0076259701 -0.10466011
0.35779157 0.0076259701 -0.10056356
0.37435368 0.0076259701 -0.10263576
-0.4391728 -0.0066645024 -0.099549346
-0.4175272 -0.0076259701 -0.090393722
-0.38440412 -0.0076259701 -0.090846762
-0.30910233 -0.0076259701 -0.095243804
-0.26353949 -0.0076259701 -0.092058845
-0.14942493 -0.0076259701 -0.098835982
-0.11564349 -0.0076259701 -0.096239649
-0.037085921 -0.0076259701 -0.097331628
0.13192247 -0.0076259701 -0.098813608
0.18707253 -0.0076259701 -0.090217702
0.19180192 -0.0076259701 -0.09900637
0.2391233 -0.0076259701 -0.090588331
0.32832846 -0.0076259701 -0.099095643
0.37356898 -0.0076259701 -0.09566208
0.4035812 -0.0076259701 -0.09659785
0.4374553 -0.0034324313 -0.099676684
-0.43491229 0.0076259701 -0.092834547
-0.42538303 0.0076259701 -0.093784899
-0.36781871 0.0076259701 -0.094249316
-0.29779407 0.0076259701 -0.093668692
-0.08104676 0.0076259701 -0.090652123
-0.049510293 0.0076259701 -0.095261648
-0.036441594 0.0076259701 -0.099004567
-0.013159499 0.0076259701 -0.092874743
0.036893889 0.0076259701 -0.094158806
0.049816631 0.0076259701 -0.091149554
0.053383593 0.0076259701 -0.090358034
0.10517354 0.0076259701 -0.096436188
0.25867546 0.0076259701 -0.098839767
0.26782128 0.0076259701 -0.098423928
0.36131808 0.0076259701 -0.091663152
-0.45096827 -0.0076259701 -0.080982387
-0.44858208 -0.0024428854 -0.088078775
-0.35582551 -0.0076259701 -0.089882925
-0.25090331 -0.0076259701 -0.085419722
-0.19432332 -0.0076259701 -0.082777888
-3.59267e-05 -0.0076259701 -0.088355169
0.011730984 -0.0076259701 -0.082621187
0.02523829 -0.0076259701 -0.080853298
0.04624027 -0.0076259701 -0.082565203
0.099382266 -0.0076259701 -0.082139671
0.11349697 -0.0076259701 -0.083878055
0.17531709 -0.0076259701 -0.082399949
0.40200186 -0.0076259701 -0.086177878
-0.37484142 0.0076259701 -0.081788123
-0.30196184 0.0076259701 -0.089850083
-0.2801919 0.0076259701 -0.081586041
-0.25034177 0.0076259701 -0.083956204
-0.24555445 0.0076259701 -0.083208889
-0.0637144 0.0076259701 -0.085904367
0.056078389 0.0076259701 -0.088043064
0.083392426 0.0076259701 -0.085771516
0.097700268 0.0076259701 -0.086927466
0.1416194 0.0076259701 -0.08170101
0.27282184 0.0076259701 -0.080456592
0.43089908 0.0076259701 -0.086033866
-0.39668837 -0.0076259701 -0.077558383
-0.31297407 -0.0076259701 -0.076681957
-0.24242486 -0.0076259701 -0.079588786
-0.18631619 -0.0076259701 -0.079954043
-0.11364487 -0.0076259701 -0.076411009
-0.080647901 -0.0076259701 -0.079868942
-0.064851686 -0.0076259701 -0.072472036
-0.0055106059 -0.0076259701 -0.076378718
0.025689865 -0.0076259701 -0.071572967
0.10749634 -0.0076259701 -0.074973017
0.13297454 -0.0076259701 -0.076341957
0.15844581 -0.0076259701 -0.073277965
0.17389816 -0.0076259701 -0.077076837
0.22572613 -0.0076259701 -0.074123085
0.36309618 -0.0076259701 -0.077958122
0.45617315 -0.0053308681 -0.078016818
-0.45954251 0.0042981301 -0.074687377
-0.41115585 0.0076259701 -0.077040873
-0.34141126 0.0076259701 -0.075770006
-0.33181578 0.0076259701 -0.074424475
-0.32660732 0.0076259701 -0.072017103
-0.28527722 0.0076259701 -0.076251075
-0.18447335 0.0076259701 -0.071262814
-0.15619621 0.0076259701 -0.076828673
-0.147811 0.0076259701 -0.07011456
-0.13085699 0.0076259701 -0.077084906
-0.067027241 0.0076259701 -0.079930983
0.010011885 0.0076259701 -0.071148731
0.072628975 0.0076259701 -0.075128555
0.098916069 0.0076259705 -0.076967441
0.10698178 0.0076259701 -0.07120382
0.12593982 0.0076259701 -0.077919066
0.1698682 0.0076259701 -0.078374922
0.26601005 0.0076259696 -0.074472673
0.29802048 0.0076259701 -0.072514221
-0.42002028 -0.0076259705 -0.063285418
-0.41745442 -0.0076259701 -0.063452296
-0.40818635 -0.0076259701 -0.065959528
-0.39876139 -0.0076259701 -0.065664813
-0.35764572 -0.0076259701 -0.063336633
-0.34812671 -0.0076259701 -0.065510273
-0.31448901 -0.0076259701 -0.064934105
-0.22332445 -0.0076259701 -0.06195654
-0.20486575 -0.0076259701 -0.063883863
-0.10692529 -0.0076259701 -0.067951813
-0.061716318 -0.0076259701 -0.0611673
-0.018342927 -0.0076259701 -0.063118391
-0.0013799444 -0.0076259701 -0.06590198
0.018607408 -0.0076259701 -0.061996754
0.022129551 -0.0076259701 -0.064600371
0.047366761 -0.0076259701 -0.061527461
0.21425205 -0.0076259701 -0.060400754
0.22182101 -0.0076259701 -0.065635875
0.24559367 -0.0076259701 -0.065087713
0.25899276 -0.0076259701 -0.06596598
0.30982274 -0.0076259701 -0.062898129
-0.46532589 0.0076259701 -0.062919378
-0.20070574 0.0076259701 -0.063997194
-0.19715044 0.0076259701 -0.065497816
-0.1619764 0.0076259701 -0.064362153
-0.035675511 0.0076259701 -0.061142799
0.11782731 0.0076259701 -0.064846523
0.13829757 0.0076259701 -0.060336776
0.1992019 0.0076259701 -0.064984992
0.23992656 0.0076259701 -0.067250535
0.25939915 0.0076259701 -0.06214131
0.2701332 0.0076259701 -0.06327574
0.29431266 0.0076259701 -0.065050572
0.31078377 0.0076259701 -0.064759433
0.39882025 0.0076259701 -0.065058291
0.41013801 0.0076259701 -0.062020671
-0.38527149 -0.0076259701 -0.058750615
-0.23432267 -0.0076259701 -0.056198716
-0.17250238 -0.0076259701 -0.0587347
-0.13132286 -0.0076259701 -0.052292369
-0.1155245 -0.0076259701 -0.056046873
-0.071289748 -0.0076259701 -0.056737125
-0.057176307 -0.0076259701 -0.0500063
-0.036318347 -0.0076259701 -0.056493677
-0.0059313029 -0.0076259701 -0.058140025
0.09684521 -0.0076259701 -0.056093551
0.10609777 -0.0076259701 -0.054358773
0.17801365 -0.0076259701 -0.053300261
0.22718656 -0.0076259701 -0.058282774
0.29295865 -0.0076259701 -0.05887302
0.30326578 -0.0076259701 -0.051344875
0.36821741 -0.0076259701 -0.057217214
0.42451641 -0.0076259701 -0.055314146
0.46854866 -0.0076259701 -0.05441957
-0.19969511 0.0076259701 -0.058511451
-0.13616227 0.0076259701 -0.051927052
-0.093404062 0.0076259701 -0.054722682
-0.089821845 0.0076259701 -0.059327491
-0.074669227 0.0076259701 -0.054931939
0.032639451 0.0076259701 -0.054780073
0.079916745 0.0076259701 -0.05238606
0.17136784 0.0076259701 -0.051131628
0.2160971 0.0076259701 -0.056936771
0.2524949 0.0076259701 -0.051990569
0.29050699 0.0076259701 -0.058073338
0.34915459 0.0076259701 -0.05714979
0.36643645 0.0076259701 -0.054775894
0.44388011 0.0076259701 -0.052603308
-0.33291012 -0.0076259701 -0.044961933
-0.287395 -0.0076259701 -0.042285591
-0.24915686 -0.0076259701 -0.04984422
-0.21564418 -0.0076259701 -0.046382651
-0.20684503 -0.0076259701 -0.049725346
-0.15024424 -0.0076259701 -0.042731918
-0.079879381 -0.0076259701 -0.049227938
-0.05469723 -0.0076259701 -0.040980183
0.0031136051 -0.0076259701 -0.045945708
0.059990481 -0.0076259701 -0.045921654
0.06173709 -0.0076259701 -0.041022427
0.071349047 -0.0076259701 -0.046225328
0.09210749 -0.0076259701 -0.043866195
0.10178472 -0.0076259701 -0.042350382
0.33205998 -0.0076259701 -0.045890596
0.35498017 -0.0076259701 -0.045152206
0.37516436 -0.0076259701 -0.042703129
0.44203451 -0.0076259701 -0.04439928
-0.4452686 0.0076259701 -0.047558557
-0.38329372 0.0076259701 -0.049384911
-0.37604964 0.0076259696 -0.047017612
-0.25821772 0.0076259701 -0.042991582
-0.093762457 0.0076259701 -0.043840606
-0.064907059 0.0076259701 -0.041322745
-0.034657747 0.0076259701 -0.04394307
-0.019016251 0.0076259701 -0.047442034
0.00050158799 0.0076259701 -0.044838261
0.028979313 0.0076259701 -0.04388082
0.078611895 0.0076259701 -0.045924976
0.14905062 0.0076259701 -0.043478221
0.17442474 0.0076259701 -0.044104785
0.21726874 0.0076259701 -0.044811435
0.22917208 0.0076259696 -0.047894508
0.25514776 0.0076259701 -0.046236172
0.29326072 0.0076259701 -0.044113461
0.33776304 0.0076259701 -0.048911303
0.34697929 0.0076259701 -0.047373254
0.36580396 0.0076259701 -0.048292108
0.39689571 0.0076259701 -0.042198624
-0.47613975 -0.0068184584 -0.039056953
-0.46670413 -0.0076259701 -0.031334959
-0.45140868 -0.0076259701 -0.032086052
-0.34756455 -0.0076259701 -0.036101043
-0.29610455 -0.0076259701 -0.039173111
-0.26578489 -0.0076259701 -0.037433367
-0.23115633 -0.0076259701 -0.035806984
-0.21410492 -0.0076259701 -0.032381743
-0.19987187 -0.0076259701 -0.033026829
-0.15839082 -0.0076259701 -0.034048006
-0.14287776 -0.0076259701 -0.038985301
-0.13995236 -0.0076259701 -0.036062233
0.077092603 -0.0076259701 -0.035874076
0.12557627 -0.0076259701 -0.031276111
0.18754496 -0.0076259701 -0.039085887
0.26669875 -0.0076259701 -0.039996006
0.35676965 -0.0076259701 -0.031936593
0.37928098 -0.0076259701 -0.035232197
0.40272564 -0.0076259701 -0.032769397
-0.47626036 0.0034106502 -0.039145306
-0.43623367 0.0076259701 -0.037233293
-0.40934879 0.0076259701 -0.033837564
-0.26333037 0.0076259705 -0.039344355
-0.24514067 0.0076259701 -0.037576068
-0.20546786 0.0076259701 -0.035420302
-0.087474696 0.0076259701 -0.032808896
-0.04967913 0.0076259701 -0.030144818
-0.018697426 0.0076259701 -0.039830133
0.023705512 0.0076259701 -0.037721351
0.10609272 0.0076259701 -0.033117082
0.11232373 0.0076259701 -0.034597799
0.17726962 0.0076259701 -0.031933703
0.18445517 0.0076259701 -0.036764342
0.21610136 0.0076259696 -0.038878381
0.2297274 0.0076259701 -0.036738083
0.2619594 0.0076259701 -0.037308566
0.28365541 0.0076259701 -0.030129235
0.29242709 0.0076259701 -0.032965958
0.30190608 0.0076259701 -0.033803832
0.32261929 0.0076259696 -0.030982736
0.36414239 0.0076259701 -0.033034749
0.4159472 0.0076259701 -0.032875784
0.42024505 0.0076259701 -0.034008458
-0.45816153 -0.0076259701 -0.029272672
-0.42052102 -0.0076259701 -0.020039935
-0.38891935 -0.0076259701 -0.024137888
-0.37449172 -0.0076259701 -0.024722192
-0.31644022 -0.0076259701 -0.02230164
-0.14237973 -0.0076259701 -0.029924057
-0.040999986 -0.0076259701 -0.023644432
-0.038611904 -0.0076259701 -0.027913537
0.063530415 -0.0076259701 -0.022380805
0.15577221 -0.0076259701 -0.025081296
0.21496341 -0.0076259701 -0.025888912
0.22192284 -0.0076259701 -0.025020778
0.25899544 -0.0076259701 -0.025455814
0.27391049 -0.0076259701 -0.022048496
0.29149488 -0.0076259701 -0.020922132
0.31536686 -0.0076259701 -0.029908404
0.38263363 -0.0076259701 -0.027859408
0.47645155 -0.0076259701 -0.028557437
-0.38333869 0.0076259701 -0.028521363
-0.34072241 0.0076259701 -0.022582574
-0.32966077 0.0076259701 -0.027480273
-0.26491293 0.0076259701 -0.026323613
-0.19232798 0.0076259701 -0.028328339
-0.16096509 0.0076259701 -0.026115898
-0.15739116 0.0076259701 -0.020474823
-0.1078508 0.0076259701 -0.02824123
-0.066793047 0.0076259701 -0.025507553
0.036131188 0.0076259701 -0.025175167
0.1360912 0.0076259701 -0.027183365
0.22271821 0.0076259701 -0.029067356
0.24466327 0.0076259701 -0.029546699
0.27163666 0.0076259701 -0.02881892
0.28373194 0.0076259701 -0.025473863
0.29451427 0.0076259701 -0.022965036
0.3357498 0.0076259701 -0.026002612
0.38182563 0.0076259701 -0.029595016
0.3955822 0.0076259701 -0.02232022
0.46064851 0.0076259701 -0.024368512
-0.46369427 -0.0076259701 -0.019151904
-0.44442445 -0.0076259701 -0.012231084
-0.42174512 -0.0076259701 -0.013097586
-0.40509471 -0.0076259701 -0.014267238
-0.31007716 -0.0076259701 -0.014834888
-0.30968359 -0.0076259701 -0.018848294
-0.28480047 -0.0076259701 -0.015594759
-0.16755304 -0.0076259701 -0.01377854
-0.11402834 -0.0076259701 -0.014227849
-0.096061282 -0.0076259701 -0.019934095
-0.076994225 -0.0076259701 -0.014016301
-0.03876394 -0.0076259701 -0.013979984
-0.019283034 -0.0076259701 -0.0140154
0.047954261 -0.0076259701 -0.017014224
0.082482964 -0.0076259701 -0.013508108
0.1168201 -0.0076259701 -0.014603794
0.17234579 -0.0076259701 -0.015634814
0.34720245 -0.0076259701 -0.010417079
0.38307628 -0.0076259701 -0.014761576
-0.42727166 0.0076259701 -0.015649531
-0.40322471 0.0076259701 -0.014254551
-0.37353659 0.0076259701 -0.016995799
-0.35730034 0.0076259701 -0.017863534
-0.18792725 0.0076259701 -0.01724137
-0.095319077 0.0076259701 -0.019035129
-0.07870172 0.0076259701 -0.015824988
-0.04825379 0.0076259701 -0.013644384
0.021810491 0.0076259701 -0.014885901
0.2387484 0.0076259701 -0.019224063
0.24551727 0.0076259701 -0.019118983
0.25235209 0.0076259701 -0.012585288
0.32989213 0.0076259701 -0.012364946
0.34247684 0.0076259701 -0.011642607
0.35348099 0.0076259701 -0.015137484
0.36877084 0.0076259701 -0.011819158
0.3945826 0.0076259701 -0.012954338
0.45482796 0.0076259701 -0.015522547
-0.39975631 -0.0076259701 -0.0061719501
-0.34936625 -0.0076259701 -0.0089039449
-0.29587168 -0.0076259696 -0.0060401326
-0.18667792 -0.0076259701 -0.0095926467
-0.12491751 -0.0076259701 -0.0042223437
-0.01708281 -0.0076259701 -0.0026658624
0.036789194 -0.0076259701 -0.0011536683
0.053940445 -0.0076259701 -0.0044802735
0.067609474 -0.0076259701 -0.0059987362
0.085148007 -0.0076259701 -0.0012511236
0.12547654 -0.0076259701 -0.0047110403
0.15193722 -0.0076259701 -0.0067312028
0.16305125 -0.0076259701 -0.00051995594
0.24825519 -0.0076259701 -0.0058477307
0.36781439 -0.0076259701 -0.009967736
0.43642926 -0.0076259701 -0.0064328727
0.47743076 -0.0076259701 -0.0090926671
-0.38721016 0.0076259701 -0.0019541844
-0.29463518 0.0076259701 -0.0048247995
-0.24291591 0.0076259701 -0.0070833089
-0.23433018 0.0076259701 -0.0079537919
-0.20628777 0.0076259701 -0.0082218004
-0.19691247 0.0076259701 -0.0067526205
-0.15323487 0.0076259701 -0.0043989616
-0.13370094 0.0076259701 -0.0070498763
-0.098521039 0.0076259701 -0.00409162
-0.072472751 0.0076259701 -0.0080853123
0.024193272 0.0076259701 -0.0060532228
0.051783346 0.0076259701 -0.0045103808
0.060422271 0.0076259701 -0.0072382013
0.10883033 0.0076259701 -0.0050326409
0.13636267 0.0076259701 -0.0070999376
0.18741924 0.0076259701 -0.0059667625
0.21778357 0.0076259701 -0.003220032
0.30449802 0.0076259701 -0.0020729583
0.32266408 0.0076259701 -0.0049896748
0.34298605 0.0076259701 -0.00053456752
0.39997268 0.0076259701 -0.00031655282
-0.30916494 -0.0076259701 0.0013339522
-0.22280265 -0.0076259701 0.004223227
-0.19855455 -0.0076259701 0.0025765582
-0.18283415 -0.0076259701 0.00078498526
-0.13711561 -0.0076259701 0.0026048825
-0.070117339 -0.0076259701 0.0031752512
0.11104123 -0.0076259701 0.0066724094
0.20152497 -0.0076259701 0.0018612584
0.23291481 -0.0076259701 0.00015430665
0.25849062 -0.0076259701 0.0096809259
0.27752858 -0.0076259701 0.0083274003
0.32481638 -0.0076259701 0.0056788172
0.42028341 -0.0076259701 0.0071869493
-0.44372663 0.0076259701 0.0064847181
-0.43817455 0.0076259701 0.0040325392
-0.4123168 0.0076259701 0.0040791729
-0.40498126 0.0076259701 0.00049920357
-0.37328351 0.0076259701 0.00017214942
-0.3545205 0.0076259701 0.00069103856
-0.29040658 0.0076259701 0.0071306191
-0.21293452 0.0076259701 0.0029492623
-0.19900031 0.0076259701 0.0081313653
-0.14379221 0.0076259701 0.0040670084
0.017900623 0.0076259701 0.003742567
0.025513045 0.0076259701 0.0029755328
0.07040935 0.0076259701 0.009438525
0.19955757 0.0076259701 0.0025689632
0.20525438 0.0076259701 0.0038957256
0.2658149 0.0076259701 0.00022072671
0.31327349 0.0076259701 0.00073536998
0.38198832 0.0076259701 0.0028611068
0.46382654 0.0076259701 0.0084631294
0.4802877 0.0021484357 0.0092125302
-0.38817629 -0.0076259701 0.014972439
-0.32726586 -0.0076259701 0.016696107
-0.30035591 -0.0076259701 0.018268712
-0.29869953 -0.0076259701 0.014045931
-0.28148693 -0.0076259701 0.014777733
-0.25567734 -0.0076259701 0.016056541
-0.19898681 -0.0076259701 0.017364992
-0.14507636 -0.0076259701 0.011543932
-0.13620827 -0.0076259701 0.017853742
-0.097156927 -0.0076259701 0.012636701
-0.051922828 -0.0076259701 0.011243363
0.074467421 -0.0076259701 0.013486891
0.094365522 -0.0076259701 0.014325252
0.11962249 -0.0076259701 0.016045606
0.21006413 -0.0076259701 0.016756726
0.22947671 -0.0076259701 0.016602371
0.25373343 -0.0076259701 0.01019045
0.28879395 -0.0076259701 0.015409181
0.36796761 -0.0076259701 0.016255511
0.37256271 -0.0076259701 0.015844755
0.40219945 -0.0076259701 0.012145408
0.47993004 -0.0016830938 0.014120128
-0.45153528 0.0076259701 0.016064737
-0.18876401 0.0076259701 0.011300258
-0.17772421 0.0076259701 0.015264822
-0.10575005 0.0076259701 0.013602015
-0.066423945 0.0076259701 0.010353652
0.11065418 0.0076259701 0.013474558
0.14753565 0.0076259701 0.016938914
0.26481283 0.0076259701 0.017916501
0.2804684 0.0076259701 0.013093423
0.30560276 0.0076259696 0.018455984
0.34312034 0.0076259701 0.017043766
0.38578433 0.0076259701 0.01760293
0.42577264 0.0076259701 0.018813957
0.44912595 0.0076259701 0.01343761
-0.45144728 -0.0076259701 0.025211083
-0.44778001 -0.0076259701 0.028880415
-0.42495281 -0.0076259701 0.024667304
-0.36727786 -0.0076259701 0.02046868
-0.31139463 -0.0076259701 0.020479968
-0.29187831 -0.0076259701 0.022133857
-0.22836897 -0.0076259701 0.02212273
-0.044087827 -0.0076259701 0.025078591
-0.0067424327 -0.0076259701 0.026055768
0.071090057 -0.0076259701 0.02323065
0.10648534 -0.0076259701 0.023727614
0.12118803 -0.0076259701 0.022534905
0.13683063 -0.0076259701 0.020897375
0.1770307 -0.0076259701 0.025646893
0.18800719 -0.0076259701 0.025463285
0.20350048 -0.0076259701 0.024948083
0.2516368 -0.0076259701 0.021469966
0.37940794 -0.0076259701 0.020492014
0.40052381 -0.0076259701 0.021973696
0.4454509 -0.0076259701 0.022233689
0.45718133 -0.0076259701 0.024896875
-0.47007063 0.0076259701 0.021128286
-0.43979424 0.0076259701 0.021459168
-0.36279202 0.0076259701 0.028547943
-0.34503022 0.0076259701 0.020789612
-0.31090882 0.0076259701 0.026796291
-0.28764856 0.0076259701 0.025026763
-0.2700918 0.0076259701 0.021450404
-0.26499879 0.0076259701 0.023460891
-0.25831947 0.0076259701 0.020788709
-0.14561231 0.0076259701 0.02648489
-0.0090478212 0.0076259701 0.020130256
0.026255518 0.0076259701 0.023709001
0.039364234 0.0076259701 0.027088296
0.11298771 0.0076259701 0.027520208
0.13699517 0.0076259701 0.028086537
0.22121115 0.0076259701 0.029676327
0.24268402 0.0076259701 0.028810259
0.25092718 0.0076259701 0.027096046
0.28770101 0.0076259701 0.020007182
0.30157149 0.0076259701 0.020867694
0.32336292 0.0076259701 0.028793653
0.3637808 0.0076259701 0.023847939
0.3955189 0.0076259701 0.025258338
0.40305418 0.0076259701 0.021654997
0.46250883 0.0076259701 0.02272536
-0.44062525 -0.0076259701 0.039565854
-0.39780009 -0.0076259701 0.037752002
-0.2017912 -0.0076259701 0.034948993
-0.14689879 -0.0076259701 0.038793474
-0.047616098 -0.0076259701 0.03283523
0.018154491 -0.0076259701 0.035185035
0.057396293 -0.0076259701 0.032484949
0.15412427 -0.0076259701 0.036683433
0.18240705 -0.0076259701 0.036358438
0.36404207 -0.0076259701 0.033559699
0.42883229 -0.0076259701 0.036190432
-0.47663996 0.0026249748 0.032890268
-0.42243278 0.0076259701 0.030889118
-0.22288644 0.0076259701 0.033840422
-0.088638127 0.0076259701 0.031397425
-0.019318447 0.0076259701 0.030003475
0.030400299 0.0076259701 0.036153935
0.042604335 0.0076259701 0.036241896
0.22478271 0.0076259701 0.032936513
0.28757313 0.0076259701 0.033396546
0.29769218 0.0076259701 0.037401229
0.3245666 0.0076259701 0.030823387
0.38244575 0.0076259701 0.032538533
0.39112693 0.0076259701 0.036891252
0.40462443 0.0076259701 0.033445165
0.42258182 0.0076259701 0.031393342
0.44226727 0.0076259701 0.035558142
0.45626384 0.0076259696 0.039347768
0.4770875 0.00085450313 0.032580338
-0.43122137 -0.0076259701 0.045364842
-0.42193565 -0.0076259696 0.044648197
-0.37958315 -0.0076259701 0.047318403
-0.31757003 -0.0076259701 0.048029795
-0.29814425 -0.0076259701 0.043529376
-0.28368133 -0.0076259701 0.044476725
-0.27125067 -0.0076259701 0.049825504
-0.19404984 -0.0076259701 0.042352099
-0.18565455 -0.0076259701 0.048930537
-0.13887048 -0.0076259701 0.048818205
-0.096372411 -0.0076259701 0.047213763
-0.081654601 -0.0076259701 0.045190368
0.01257664 -0.0076259701 0.043391734
0.024615094 -0.0076259701 0.047655798
0.042768583 -0.0076259701 0.044129156
0.06917797 -0.0076259701 0.043923698
0.18485156 -0.0076259701 0.04546814
0.19881092 -0.0076259701 0.040443748
0.36028361 -0.0076259701 0.043137446
-0.39992356 0.0076259701 0.047533724
-0.36750841 0.0076259701 0.041770004
-0.3455165 0.0076259701 0.044997472
-0.26342171 0.0076259701 0.044428751
-0.25490704 0.0076259701 0.04173018
-0.2446996 0.0076259701 0.041232258
-0.11962183 0.0076259701 0.043735337
-0.10473217 0.0076259701 0.046083663
-0.071397528 0.0076259701 0.044933096
-0.064360529 0.0076259701 0.041969404
-0.051819935 0.0076259701 0.04403533
0.024433151 0.0076259701 0.048637867
0.047657065 0.0076259701 0.040107723
0.21586958 0.0076259701 0.040560253
0.24001855 0.0076259701 0.047895852
0.2861959 0.0076259701 0.047145642
0.29031059 0.0076259701 0.040973179
0.32516652 0.0076259701 0.041746885
0.33806217 0.0076259701 0.04696583
0.3590644 0.0076259701 0.040206544
0.36579484 0.0076259701 0.044192001
-0.46704632 -0.0032381359 0.05511843
-0.44238645 -0.0076259696 0.054474417
-0.39536607 -0.0076259701 0.054468825
-0.30669713 -0.0076259701 0.053210132
-0.23782542 -0.0076259701 0.051063299
-0.097433612 -0.0076259701 0.056615125
0.051713757 -0.0076259701 0.052845802
0.064043313 -0.0076259701 0.054321717
0.14737315 -0.0076259701 0.051812459
0.29985899 -0.0076259701 0.054306686
0.33271822 -0.0076259701 0.058675498
0.37518528 -0.0076259705 0.057577744
0.41747335 -0.0076259701 0.054345984
0.46968392 -0.0022855098 0.053881481
-0.46754938 0.00073035993 0.053965803
-0.40990698 0.0076259701 0.055952664
-0.29671735 0.0076259701 0.053854849
-0.25986159 0.0076259701 0.05392798
-0.21880321 0.0076259701 0.056321189
-0.20870057 0.0076259701 0.054407131
-0.16189823 0.0076259701 0.050849937
-0.15108819 0.0076259701 0.055958398
-0.082946531 0.0076259701 0.057957873
-0.072402969 0.0076259701 0.058174394
-0.0047867149 0.0076259701 0.05382558
0.11047348 0.0076259701 0.05040345
0.19221902 0.0076259701 0.055039205
0.24003707 0.0076259701 0.054310687
0.26304695 0.0076259701 0.054598927
0.29087445 0.0076259701 0.054633468
0.33462024 0.0076259701 0.056468669
0.36181349 0.0076259705 0.055241324
0.46836516 0.0016731445 0.057675794
-0.33867842 -0.0076259701 0.064313889
-0.28256044 -0.0076259701 0.068302952
-0.26616663 -0.0076259701 0.068031102
-0.23807451 -0.0076259701 0.066856056
-0.12259826 -0.0076259701 0.062445376
-0.038860232 -0.0076259701 0.060426533
0.010343943 -0.0076259701 0.064163342
0.11638889 -0.0076259701 0.065852992
0.1218171 -0.0076259701 0.066975914
0.14020696 -0.0076259701 0.066185586
0.21987802 -0.0076259701 0.06435518
0.26463756 -0.0076259701 0.062266406
0.27342072 -0.0076259701 0.065636791
0.34617254 -0.0076259701 0.060180068
0.40132722 -0.0076259701 0.061384097
0.46363789 -0.0076259701 0.065841593
-0.46016979 0.0076259701 0.062055834
-0.45672622 0.0076259701 0.068746492
-0.39447057 0.0076259701 0.061869703
-0.3702212 0.0076259701 0.068834491
-0.35381815 0.0076259701 0.062089905
-0.29205552 0.0076259701 0.061777182
-0.19413896 0.0076259701 0.066403039
-0.17268255 0.0076259701 0.069057524
-0.043273047 0.0076259701 0.069061935
0.033692777 0.0076259701 0.060824916
0.08612626 0.0076259701 0.064626098
0.15556116 0.0076259701 0.06649138
0.21806303 0.0076259701 0.066420987
0.22791402 0.0076259701 0.062014654
0.23191205 0.0076259701 0.06029439
0.26842141 0.0076259701 0.061518058
0.28874716 0.0076259701 0.068145335
0.33359253 0.0076259701 0.06829007
0.34914559 0.0076259701 0.065438375
0.37363106 0.0076259701 0.068120636
0.41026217 0.0076259701 0.067590691
-0.45856246 -0.0055072289 0.070746675
-0.41860384 -0.0076259701 0.073298663
-0.39077252 -0.0076259701 0.073392048
-0.33258998 -0.0076259701 0.072418094
-0.27492067 -0.0076259701 0.070543677
-0.26250181 -0.0076259701 0.070069194
-0.24325013 -0.0076259701 0.074621283
-0.19198506 -0.0076259701 0.070750691
-0.10228784 -0.0076259701 0.071237355
-0.031350031 -0.0076259701 0.072139218
0.21402833 -0.0076259701 0.079856128
0.28629759 -0.0076259701 0.079613209
0.30364004 -0.0076259701 0.074855477
0.37875947 -0.0076259701 0.075031951
0.40066561 -0.0076259701 0.071353272
0.42200774 -0.0076259701 0.075620584
0.44923761 -0.0076259701 0.071265653
0.45916569 -0.0076061757 0.07251326
-0.41080511 0.0076259701 0.07928618
-0.32756105 0.0076259701 0.070802525
-0.1993628 0.0076259701 0.076430283
-0.11583328 0.0076259701 0.073273167
0.024043769 0.0076259701 0.079515144
0.036899343 0.0076259701 0.076960981
0.2362051 0.0076259701 0.071597189
0.24812075 0.0076259701 0.07933028
0.27030909 0.0076259701 0.070654199
0.29909822 0.0076259701 0.072657809
0.3122586 0.0076259701 0.071321025
0.35419577 0.0076259701 0.072909206
0.38198912 0.0076259701 0.073053941
-0.38736862 -0.0076259701 0.089421004
-0.36886168 -0.0076259701 0.083076485
-0.35302171 -0.0076259701 0.083398759
-0.261684 -0.0076259701 0.085149884
-0.16650972 -0.0076259701 0.084830359
-0.15633388 -0.0076259701 0.086603224
-0.10192095 -0.0076259701 0.089705542
-0.065550186 -0.0076259701 0.080207855
-0.03876251 -0.0076259701 0.081821941
0.15765585 -0.0076259701 0.084085241
0.16105792 -0.0076259701 0.081984863
0.17756784 -0.0076259701 0.086020246
0.35964409 -0.0076259701 0.087014481
0.37810642 -0.0076259701 0.084626913
0.44486701 -0.0076259701 0.081332356
-0.4189547 0.0076259696 0.087103024
-0.38715526 0.0076259701 0.08080136
-0.31174052 0.0076259701 0.08863645
-0.27848458 0.0076259701 0.083095647
-0.26481271 0.0076259701 0.087813579
-0.24348047 0.0076259701 0.084451027
-0.20736548 0.0076259701 0.088430986
-0.14751253 0.0076259701 0.088953577
-0.13766004 0.0076259701 0.080692597
-0.12846373 0.0076259701 0.08176174
-0.087240741 0.0076259701 0.08996892
-0.031462632 0.0076259701 0.084166199
-0.0017075762 0.0076259701 0.085116446
0.035187043 0.0076259701 0.084228978
0.052066378 0.0076259701 0.080645174
0.062833264 0.0076259701 0.084227078
0.10630372 0.0076259701 0.083656803
0.15914856 0.0076259701 0.082324907
0.24604329 0.0076259701 0.085736357
0.25704485 0.0076259701 0.084860429
0.26090205 0.0076259701 0.0862239
0.27959812 0.0076259705 0.083980002
0.28196442 0.0076259701 0.088849328
0.30059826 0.0076259701 0.080859959
0.32193056 0.0076259701 0.089717023
0.33243114 0.0076259705 0.08017306
0.37359953 0.0076259701 0.082215175
0.40354216 0.0076259701 0.082622185
0.44112423 0.0076259696 0.089922041
-0.23301421 -0.0076259701 0.096422598
-0.21278924 -0.0076259701 0.091258548
-0.19698352 -0.0076259701 0.09304259
0.031236351 -0.0076259701 0.09199962
0.17381407 -0.0076259701 0.092765197
0.2714085 -0.0076259701 0.097862199
0.43140805 -0.0076259701 0.098907098
-0.42015907 0.0076259701 0.097393826
-0.34625599 0.0076259701 0.092464522
-0.32110143 0.0076259701 0.098916031
-0.31708601 0.0076259701 0.098965332
-0.2423653 0.0076259701 0.095231779
-0.15302956 0.0076259701 0.096414693
0.027397491 0.0076259701 0.097465813
0.057300325 0.0076259701 0.094495602
0.11509494 0.0076259701 0.097498775
0.13064453 0.0076259701 0.094755493
0.14155498 0.0076259701 0.093488663
0.20761837 0.0076259701 0.090382129
0.25522715 0.0076259701 0.092540406
0.26223111 0.0076259701 0.093315952
0.28728616 0.0076259701 0.09017083
0.29770982 0.0076259701 0.094062328
0.40332869 0.0076259705 0.092478201
0.42000985 0.0076259701 0.095844023
-0.23058392 -0.0076259701 0.10476528
-0.22783457 -0.0076259701 0.10382432
-0.19082955 -0.0076259701 0.10837295
-0.18261187 -0.0076259701 0.10338148
-0.16366011 -0.0076259701 0.10503218
-0.10679513 -0.0076259701 0.10916139
-0.03104569 -0.0076259701 0.10173906
0.14679533 -0.0076259701 0.10724571
0.15612717 -0.0076259701 0.10564452
0.18531294 -0.0076259701 0.10449088
0.21356617 -0.0076259701 0.10171846
0.32164341 -0.0076259701 0.1075758
0.35312527 -0.0076259701 0.10044253
0.37973332 -0.0076259701 0.1048712
-0.39884952 0.0076259701 0.10920198
-0.37466073 0.0076259701 0.10892074
-0.35122824 0.0076259701 0.10628124
-0.16286874 0.0076259701 0.10943236
0.0050759614 0.0076259701 0.10471496
0.083739638 0.0076259701 0.10508671
0.13565323 0.0076259701 0.1087084
0.26447612 0.0076259701 0.10241778
0.27766013 0.0076259701 0.10529438
0.2993708 0.0076259696 0.10458106
0.43191892 0.0068021603 0.1030286
-0.33038169 -0.0076259701 0.11806856
-0.22268559 -0.0076259701 0.11449552
-0.20433636 -0.0076259701 0.11995994
-0.083882242 -0.0076259701 0.11250436
-0.064177826 -0.0076259701 0.11981808
-0.0422231 -0.0076259701 0.1142403
-0.013767825 -0.0076259701 0.11342587
0.063065656 -0.0076259701 0.11989771
0.33111045 -0.0076259701 0.11817916
0.38202271 -0.0076259701 0.11424094
0.40715066 -0.0039253961 0.11911375
-0.4131183 0.0042759799 0.1126429
-0.34210712 0.0076259701 0.11779399
-0.33121914 0.0076259701 0.11987723
-0.24502017 0.0076259701 0.1137374
-0.20234093 0.0076259701 0.11479532
-0.18594247 0.0076259701 0.11170363
-0.082114421 0.0076259701 0.11149304
-0.0021593347 0.0076259701 0.11805826
0.10857336 0.0076259701 0.11329179
0.15346718 0.0076259701 0.11697061
0.18196918 0.0076259701 0.11705591
0.25131455 0.0076259701 0.11632939
0.34279349 0.0076259701 0.11482747
0.41961887 0.0013010236 0.1130778
-0.38546389 -0.0076259701 0.12317783
-0.35984421 -0.0023535322 0.12719208
-0.30118024 -0.0028363548 0.12777102
-0.28147924 -0.0035858438 0.12796545
-0.27185875 -0.00060783373 0.12806039
-0.23146896 -0.0056136162 0.12845899
-0.21519455 -0.005361055 0.1249385
-0.19653097 -0.00097438309 0.12880379
-0.15061526 -0.0076259701 0.1210968
-0.081204951 -0.0076259701 0.12447765
-0.0053922832 -0.0076259701 0.12379579
0.32217988 -0.0076259701 0.1296654
0.40415421 -0.0076259701 0.12032661
-0.35846877 0.0042855632 0.12728737
-0.31093287 0.0076259701 0.1258533
-0.27238831 0.0020173686 0.12805517
-0.22681738 0.0044375462 0.1285049
-0.20190263 0.0076259701 0.12158176
-0.14346066 0.0076259701 0.12559864
-0.12876907 0.0045597577 0.12947252
-0.10107963 0.0057827532 0.12974577
0.0097765215 0.0076259701 0.12349688
0.026020207 0.0076259701 0.12976402
0.13001706 0.0076259701 0.1278104
0.20183255 0.0076259701 0.1275143
0.2643593 0.0076259705 0.12467629
0.28997132 0.0076259701 0.12353358
0.30666566 0.0076259701 0.12953317
0.33185825 0.0076259701 0.12929721
0.35294244 0.0076259701 0.12101102
0.36026224 0.0076259701 0.12407463
-0.071981162 -0.0051565468 0.13003294
-0.054221809 -0.0061448147 0.13020821
-0.042083882 -0.0046626055 0.130328
0.046365395 -0.0057933321 0.13120088
0.18823785 -0.0041106762 0.13260098
0.20566151 -0.0027098577 0.13277294
0.25970483 -0.0022441957 0.13330628
0.26395363 -0.0076259705 0.13311395
0.32950836 -0.0057091629 0.13399516
-0.071099386 0.007177047 0.13039462
0.0090423785 0.0019147452 0.13083254
0.026210982 0.0018578016 0.13100198
0.04662323 0.0067632035 0.13120343
0.090360373 0.0076259701 0.13142751
0.13946356 0.00096130779 0.13211966
0.18408638 0.0016704542 0.13256001
0.22553033 0.0044054468 0.13296902
0.30471098 0.0039786105 0.13375044
0.34551397 0.0051471014 0.13415311
0.36155969 0.0068623619 0.13299708
