# .PCD v0.7 - Point Cloud Data file format
VERSION 0.7
FIELDS x y z
SIZE 4 4 4
TYPE F F F
COUNT 1 1 1
WIDTH 906
HEIGHT 1
VIEWPOINT 0 0 0 1 0 0 0
POINTS 906
DATA ascii
-0.27005321 0.019175049 -0.14418299
-0.21598279 0.018260218 -0.14418299
0.0049270131 0.0179366 -0.14127007
0.2454814 0.01964833 -0.14418301
0.26298177 0.0179366 -0.14150022
-0.33752254 0.021326715 -0.14367263
-0.24415636 0.0274696 -0.143704
-0.13511831 0.020469964 -0.14418299
-0.081468165 0.0274696 -0.14302823
-0.070466317 0.025093134 -0.14418299
-0.042535987 0.027469598 -0.14198814
-0.023330152 0.027393945 -0.14418299
0.094012082 0.0274696 -0.14214076
0.13065307 0.026798528 -0.14418299
0.21111202 0.025666211 -0.14418299
0.31564701 0.021947719 -0.14418299
-0.35037738 0.0179366 -0.13598253
-0.13226941 0.0179366 -0.13160951
0.11755396 0.0179366 -0.13222933
0.12245047 0.0179366 -0.13226813
0.14870703 0.0179366 -0.13422698
0.18574066 0.0179366 -0.1396476
0.22967945 0.0179366 -0.13567282
0.23514724 0.0179366 -0.13248575
0.2496915 0.0179366 -0.13266598
0.28834704 0.0179366 -0.13115311
0.29264718 0.0179366 -0.13548084
0.32453364 0.0179366 -0.13673781
0.35726064 0.0179366 -0.13063031
-0.3833316 0.026110047 -0.13379346
-0.37342015 0.0274696 -0.13206752
-0.35866931 0.027469601 -0.13205872
-0.34553802 0.027469601 -0.13665067
-0.30304748 0.0274696 -0.13154218
-0.26523119 0.0274696 -0.1354053
-0.20028976 0.027469601 -0.13899702
-0.14030579 0.0274696 -0.13489917
0.084463514 0.027469598 -0.13677928
0.092670381 0.027469598 -0.1330374
0.11462988 0.027469601 -0.13689506
0.15820719 0.027469598 -0.13993123
0.17597163 0.027469598 -0.13665143
0.19207111 0.027469598 -0.13552366
0.2710408 0.0274696 -0.13609608
0.3315345 0.0274696 -0.13903157
0.37604839 0.0274696 -0.13543621
-0.3943831 0.018867286 -0.12657255
-0.37574774 0.0179366 -0.12577027
-0.35410753 0.0179366 -0.12864494
-0.34493792 0.017936602 -0.12791583
-0.33028197 0.017936602 -0.12818521
-0.26028734 0.0179366 -0.12178322
-0.22427218 0.0179366 -0.12359466
-0.15472305 0.0179366 -0.12997203
-0.12198072 0.0179366 -0.12328289
-0.04741364 0.0179366 -0.12184699
0.12542088 0.0179366 -0.12733351
0.20062329 0.0179366 -0.12319189
0.22585236 0.0179366 -0.12135816
0.33811346 0.0179366 -0.12592244
-0.40655667 0.025374349 -0.12423704
-0.39934608 0.023687392 -0.12751323
-0.35240269 0.0274696 -0.12571141
-0.31057745 0.0274696 -0.12586023
-0.27666089 0.0274696 -0.12984344
-0.25680482 0.0274696 -0.12092163
-0.22661747 0.0274696 -0.12146346
-0.20958374 0.0274696 -0.12140255
-0.17025901 0.0274696 -0.12030109
-0.14479849 0.0274696 -0.12276496
-0.10784885 0.027469598 -0.12587936
0.081028342 0.027469601 -0.12400918
0.13648832 0.0274696 -0.12545878
0.16815627 0.0274696 -0.12632404
0.25405902 0.027469598 -0.12506881
0.26891544 0.027469598 -0.12336902
0.29711002 0.0274696 -0.12173922
0.34780186 0.0274696 -0.12201042
0.39881182 0.0274696 -0.12083205
-0.41212004 0.0179366 -0.11672172
-0.34790456 0.0179366 -0.11745574
-0.30357596 0.0179366 -0.11037512
-0.21046567 0.0179366 -0.11246574
-0.19904357 0.017936602 -0.11709428
-0.13824838 0.0179366 -0.11999975
-0.11165442 0.0179366 -0.1125949
-0.10904548 0.0179366 -0.11775157
-0.089276902 0.0179366 -0.11611011
-0.035068266 0.0179366 -0.11470868
-0.026623182 0.0179366 -0.1142517
0.16573991 0.0179366 -0.11942726
0.19731927 0.0179366 -0.11983927
0.21848336 0.0179366 -0.11425291
0.22496463 0.0179366 -0.11437474
0.23977652 0.0179366 -0.11630204
0.28852242 0.0179366 -0.11435985
0.29859725 0.0179366 -0.11322424
0.33334807 0.0179366 -0.11370204
-0.4127084 0.02327377 -0.11951646
-0.35249281 0.0274696 -0.11470136
-0.25315642 0.027469598 -0.11264867
-0.19614723 0.0274696 -0.11967252
-0.12151676 0.027469601 -0.11729699
-0.0033281371 0.0274696 -0.11714324
0.012004361 0.0274696 -0.11064614
0.033090621 0.0274696 -0.11833164
0.10725619 0.0274696 -0.11376962
0.2246801 0.027469598 -0.11825871
0.234734 0.027469598 -0.11277115
0.30025011 0.027469601 -0.11575488
0.3854489 0.0274696 -0.11415498
0.41459051 0.0274696 -0.1125596
-0.37982079 0.017936602 -0.10461563
-0.31960958 0.0179366 -0.10363029
-0.30562997 0.0179366 -0.1072892
-0.21567522 0.0179366 -0.10587047
-0.16586703 0.0179366 -0.10546662
-0.14032467 0.017936602 -0.10937731
-0.060337584 0.0179366 -0.10097723
-0.046644337 0.0179366 -0.10689498
0.005760245 0.0179366 -0.10079541
0.08320082 0.0179366 -0.10682551
0.098541223 0.0179366 -0.10332315
0.11210894 0.0179366 -0.10782631
0.26186547 0.0179366 -0.10390184
0.2929031 0.0179366 -0.1004981
0.33596581 0.0179366 -0.10382991
0.40179279 0.0179366 -0.10323504
-0.42593408 0.0274696 -0.10409931
-0.38401288 0.027469598 -0.10261533
-0.26086 0.027469598 -0.10961434
-0.22970337 0.0274696 -0.10749751
-0.16977099 0.0274696 -0.10966559
-0.10010301 0.027469601 -0.10832338
0.0016459525 0.0274696 -0.10020121
0.27388918 0.027469601 -0.10134091
0.30097172 0.027469598 -0.10378229
0.318941 0.027469598 -0.10032339
0.34051657 0.0274696 -0.10995051
0.36613077 0.0274696 -0.10314213
0.38796526 0.0274696 -0.10107674
-0.39641279 0.0179366 -0.098565623
-0.37238678 0.0179366 -0.093288645
-0.34549254 0.017936599 -0.099797994
-0.31028688 0.0179366 -0.093947612
-0.28624424 0.0179366 -0.09400817
-0.27819124 0.0179366 -0.0966914
-0.18519877 0.0179366 -0.091849245
-0.12620004 0.0179366 -0.096747145
0.094938867 0.0179366 -0.096284248
0.24157597 0.0179366 -0.095820554
0.37259275 0.0179366 -0.091993228
0.38580942 0.0179366 -0.090369552
-0.43555695 0.027469601 -0.090753138
-0.42779583 0.0274696 -0.091962956
-0.3989411 0.0274696 -0.097987555
-0.36360994 0.0274696 -0.093690053
-0.35694259 0.027469601 -0.090930484
-0.30732077 0.0274696 -0.098078705
-0.17120878 0.0274696 -0.097227573
-0.089582898 0.0274696 -0.090297751
-0.033009022 0.027469598 -0.098279171
0.049217962 0.0274696 -0.096592046
0.051017158 0.027469598 -0.095230788
0.097405128 0.027469601 -0.096756943
0.13808227 0.027469598 -0.09640269
0.27754265 0.027469598 -0.098894864
0.28970703 0.0274696 -0.095491618
0.32140577 0.0274696 -0.094386347
0.36386007 0.0274696 -0.099546395
0.44190305 0.0274696 -0.092510149
-0.4372803 0.0179366 -0.080390692
-0.42425174 0.0179366 -0.087613754
-0.32476628 0.0179366 -0.085145295
-0.31466067 0.017936602 -0.082958072
-0.26315498 0.0179366 -0.089876719
-0.23539247 0.0179366 -0.087409675
-0.089033157 0.0179366 -0.083368659
-0.044775024 0.0179366 -0.087386616
-0.016830549 0.0179366 -0.08554697
-0.0053522335 0.0179366 -0.082098946
0.012603886 0.0179366 -0.08131811
0.036615815 0.017936602 -0.088185012
0.15297857 0.017936599 -0.082578555
0.17744549 0.0179366 -0.089883514
0.23550588 0.0179366 -0.083687872
0.24249163 0.017936602 -0.083250225
0.2659381 0.0179366 -0.089437842
0.36398295 0.0179366 -0.083542936
0.40161434 0.0179366 -0.081489958
0.42774385 0.0179366 -0.083485015
-0.41814649 0.027469598 -0.081470624
-0.36400661 0.0274696 -0.080818914
-0.32695001 0.0274696 -0.082874499
-0.21327904 0.0274696 -0.089281179
-0.14582399 0.0274696 -0.08536718
-0.0338265 0.0274696 -0.080247805
-0.020865664 0.027469601 -0.087492436
0.0079410151 0.0274696 -0.080531552
0.14509961 0.0274696 -0.086434469
0.19938922 0.027469601 -0.089417316
0.22119868 0.0274696 -0.082027078
0.29931116 0.0274696 -0.082660295
0.39353418 0.0274696 -0.08290045
-0.41881689 0.0179366 -0.073871434
-0.29504919 0.0179366 -0.076287076
-0.24560866 0.0179366 -0.071527973
-0.21544302 0.0179366 -0.078444496
-0.18950604 0.0179366 -0.070987143
-0.080500059 0.0179366 -0.076072261
-0.055565339 0.0179366 -0.07880035
-0.039561681 0.0179366 -0.070889428
0.11114547 0.0179366 -0.075922824
0.14581631 0.0179366 -0.073558778
0.24685851 0.017936599 -0.070017539
0.26653728 0.0179366 -0.072333358
0.31598997 0.0179366 -0.077274375
0.43851608 0.0179366 -0.076820023
0.45341727 0.0179366 -0.077670969
-0.432585 0.0274696 -0.078176409
-0.4006263 0.0274696 -0.076840475
-0.39391384 0.027469598 -0.077373952
-0.36241573 0.0274696 -0.071385317
-0.35122147 0.027469598 -0.077195108
-0.3217952 0.0274696 -0.07270205
-0.31432116 0.0274696 -0.074043803
-0.011687193 0.0274696 -0.071910739
0.02209574 0.027469601 -0.076888911
0.048937827 0.0274696 -0.073981911
0.27693683 0.027469598 -0.070478708
0.2842707 0.0274696 -0.076653428
0.34995532 0.027469598 -0.076947361
-0.44522029 0.0179366 -0.063348845
-0.28510353 0.0179366 -0.061897371
-0.2350522 0.0179366 -0.067650862
-0.11194718 0.0179366 -0.067187838
-0.10464367 0.0179366 -0.06280148
-0.073173933 0.0179366 -0.062548824
-0.031565286 0.0179366 -0.060638927
0.037917569 0.0179366 -0.067297161
0.25815454 0.0179366 -0.061510906
0.38628283 0.0179366 -0.06776233
0.4215416 0.0179366 -0.066947907
-0.44214395 0.027469598 -0.068121716
-0.43678606 0.0274696 -0.061451655
-0.33960888 0.0274696 -0.065556809
-0.26834768 0.027469601 -0.068084829
-0.25353304 0.027469601 -0.061926752
-0.23466182 0.0274696 -0.069693133
-0.14194107 0.027469601 -0.063621439
-0.12597954 0.027469598 -0.06380146
-0.032319251 0.027469601 -0.065397039
-0.011245966 0.0274696 -0.068199456
0.02273766 0.027469598 -0.064691305
0.071395129 0.027469598 -0.063341632
0.20308173 0.0274696 -0.064563021
0.38576394 0.027469601 -0.06220847
-0.31730351 0.0179366 -0.056314442
-0.30691397 0.0179366 -0.058544412
-0.2389138 0.017936602 -0.054530818
-0.18242273 0.0179366 -0.052598942
-0.13647281 0.0179366 -0.058853842
-0.10539514 0.0179366 -0.057581432
-0.07702142 0.0179366 -0.051725958
-0.055372987 0.0179366 -0.056582361
0.062781312 0.0179366 -0.058307305
0.090492591 0.0179366 -0.053394154
0.18379945 0.0179366 -0.054456025
0.1971429 0.0179366 -0.054054301
0.24707037 0.0179366 -0.05759877
0.34217325 0.0179366 -0.051729418
0.42581388 0.0179366 -0.056761678
-0.41939569 0.027469598 -0.05724749
-0.38600758 0.0274696 -0.056447662
-0.3223629 0.027469601 -0.051157538
-0.23868346 0.0274696 -0.058592789
-0.21900989 0.0274696 -0.051617883
-0.08207316 0.027469601 -0.053739034
0.018397994 0.0274696 -0.056641456
0.085728019 0.0274696 -0.057433054
0.12443601 0.0274696 -0.057052974
0.23520443 0.0274696 -0.05441945
0.26592129 0.0274696 -0.051592559
0.36655182 0.0274696 -0.05785862
0.45642352 0.0274696 -0.05667305
-0.33546627 0.003677607 -0.047361061
0.29516134 0.0075680586 -0.049131803
-0.32089716 0.012670959 -0.047113176
-0.31838149 0.010386188 -0.043025263
-0.30197108 0.0179366 -0.045614421
-0.14886093 0.017936599 -0.048584476
-0.13728486 0.0179366 -0.046510674
-0.10301293 0.0179366 -0.040311348
-0.059675887 0.0179366 -0.048796371
-0.027151816 0.0179366 -0.046178419
-0.0058910213 0.017936599 -0.043569054
0.17031881 0.0179366 -0.041815151
0.22590911 0.0179366 -0.044704407
0.24748547 0.0179366 -0.04379081
0.28853238 0.0179366 -0.042895116
0.29697588 0.013559863 -0.049131799
0.30785656 0.012207122 -0.049131803
0.31626254 0.0179366 -0.043935914
0.4559502 0.0179366 -0.048628233
-0.3043052 0.027469598 -0.046432801
-0.20009905 0.027469601 -0.045031518
-0.18307771 0.0274696 -0.040352695
-0.083637416 0.027469601 -0.044944882
-0.039655216 0.0274696 -0.043797936
-0.029319212 0.027469601 -0.043332096
0.14562903 0.0274696 -0.04554281
0.18711337 0.027469598 -0.041807223
0.21115194 0.0274696 -0.043728679
0.29380453 0.0274696 -0.040024921
0.32813257 0.027469601 -0.041475024
0.39854887 0.0274696 -0.042170756
0.40252352 0.027469598 -0.040514585
0.41845664 0.027469598 -0.044056475
-0.34829587 -0.026480269 -0.034675088
-0.35235417 -0.014261585 -0.032449801
0.30554035 -0.018931722 -0.032449801
0.32312226 -0.017531317 -0.032449801
-0.35976523 -0.0029011469 -0.035217479
-0.3248924 -0.0071000913 -0.036024548
0.297824 -0.0089471238 -0.03795556
-0.3174507 0.00049325562 -0.032449801
-0.46974429 0.0179366 -0.032381594
-0.40457547 0.0179366 -0.039837323
-0.37369323 0.0179366 -0.032796919
-0.22816697 0.0179366 -0.037573133
-0.18390867 0.0179366 -0.032274257
-0.14450315 0.0179366 -0.038346812
-0.046425238 0.0179366 -0.035512865
0.0058667557 0.0179366 -0.031460851
0.16955251 0.0179366 -0.032524005
0.19088875 0.0179366 -0.039477471
0.22481355 0.0179366 -0.03774466
0.23622927 0.0179366 -0.036157101
0.25498241 0.0179366 -0.033254087
0.28970522 0.0179366 -0.039006833
0.37491238 0.0179366 -0.035627313
0.4111079 0.0179366 -0.036454521
-0.47241277 0.0274696 -0.037945293
-0.45338109 0.0274696 -0.038525406
-0.40282166 0.0274696 -0.036655422
-0.31196207 0.0274696 -0.030810419
-0.29979667 0.0274696 -0.034088559
-0.2323603 0.0274696 -0.034849085
-0.195127 0.0274696 -0.033066943
-0.16309601 0.0274696 -0.039582558
-0.15585856 0.027469598 -0.034124967
-0.11331481 0.027469598 -0.034809396
-0.016975954 0.027469601 -0.037722837
0.04259596 0.027469598 -0.03393529
0.11776395 0.027469601 -0.033952281
0.1410218 0.0274696 -0.032208625
0.1967254 0.0274696 -0.039575681
0.2264557 0.027469601 -0.038606063
0.34293973 0.027469601 -0.033599876
0.42289224 0.0274696 -0.033881493
0.30732444 -0.017388761 -0.022562772
-0.34522894 0.0179366 -0.022468654
-0.33912602 0.0179366 -0.024939762
-0.30404621 0.017936599 -0.021289814
-0.27965218 0.0179366 -0.025320249
-0.11399259 0.0179366 -0.028658301
-0.068930343 0.0179366 -0.020258013
-0.025520859 0.0179366 -0.025494235
0.018748395 0.0179366 -0.025381334
0.084396251 0.0179366 -0.025216511
0.098510161 0.0179366 -0.02719133
0.11019689 0.0179366 -0.029402325
0.16525666 0.0179366 -0.025997542
0.30448931 0.0179366 -0.020606861
0.3402077 0.0179366 -0.027436193
0.36626369 0.0179366 -0.023006555
0.39327678 0.0179366 -0.021393487
-0.39271203 0.027469601 -0.023023404
-0.35576376 0.0274696 -0.025170784
-0.11567567 0.0274696 -0.024502849
-0.035264403 0.0274696 -0.023849485
0.033302195 0.027469598 -0.027189931
0.044253044 0.0274696 -0.022437833
0.14723545 0.0274696 -0.02803815
0.2990303 0.028519012 -0.027655834
0.31992635 0.0274696 -0.020838257
0.33857417 0.0274696 -0.024016317
0.37162569 0.0274696 -0.026396211
-0.33186999 -0.014267312 -0.011761133
0.31902987 -0.012428914 -0.014721616
0.32501063 -0.017000461 -0.0110011
-0.3566674 -0.00069962861 -0.0110011
0.29466152 -0.0039764703 -0.0110011
0.28646392 0.0034724344 -0.010934936
0.30128831 0.0030297448 -0.01262447
0.32387012 0.0017768927 -0.0110011
-0.43458 0.0179366 -0.010160014
-0.3756671 0.0179366 -0.010451039
-0.36179152 0.0179366 -0.011606702
-0.35958707 0.012743178 -0.011001101
-0.3418743 0.0179366 -0.011025487
-0.30471185 0.0179366 -0.018794771
-0.20891048 0.0179366 -0.01392943
-0.12803821 0.0179366 -0.014366124
-0.11540727 0.017936599 -0.016270798
-0.0054288302 0.0179366 -0.019760514
0.036352739 0.0179366 -0.01936698
0.07333979 0.0179366 -0.014817053
0.1053267 0.0179366 -0.018469647
0.11992459 0.0179366 -0.011704817
0.12136874 0.0179366 -0.013644196
0.16973877 0.0179366 -0.019402258
0.17342132 0.017936602 -0.011358541
0.20195127 0.0179366 -0.010961415
0.29945153 0.013067525 -0.0110011
0.39037967 0.0179366 -0.014435858
0.45368591 0.0179366 -0.019575525
-0.43282044 0.0274696 -0.017495442
-0.34119532 0.027469601 -0.012183208
-0.33723509 0.0274696 -0.014812857
-0.2400859 0.029852398 -0.017732613
-0.15527585 0.0274696 -0.014173117
-0.14463392 0.027469598 -0.016799707
-0.11730132 0.027469601 -0.014874553
-0.10581903 0.027469601 -0.016074758
-0.059685364 0.027469598 -0.011694427
0.0033474043 0.0274696 -0.018615289
0.075215697 0.0274696 -0.012669558
0.17538849 0.027469598 -0.016780261
0.33812839 0.0274696 -0.017533448
0.34326693 0.027469598 -0.015225498
-0.33258808 -0.0201941 -0.0093645463
0.2872549 -0.0201941 -0.0059439573
-0.31009701 -0.018587055 -0.0090777464
0.28331599 0.0088047534 -0.0001050923
0.333363 0.0064718742 -0.0094922166
-0.47015911 0.0179366 -0.0030625714
-0.43150878 0.0179366 -0.00044122618
-0.39310855 0.0179366 -0.003577996
-0.20844691 0.0179366 -0.0054055192
-0.18443528 0.0179366 -0.0085952431
-0.17177612 0.0179366 -0.0010894332
-0.0062622014 0.0179366 -0.0041646999
0.035022579 0.0179366 -0.0068279132
0.091744184 0.0179366 -0.0082101859
0.12168643 0.017936599 -0.0068755075
0.22179015 0.0179366 -0.0051763318
0.24505346 0.0179366 -0.00061488152
0.34066907 0.0179366 -0.0039771497
-0.4663077 0.027469598 -0.0060004126
-0.36614639 0.0274696 -0.0053910948
-0.31982216 0.027469601 -0.0083818203
-0.23708601 0.029852401 -0.0089883879
-0.18805504 0.0274696 -0.0031616292
-0.12320051 0.027469598 -0.0039157965
-0.085331753 0.027469601 -0.0066340556
-0.056194596 0.027469601 -0.003519889
-0.015271649 0.0274696 -0.0096297227
0.00469511 0.0274696 -0.0076628653
0.11509776 0.027469601 -0.0065672137
0.44868243 0.027469601 -0.0020180554
-0.34866303 -0.0201941 0.001515416
0.30852705 -0.020194098 0.002968109
-0.36014399 -0.015868414 0.0056455908
0.28331599 -0.013445631 0.0021816345
0.335747 -0.0065721711 0.0090339556
-0.4713704 0.0179366 0.0052284016
-0.46809155 0.0179366 0.0052778814
-0.42527866 0.0179366 0.007652333
-0.39319035 0.0179366 0.008007762
-0.38332239 0.0179366 0.003850969
-0.27090767 0.0179366 0.0043426575
-0.16989575 0.0179366 0.007219227
-0.1593865 0.0179366 0.0045701154
-0.055230565 0.0179366 0.0086728856
-0.023131294 0.0179366 0.0099260071
-0.017965553 0.0179366 0.0071907211
0.023967842 0.0179366 0.0086920392
0.045342952 0.0179366 0.0083937123
0.22992516 0.0179366 0.0057743713
0.34695676 0.0179366 0.0088381115
0.38484782 0.0179366 0.0055522253
0.39702341 0.0179366 0.0014815817
0.43345901 0.0179366 0.0081243254
0.4533084 0.0179366 0.0021452038
-0.45622411 0.0274696 0.0043957923
-0.44881609 0.0274696 0.0081513263
-0.43348074 0.0274696 0.0072408719
-0.24521127 0.0274696 0.0083856815
-0.13688308 0.027469601 0.0066746091
-0.045822725 0.0274696 0.0044090045
0.011325441 0.0274696 0.0055676783
0.07607697 0.0274696 0.00031606527
0.095403843 0.0274696 0.0079208519
0.14259227 0.0274696 0.0013074409
0.15228334 0.027469601 0.00018464052
0.33169228 0.0274696 0.003763102
0.31491628 -0.0201941 0.015064082
0.335747 -0.016814742 0.018529728
0.33795384 -0.00018785083 0.015194383
0.335747 0.0037282908 0.017614812
-0.31009701 0.012161119 0.013635652
-0.27244416 0.0179366 0.010172701
-0.16358727 0.0179366 0.011488898
-0.045734074 0.0179366 0.017747464
-0.021857575 0.0179366 0.013065085
0.068428405 0.0179366 0.010130903
0.3382957 0.0179366 0.010229608
0.36561233 0.0179366 0.015578181
0.38596499 0.0179366 0.012959118
0.44561815 0.0179366 0.011075043
0.47296935 0.0179366 0.010897406
-0.47582483 0.023185069 0.015222887
-0.45530534 0.027469601 0.016662683
-0.27109766 0.0274696 0.01673766
-0.26770478 0.027469598 0.01758676
-0.20133996 0.0274696 0.01889384
-0.15102506 0.027469598 0.016942482
-0.090735599 0.0274696 0.01245826
-0.08089298 0.0274696 0.015261543
-0.0034049526 0.0274696 0.011876192
0.12541373 0.027469598 0.011329646
0.19139895 0.027469598 0.01277122
0.2151726 0.027469598 0.018884702
0.22903788 0.0274696 0.013450896
0.39746875 0.0274696 0.013382941
0.43034533 0.0274696 0.012491822
0.46943441 0.027469598 0.015098698
0.28331906 -0.020194098 0.029516047
-0.36014399 -0.010325903 0.02637076
-0.42184293 0.0179366 0.029451361
-0.16066259 0.0179366 0.024567634
-0.019217446 0.0179366 0.022336088
0.065842293 0.0179366 0.025066204
0.10661156 0.0179366 0.028007811
0.16506732 0.0179366 0.02103667
0.17693019 0.0179366 0.026923664
0.21335019 0.0179366 0.024016296
0.2778222 0.0179366 0.027631806
0.34375834 0.0179366 0.023437588
0.35864931 0.017936602 0.029148774
0.38514683 0.0179366 0.025140569
-0.33925286 0.0274696 0.025999272
-0.316989 0.027469598 0.021234261
-0.30927622 0.028645489 0.02494147
-0.28606275 0.0274696 0.022398405
-0.21402478 0.027469601 0.022404036
-0.20683524 0.027469601 0.025894033
-0.09647508 0.0274696 0.026785955
0.008001335 0.0274696 0.027939502
0.12369175 0.027469601 0.027463939
0.18746211 0.0274696 0.025675539
0.20092085 0.0274696 0.021375243
0.27813274 0.0274696 0.025223834
0.36670774 0.0274696 0.022503713
0.29438034 -0.0201941 0.033215396
-0.36014399 -0.016940176 0.031388532
-0.31009704 -0.016941054 0.031481992
0.28608817 -0.014957695 0.035067759
0.28519952 -0.0034842989 0.03509612
-0.35653108 0.0069044302 0.0390459
-0.34598723 0.0087180054 0.0390459
-0.33393216 0.005023601 0.0390459
-0.32064787 0.0043203644 0.0390459
-0.3107627 0.0047933743 0.03788992
0.2858398 0.0053982437 0.0390459
-0.31217116 0.010989445 0.0390459
-0.19664428 0.0179366 0.034676693
-0.12801886 0.0179366 0.038995244
0.055996697 0.0179366 0.032302365
0.11561057 0.0179366 0.037834831
0.15402225 0.0179366 0.032626633
0.20562966 0.0179366 0.034643549
0.24852321 0.0179366 0.031175297
0.37999606 0.0179366 0.032747719
0.38680461 0.0179366 0.038627062
0.44216317 0.0179366 0.037872389
0.4617925 0.0179366 0.034123071
-0.45468646 0.0274696 0.03954931
-0.39910367 0.0274696 0.035453778
-0.16786379 0.027469601 0.031642497
-0.15438788 0.027469601 0.037254781
0.23752786 0.0274696 0.030436363
0.29458869 0.028661001 0.033610389
0.30833492 0.0298524 0.033576865
0.32867676 0.027469598 0.037631977
0.35303617 0.0274696 0.03983207
0.39215717 0.027469598 0.033940312
-0.32939047 -0.0066017928 0.040480141
0.31829938 -0.0024078011 0.041574229
-0.42565164 0.0179366 0.041241512
-0.35631326 0.0179366 0.046270829
-0.32411569 0.0179366 0.046123415
-0.24117602 0.0179366 0.040895954
-0.22204746 0.0179366 0.048899956
-0.15887727 0.0179366 0.04861135
-0.13150632 0.0179366 0.048387889
-0.091094285 0.0179366 0.047070719
0.018483683 0.0179366 0.04332526
0.038424999 0.0179366 0.047494609
0.084682815 0.0179366 0.040932875
0.16290733 0.0179366 0.040265732
0.24967572 0.0179366 0.049704652
0.39167759 0.0179366 0.048966192
0.42476672 0.0179366 0.041070417
-0.39165929 0.0274696 0.041960053
-0.36483386 0.0274696 0.043374248
-0.31355742 0.0298524 0.047549885
-0.28332582 0.0274696 0.046227328
-0.17687598 0.0274696 0.040531497
-0.14648026 0.027469598 0.043184556
0.038877338 0.0274696 0.043893553
0.053860128 0.027469598 0.046652056
0.078722343 0.027469601 0.047702186
0.08052896 0.027469601 0.042068813
0.24777991 0.029204894 0.040765606
0.35511327 0.027469601 0.044931121
0.41633144 0.027469601 0.049043775
0.46738422 0.027469598 0.047878742
0.31558543 -0.013227476 0.05421897
0.31862521 -0.0057453732 0.055340771
-0.4530454 0.0179366 0.053777143
-0.41951019 0.0179366 0.059647441
-0.34458441 0.0179366 0.057580799
-0.31907418 0.0179366 0.05982662
-0.27900362 0.0179366 0.059653312
-0.19184953 0.0179366 0.053736858
-0.16795002 0.0179366 0.052185155
-0.12284896 0.0179366 0.051982626
-0.054046895 0.0179366 0.052949093
-0.03578807 0.0179366 0.054217193
-0.0053772656 0.0179366 0.059356928
0.11731028 0.0179366 0.056769885
0.14730851 0.0179366 0.058199316
0.17946196 0.0179366 0.052971233
0.20631175 0.0179366 0.055178568
0.36260384 0.0179366 0.05857005
0.38541204 0.017936602 0.05758239
-0.46004012 0.027469598 0.053364746
-0.45969394 0.0274696 0.055475652
-0.40659598 0.0274696 0.050124895
-0.38192296 0.0274696 0.054629773
-0.36921787 0.027469601 0.054311879
-0.25926438 0.0274696 0.056167379
-0.21830419 0.0274696 0.050607711
-0.15407917 0.027469598 0.050245192
-0.13004941 0.0274696 0.058813184
-0.093969852 0.027469601 0.055119611
-0.040135436 0.0274696 0.059947889
-0.037173703 0.0274696 0.058927383
0.073037729 0.0274696 0.059455127
0.08545652 0.0274696 0.050879113
0.12561134 0.0274696 0.055470876
0.17037512 0.027469601 0.056681119
0.18387635 0.0274696 0.050093826
0.21754187 0.027469601 0.053033374
0.25952184 0.028229261 0.051830593
-0.3534205 -0.022203317 0.068320513
0.31527236 -0.024639349 0.060494699
-0.34796205 -0.0028485691 0.069468632
-0.33539352 -0.0045811026 0.06386932
0.31810871 -0.0018261706 0.061514959
0.32035452 -0.0075122248 0.060494699
0.32173645 0.0070884149 0.060494699
-0.41170526 0.0179366 0.069235452
-0.34537035 0.017033927 0.061861504
-0.33942679 0.018025644 0.061703511
-0.2999135 0.0179366 0.06828963
-0.27239552 0.0179366 0.06767083
-0.13503656 0.017936599 0.06154868
-0.030704839 0.0179366 0.064958259
0.029704457 0.0179366 0.062458418
0.11096168 0.0179366 0.061207987
0.26117712 0.0179366 0.06766744
0.30773801 0.0179366 0.066307247
0.33324757 0.0179366 0.060286965
-0.46295631 0.023202103 0.061361827
-0.44511738 0.0274696 0.063346229
-0.39895236 0.0274696 0.067343377
-0.38410473 0.027469598 0.065940209
-0.35467243 0.0274696 0.066364408
-0.30918136 0.027469601 0.061469525
-0.2151494 0.0274696 0.068572477
-0.15583196 0.027469598 0.062871873
-0.030394975 0.027469601 0.068542093
0.054085501 0.0274696 0.066658705
0.21388832 0.0274696 0.065392703
0.27851313 0.027469601 0.064028725
0.35805359 0.027469598 0.063238651
0.39628717 0.0274696 0.065732591
-0.34048077 -0.027666803 0.070067436
0.29834056 -0.026129302 0.070574582
0.30723792 -0.024660502 0.077177197
-0.34303746 -0.013218712 0.072101235
0.3188034 -0.010507573 0.077177197
0.32822114 -0.012255221 0.072166644
-0.32956982 -0.0074829804 0.072246142
0.2864669 -0.0023435024 0.076324105
0.29774663 0.0023384986 0.073402338
-0.45362908 0.0179366 0.070627108
-0.27592134 0.0179366 0.07744661
-0.23173635 0.0179366 0.071044445
-0.16478506 0.0179366 0.07360357
-0.10816537 0.0179366 0.078243226
-0.076425172 0.0179366 0.075979732
-0.042366512 0.0179366 0.078140378
0.065288261 0.0179366 0.078130379
0.098275714 0.0179366 0.074741393
0.13308136 0.0179366 0.074952997
0.16286896 0.0179366 0.076090977
0.19769116 0.0179366 0.074870519
0.21026304 0.0179366 0.076773174
0.2951411 0.0179366 0.072743215
0.30846703 0.0179366 0.079835564
0.32931232 0.0179366 0.077540398
0.35196221 0.0179366 0.070485026
0.42763537 0.0179366 0.071321428
-0.23566142 0.0274696 0.071698196
-0.17097941 0.027469601 0.076241031
-0.12599304 0.027469598 0.075961798
-0.11927423 0.0274696 0.072343536
-0.066296086 0.0274696 0.078120232
-0.037883803 0.027469601 0.072670519
0.21118422 0.0274696 0.077487215
0.27500618 0.0274696 0.075041234
0.33858487 0.0274696 0.07722421
-0.41564196 0.0179366 0.088141002
-0.34984392 0.0179366 0.083043344
-0.33464077 0.0179366 0.089302249
-0.21036644 0.0179366 0.081610106
-0.094384678 0.0179366 0.082582913
0.033565462 0.0179366 0.086802326
0.18093424 0.0179366 0.086217344
0.26381716 0.0179366 0.081281483
-0.42567331 0.0274696 0.082169503
-0.37826031 0.027469601 0.086609565
-0.34270981 0.0274696 0.08940658
-0.093491435 0.027469601 0.080940261
-0.071993716 0.0274696 0.08664646
-0.001702413 0.027469601 0.088857606
0.015086278 0.0274696 0.082631186
0.085074306 0.027469598 0.085764326
0.10701121 0.027469598 0.083766773
0.11506655 0.027469598 0.089920558
0.14445049 0.027469601 0.089706987
0.33498114 0.0274696 0.082723409
0.4069404 0.0274696 0.086174145
-0.37958702 0.0179366 0.09941946
-0.31230634 0.0179366 0.099840246
-0.30934632 0.0179366 0.092207156
-0.24836206 0.0179366 0.092093147
-0.23880957 0.0179366 0.091529541
-0.18977302 0.0179366 0.094943225
-0.030219018 0.0179366 0.090949029
0.034251302 0.0179366 0.098278061
0.10221644 0.0179366 0.095867835
0.16212924 0.0179366 0.090221152
0.19077791 0.0179366 0.091279015
0.20985492 0.0179366 0.091400258
0.23220725 0.0179366 0.097419158
0.35589653 0.0179366 0.098125204
0.37238359 0.0179366 0.096570671
0.41846442 0.0179366 0.096849546
-0.37815332 0.027469598 0.098959439
-0.35185835 0.027469601 0.097184464
-0.24359241 0.027469601 0.099469207
-0.23486958 0.027469598 0.098983116
-0.13054846 0.027469598 0.096991949
-0.12451505 0.027469601 0.09896519
-0.063106 0.0274696 0.092642888
-0.052932009 0.0274696 0.092010282
0.0390414 0.0274696 0.091516614
0.1122219 0.027469598 0.099191949
0.18033788 0.0274696 0.093512915
0.19508314 0.027469598 0.091097035
0.34442449 0.0274696 0.091401659
0.37391633 0.027469598 0.096509859
0.38588399 0.0274696 0.099773154
-0.39270782 0.0179366 0.10504197
-0.38454154 0.0179366 0.10301889
-0.33255842 0.0179366 0.10417001
-0.2126725 0.0179366 0.10355785
-0.20718232 0.0179366 0.10479999
-0.16336566 0.0179366 0.10417435
-0.12964208 0.017936599 0.10508842
-0.1015769 0.0179366 0.10919482
-0.072032787 0.0179366 0.10899219
0.018948613 0.017936599 0.10680921
0.094102889 0.0179366 0.10644211
0.14030735 0.0179366 0.10500263
0.19937989 0.0179366 0.10755631
0.2213141 0.0179366 0.10975885
0.28594378 0.0179366 0.10953367
0.30596602 0.0179366 0.10168867
0.35334277 0.0179366 0.10232922
0.41773108 0.0179366 0.10015821
-0.41097257 0.0274696 0.10874648
-0.39185968 0.027469598 0.10909832
-0.37680072 0.0274696 0.10288133
-0.34363171 0.0274696 0.10384142
-0.33359683 0.027469598 0.10137744
-0.26571232 0.0274696 0.1023933
-0.25972423 0.027469601 0.10940192
-0.21229675 0.027469598 0.10833095
-0.037196994 0.027469598 0.10467796
-0.029149748 0.0274696 0.10438881
0.097283252 0.027469601 0.10033769
0.1983923 0.027469601 0.1006577
0.27623111 0.0274696 0.10009234
0.28868842 0.027469598 0.10486999
0.36534879 0.0274696 0.10665297
0.43081909 0.022815458 0.10562007
-0.41116551 0.0179366 0.11130004
-0.25978756 0.0179366 0.11038461
-0.20634592 0.017936602 0.11202384
-0.13327894 0.0179366 0.11471878
-0.105235 0.0179366 0.11161081
-0.065928578 0.0179366 0.1178409
0.049968779 0.017936599 0.11069456
0.16429085 0.0179366 0.11199042
0.17028691 0.0179366 0.115352
0.23924679 0.0179366 0.11908502
0.2814818 0.0179366 0.11193605
0.41359514 0.0179366 0.11269727
-0.41999316 0.022006605 0.11392693
-0.40996206 0.0274696 0.11897652
-0.36306328 0.027469598 0.11707799
-0.3315078 0.0274696 0.11387102
-0.29310331 0.027469598 0.11652839
-0.20306556 0.0274696 0.11115215
-0.16806965 0.0274696 0.11616977
-0.06020876 0.0274696 0.11839223
0.22096515 0.0274696 0.11208116
0.23850681 0.0274696 0.1115672
0.39421862 0.027469598 0.115207
-0.36758804 0.0179366 0.12555887
-0.26530516 0.0179366 0.1279107
-0.23880279 0.017936602 0.12152013
0.025941394 0.0179366 0.12719017
0.19301274 0.0179366 0.12223562
0.29038545 0.0179366 0.12944981
0.31112272 0.0179366 0.1276838
0.32852077 0.0179366 0.12792659
0.38903937 0.0179366 0.12970424
-0.39927688 0.0274696 0.12265825
-0.38225842 0.0274696 0.12752503
-0.33083084 0.027469601 0.12253481
-0.2282812 0.027469601 0.12853974
-0.16365761 0.0274696 0.1242584
-0.1593776 0.0274696 0.12523368
-0.077564567 0.0274696 0.12247483
-0.020195544 0.027469601 0.12825456
0.049061373 0.0274696 0.12006741
0.084666915 0.027469601 0.12031242
0.099069335 0.0274696 0.12864822
0.1021083 0.0274696 0.12066968
0.16102126 0.0274696 0.12966016
0.33164382 0.0274696 0.12822995
-0.22257569 0.0179366 0.13755694
-0.16422543 0.0179366 0.13173006
-0.066861741 0.017936602 0.13095301
-0.04931359 0.0179366 0.13853164
0.0069739195 0.0179366 0.13965836
0.16787782 0.0179366 0.13343911
0.17338537 0.0179366 0.13905583
0.18712729 0.0179366 0.1348671
0.20102206 0.0179366 0.13628843
0.21482211 0.0179366 0.13289768
0.22004326 0.0179366 0.13082933
0.23888445 0.0179366 0.13460639
0.24653421 0.0179366 0.13840064
0.33702853 0.017936602 0.13251851
0.36635083 0.017936602 0.13761276
-0.3180812 0.0274696 0.13676724
-0.24933782 0.027469598 0.13836491
-0.23503411 0.027469598 0.13616231
-0.15355201 0.027469601 0.13210756
-0.13809887 0.027469601 0.13868859
-0.10624533 0.0274696 0.13487408
-0.083135776 0.027469601 0.13533694
0.04239016 0.0274696 0.13639808
0.050864123 0.0274696 0.13323821
0.14692026 0.027469598 0.13539931
0.18901032 0.027469601 0.133398
0.36783904 0.023072328 0.13968128
0.37736148 0.021152057 0.13661972
0.38587707 0.0274696 0.13198872
-0.33158234 0.018795993 0.14418299
-0.17128618 0.019449092 0.14418301
-0.044468407 0.0179366 0.14226201
0.075721659 0.018222352 0.14418299
0.29409164 0.0179366 0.14266993
0.31317785 0.0179366 0.14409044
-0.3410815 0.02386266 0.14320408
-0.32750523 0.027469598 0.14142719
-0.23914513 0.020657582 0.14418299
-0.19333783 0.023564879 0.14418299
-0.1415316 0.023796633 0.14418299
-0.11540344 0.025864299 0.14359036
-0.089331433 0.026030364 0.14418299
0.034900002 0.026311755 0.14418299
0.044869095 0.0274696 0.14214662
0.096253462 0.027469598 0.14157915
0.14870852 0.020787429 0.14418299
0.15780449 0.024750004 0.14418299
0.36134058 0.020888846 0.14053684
