# .PCD v0.7 - Point Cloud Data file format
VERSION 0.7
FIELDS x y z
SIZE 4 4 4
TYPE F F F
COUNT 1 1 1
WIDTH 931
HEIGHT 1
VIEWPOINT 0 0 0 1 0 0 0
POINTS 931
DATA ascii
-0.077711061 0.034111723 -0.40640903
-0.035246346 0.0337088 -0.40055984
-0.032929525 0.045159139 -0.40335938
-0.097084001 0.053195432 -0.40564609
-0.083847634 0.054506499 -0.40601069
-0.15496643 0.036053903 -0.39103618
-0.094928697 0.0337088 -0.391684
-0.1467641 0.04772909 -0.39377284
-0.0052606249 0.043407656 -0.39632574
0.0024836455 0.045283314 -0.3936221
-0.10657486 0.054506503 -0.39557791
-0.097952753 0.054506496 -0.39348382
-0.048569329 0.054506499 -0.39863536
-0.023294047 0.054506499 -0.39635378
0.0098026395 0.054506499 -0.39039925
-0.03384795 0.0337088 -0.38388392
-0.14477748 0.054506503 -0.38655931
-0.061135709 0.0337088 -0.37815228
-0.0062676314 0.035041898 -0.37537444
-0.0023066979 0.043014269 -0.37263465
0.00075784605 0.043225273 -0.37390405
0.031092383 0.045094583 -0.37118024
-0.18474522 0.054506499 -0.37328607
-0.090728275 0.054506499 -0.3758429
-0.051155362 0.054506496 -0.37729877
-0.030613471 0.041372586 -0.36090967
-0.070302084 0.0337088 -0.35721892
-0.06405177 0.0337088 -0.35650498
-0.046384782 0.0337088 -0.35684621
-0.21129642 0.054506499 -0.35563624
-0.11931122 0.054506499 -0.35968241
-0.058393504 0.054506496 -0.35419634
-0.19225991 0.0337088 -0.34693933
-0.17568979 0.0337088 -0.34488118
-0.12034439 0.0337088 -0.34206414
-0.079888701 0.033708796 -0.34137383
-0.052106209 0.0337088 -0.34468016
-0.0030491911 0.0337088 -0.34076032
0.013657979 0.0337088 -0.34225595
-0.11771067 0.054506499 -0.34269607
-0.10778879 0.054506499 -0.34587651
-0.020058677 0.053753003 -0.34059182
-0.014972252 0.053753 -0.34804428
-0.0082152123 0.053753 -0.34691542
-0.14420332 0.033708803 -0.33607244
-0.12965323 0.0337088 -0.33178204
-0.11297762 0.033708803 -0.33833525
-0.098424643 0.03782858 -0.33282149
0.023886722 0.0337088 -0.33833316
0.042231016 0.0337088 -0.33669859
-0.22321662 0.054506499 -0.33174467
-0.21605009 0.054506499 -0.33601844
-0.19641507 0.054506499 -0.33170947
-0.088199124 0.050217021 -0.33705702
-0.051483922 0.053752996 -0.33124664
-0.24532166 0.036225446 -0.32445052
-0.1358715 0.0337088 -0.32930341
-0.10132238 0.0337088 -0.32054743
-0.037497688 0.0337088 -0.32011068
0.050775267 0.0444699 -0.32366163
-0.21734996 0.054506496 -0.32678854
-0.14565518 0.054506499 -0.32688588
-0.10615651 0.050177507 -0.32961887
-0.23584464 0.0337088 -0.31626096
-0.1769596 0.0337088 -0.3129696
-0.1415772 0.035720155 -0.31494719
-0.13704041 0.035334781 -0.31567219
-0.098133877 0.0337088 -0.31970146
-0.034306854 0.0337088 -0.3119289
-0.013334658 0.0337088 -0.31005043
-0.00016315281 0.0337088 -0.31859004
0.02999327 0.0337088 -0.31948602
0.038235139 0.0337088 -0.31524792
-0.23260927 0.054506499 -0.31622538
-0.20639296 0.054506499 -0.31536102
-0.14873818 0.052988216 -0.31198102
-0.10898454 0.053753003 -0.31760883
-0.036993034 0.053753 -0.31144387
0.010728385 0.053753003 -0.31947085
-0.21307856 0.0337088 -0.30130959
-0.10513595 0.0337088 -0.30324331
-0.099758163 0.0337088 -0.30197823
-0.08121229 0.0337088 -0.30094802
-0.23138455 0.054506499 -0.30897489
-0.22456454 0.054506499 -0.30361548
-0.097094327 0.053753 -0.30351716
-0.00092083588 0.053753 -0.30516058
0.03571583 0.053753003 -0.30361968
0.055803921 0.053753003 -0.30935591
-0.2608 0.0337088 -0.29088682
-0.20545262 0.0337088 -0.29052109
-0.086792544 0.0337088 -0.29861808
-0.073644325 0.0337088 -0.29484823
-0.12943117 0.053753 -0.29796761
-0.1151216 0.053753 -0.29645684
-0.07789278 0.053753 -0.29829243
-0.065704137 0.053752996 -0.29641104
0.048940964 0.053753 -0.29249963
-0.25823793 0.0337088 -0.28027648
-0.22348373 0.0337088 -0.28453887
-0.21524738 0.035619158 -0.28487268
-0.20852795 0.0337088 -0.28194767
-0.013390218 0.0337088 -0.28011984
-0.0074749198 0.0337088 -0.28188419
0.066122308 0.036982354 -0.28661066
0.067514837 0.04528138 -0.28324878
-0.24503931 0.054506496 -0.28918019
-0.22706354 0.054506499 -0.283858
-0.15223417 0.053752996 -0.28163019
-0.11212825 0.053753 -0.28888148
-0.083545864 0.053753003 -0.28437501
-0.049494468 0.053753 -0.28500396
-0.021993313 0.053753 -0.28516579
0.045442827 -0.030419163 -0.27583024
0.066934705 -0.010783713 -0.27052346
-0.26600826 0.0337088 -0.27606606
-0.25570232 0.0337088 -0.27189207
-0.23055868 0.0337088 -0.2716608
-0.21736987 0.0337088 -0.27297887
-0.20816882 0.0337088 -0.27823564
0.070566915 0.046359934 -0.27588043
-0.26666141 0.054506496 -0.2776143
-0.19663717 0.053753 -0.27620488
-0.18258795 0.053752996 -0.27444631
-0.10214415 0.053753 -0.27269968
-0.074052416 0.053753 -0.27488258
-0.055766951 0.053753 -0.27449012
-0.041395936 0.053753 -0.27390137
0.028501939 0.053753003 -0.27777004
0.069358572 -0.045718629 -0.26467183
0.040693548 -0.030971812 -0.26650083
0.030553566 -0.026957421 -0.26230061
0.068102077 -0.029109888 -0.26770523
0.027909689 -0.013646222 -0.26120549
0.034552377 -0.014578314 -0.26466045
0.042304721 -0.00092310971 -0.26168272
0.056964152 -0.00062284607 -0.26743183
-0.28184605 0.037941232 -0.26109365
-0.27812055 0.0337088 -0.26729769
-0.1981238 0.0337088 -0.26201579
-0.14049889 0.0337088 -0.26180238
-0.10705952 0.0337088 -0.2606588
-0.084749378 0.0337088 -0.26504701
0.0066424254 0.0337088 -0.26676059
-0.20073994 0.053753 -0.26238045
-0.15570952 0.053752996 -0.26452905
0.036055349 0.053753 -0.26666695
0.072593018 -0.020877251 -0.25686333
0.067202643 -0.00601742 -0.25816524
-0.2537024 0.0337088 -0.25392437
-0.048704259 0.0337088 -0.25957513
-0.032326289 0.0337088 -0.25416481
0.081195831 0.04714185 -0.25022
-0.28342044 0.053753 -0.25476635
-0.22738302 0.053752996 -0.25655043
-0.16029374 0.053753 -0.25489315
-0.071570121 0.053753003 -0.25450441
0.077660911 0.0537352 -0.25875401
0.077599116 -0.010544546 -0.24477749
0.012855002 -0.00601742 -0.24390712
-0.18519133 0.0337088 -0.2436035
-0.12666911 0.0337088 -0.24491757
-0.10293065 0.0337088 -0.24675672
-0.17782125 0.053752996 -0.2482572
-0.074412271 0.053753 -0.24009457
-0.053308744 0.053753 -0.24902669
0.064139858 0.053753 -0.24924225
0.036707886 -0.045744099 -0.23006755
0.043809161 -0.045744099 -0.23649037
0.073629029 -0.045744099 -0.23257206
-0.034481786 -0.0391367 -0.23536232
-0.036246307 -0.026790628 -0.23463179
0.082402259 -0.025089696 -0.23318174
-0.0040757302 -0.0060174204 -0.23137251
0.017545152 -0.00601742 -0.23949748
-0.17377627 0.0337088 -0.23043495
-0.16691853 0.0337088 -0.232355
-0.12729651 0.0337088 -0.23660994
-0.10354213 0.0337088 -0.23060787
-0.024052469 0.0337088 -0.23916325
-0.019594315 0.0337088 -0.23472148
0.065601423 0.0337088 -0.23390789
0.056655806 0.053753003 -0.23085928
0.075716361 0.053753 -0.23332186
0.05988773 -0.045744099 -0.22723189
-0.070357665 -0.034874037 -0.22050218
-0.0033844244 -0.0060174204 -0.22488704
0.047420986 -0.0060174195 -0.2286021
0.077901654 -0.0093295136 -0.22022985
0.050056629 0.0058499775 -0.22974253
-0.22847815 0.0337088 -0.22716518
-0.21961848 0.0337088 -0.22489513
-0.17899722 0.0337088 -0.2231621
-0.15930833 0.0337088 -0.22988307
-0.04858236 0.0337088 -0.22398387
-0.020628266 0.033708796 -0.22487158
0.005164139 0.0337088 -0.22111112
0.025374193 0.0337088 -0.22197062
0.039987359 0.0337088 -0.22199994
0.092831083 0.036109969 -0.22213005
-0.26941523 0.044156648 -0.22066119
-0.14202477 0.053753 -0.22571127
-0.11435973 0.053753003 -0.22043601
-0.096830271 0.053753 -0.22515088
-0.07096187 0.053753 -0.22786723
0.049294271 0.053753003 -0.22507755
0.050082237 0.053753003 -0.22787657
-0.073935315 -0.045744099 -0.21122596
0.066954657 -0.040402208 -0.21360296
0.079395212 -0.029039217 -0.21552503
0.043691766 -0.00601742 -0.2147679
-0.24030225 0.0337088 -0.21420276
-0.10365562 0.0337088 -0.21634746
-0.2299014 0.053753 -0.21740705
-0.0048306566 0.053752996 -0.21615374
0.023338003 0.053753 -0.21584609
0.090301163 0.053752996 -0.2184329
-0.088356502 -0.045744099 -0.20727475
-0.099097505 -0.026861213 -0.20859802
-0.11485672 -0.018832028 -0.20207056
0.054315962 -0.010383746 -0.20836774
-0.042707808 0.016942991 -0.20748828
-0.10355568 0.022996563 -0.2008114
-0.25338143 0.0337088 -0.20211239
-0.19170785 0.0337088 -0.20191008
-0.10473554 0.033708796 -0.20514515
-0.037419673 0.0337088 -0.20256764
0.087571904 0.0337088 -0.20616636
-0.2173339 0.053753 -0.2088363
0.074012384 0.053753 -0.2042225
-0.11466692 -0.045744099 -0.19878453
-0.026028901 -0.045744099 -0.19993198
-0.12518235 -0.027411012 -0.1977933
0.02550281 -0.029675948 -0.19643302
-0.13689767 -0.013997611 -0.19294089
-0.11435887 -0.0060174204 -0.19001392
-0.14120382 0.0337088 -0.19144021
-0.035721637 0.031016003 -0.19062191
0.0021920241 0.0337088 -0.19057024
0.025572371 0.033708796 -0.19381106
0.10241464 0.044025086 -0.19899331
-0.23515879 0.053753 -0.19805847
-0.12152255 0.053753 -0.19074911
-0.095859498 0.053753 -0.194484
0.026782487 0.053752996 -0.19500658
0.093529135 0.053753 -0.195658
-0.15884332 -0.045744099 -0.18124478
-0.14444764 -0.045744099 -0.184763
0.0074137696 -0.043230709 -0.1889403
-0.25280803 0.03881523 -0.18056801
-0.22976923 0.0337088 -0.18295214
-0.18639566 0.0337088 -0.18114415
-0.018510595 0.0337088 -0.18374029
0.054740153 0.0337088 -0.18498795
0.10926548 0.0337088 -0.1815868
0.10681497 0.042041466 -0.18837002
-0.14902507 0.053753 -0.18205896
-0.022404738 0.053753003 -0.18906209
0.078731537 0.053752996 -0.1801393
-0.17320992 -0.045744099 -0.17669836
-0.12971482 -0.045744099 -0.17083567
-0.034674685 -0.045744099 -0.17865202
-0.18295196 -0.017321881 -0.17386404
-0.018359262 -0.013198292 -0.17826483
-0.18343595 -0.00601742 -0.17239086
-0.024179045 -0.0076147886 -0.17741755
-0.093770087 0.0034586028 -0.17718697
-0.18060389 0.0337088 -0.17575605
0.003456641 0.0337088 -0.17204987
-0.14112048 0.053753003 -0.17190154
-0.024539258 0.053752996 -0.17404425
-0.013523829 0.053753 -0.17280953
0.050603945 0.053753 -0.17270078
-0.19916928 -0.045744099 -0.16450059
-0.16944702 -0.045744099 -0.1633109
-0.065747648 -0.045744099 -0.16312769
-0.19662091 -0.026503999 -0.16820429
-0.052935384 -0.026621323 -0.16394298
-0.048843335 -0.017169923 -0.1656377
-0.12659062 -0.00601742 -0.16532531
-0.093932368 -0.00601742 -0.16143772
-0.088902079 -0.0034160172 -0.16543457
-0.04788686 -0.0017104591 -0.16603406
-0.24639755 0.039625101 -0.16509175
-0.12345263 0.0337088 -0.16339724
-0.0017554015 0.0337088 -0.16030523
0.02707997 0.0337088 -0.16422485
-0.23029606 0.053753 -0.16676782
-0.20764863 0.053753 -0.16574425
-0.13678363 0.053753 -0.16676147
-0.10477683 0.053752996 -0.16393882
-0.063938133 0.053753 -0.16840087
-0.040688373 0.053753003 -0.16231015
-0.013426915 0.053753003 -0.16469407
-0.14000532 -0.045744099 -0.1535861
-0.22219251 -0.031708993 -0.15413547
-0.20557991 0.0030668359 -0.15218031
-0.2080595 0.0337088 -0.15555172
-0.10446541 0.0337088 -0.15792239
-0.086263105 0.03203766 -0.1590635
-0.064586997 0.0337088 -0.15245356
-0.019123994 0.0337088 -0.15113808
-0.18338494 0.053753 -0.15036365
-0.12943295 0.053753 -0.1590922
-0.089009821 0.053753003 -0.15823059
-0.07679303 0.053753 -0.15146217
0.016185191 0.053753 -0.15089653
0.075770959 0.053753 -0.15071204
0.098385096 0.053753 -0.15016051
-0.20041996 -0.058991212 -0.14262044
-0.13394299 -0.045744099 -0.14499089
-0.10241474 -0.043548841 -0.14344805
-0.096074834 -0.042556446 -0.14607412
-0.21684845 -0.0064285556 -0.14123452
-0.12654307 -0.00601742 -0.14792064
-0.21138045 0.004980294 -0.14572437
-0.19559219 0.0072654481 -0.14346854
-0.21087559 0.0337088 -0.14410406
-0.1329069 0.0337088 -0.14897558
-0.097488724 0.0337088 -0.14776483
-0.089689374 0.0337088 -0.14035149
0.03009348 0.033708803 -0.14933665
0.10598039 0.0337088 -0.14625995
-0.23710993 0.042213187 -0.14266944
-0.219612 0.053753 -0.14428428
-0.084785193 0.053753 -0.14870358
-0.037958656 0.053753003 -0.14357944
0.060303021 0.053752996 -0.14852709
0.086649902 0.053753 -0.14867443
0.1189936 0.053753 -0.14908278
-0.19796947 -0.059781425 -0.13846971
-0.18916269 -0.059040103 -0.1316428
-0.19051354 -0.045744099 -0.13918643
-0.18152912 -0.045744099 -0.13270546
-0.1191963 -0.033570793 -0.13649695
-0.12228642 -0.012671981 -0.13521692
-0.21274906 -0.00601742 -0.13738456
-0.20518827 -0.00601742 -0.13093063
-0.1725512 -0.00601742 -0.13062209
-0.1525327 -0.00601742 -0.13707729
-0.11687645 -0.0073019443 -0.13745765
-0.23209256 0.036448177 -0.13055649
-0.2172644 0.0337088 -0.13295528
-0.2073884 0.0337088 -0.13653897
-0.15514202 0.0337088 -0.13475201
-0.11265947 0.0337088 -0.1315254
-0.10750945 0.0337088 -0.13246948
-0.09839683 0.0337088 -0.13208243
-0.045071337 0.0337088 -0.13252786
0.11399312 0.0337088 -0.13268733
-0.18257587 0.053752996 -0.13710821
-0.11907496 0.053753003 -0.13572195
-0.1064472 0.053753003 -0.13205202
-0.095915794 0.053753003 -0.13463742
-0.076073647 0.053753 -0.13802624
-0.021982312 0.053753003 -0.1377763
0.060542442 0.053752996 -0.13600248
-0.18008053 -0.053094722 -0.12831715
-0.19654849 -0.045744099 -0.1207401
-0.14839987 -0.037642524 -0.12440049
-0.13923986 -0.035886746 -0.12819467
-0.14406581 -0.029680451 -0.1261957
-0.19535519 -0.0060174204 -0.12732476
-0.15852773 -0.009386966 -0.1202054
-0.2062096 0.0071320864 -0.12524334
-0.2185985 0.0337088 -0.12399045
-0.16661769 0.0337088 -0.12258341
-0.12271281 0.0337088 -0.12243575
0.10084131 0.0337088 -0.12785099
-0.2300225 0.049674392 -0.12555894
-0.19633155 0.053753 -0.1277052
-0.18805444 0.053752996 -0.12243656
-0.16143346 0.053753003 -0.12674323
-0.13339949 0.053753 -0.12847653
-0.080937274 0.053752996 -0.12909716
0.0031341244 0.053753 -0.12064116
-0.20533237 -0.056723356 -0.11827242
-0.19391119 0.0009145579 -0.11582851
-0.20027621 0.0337088 -0.1102168
-0.14913976 0.0337088 -0.11394147
0.024513565 0.0337088 -0.11043866
-0.078709505 0.053753 -0.11393965
0.055515964 0.053753003 -0.11859523
0.10238257 0.053753 -0.11577899
-0.19025393 -0.025319783 -0.10292289
-0.074478053 0.0337088 -0.10038315
-0.017236717 0.0337088 -0.10763724
-0.00076994114 0.0337088 -0.10330782
0.12632963 0.0337088 -0.10591973
0.1420705 0.046995435 -0.1032557
-0.036851406 0.053753003 -0.10813311
0.018433072 0.053753 -0.10050627
-0.20346561 -0.026408428 -0.097817503
0.0083751734 0.0337088 -0.099760607
0.01901352 0.0337088 -0.096759751
0.070959024 0.0337088 -0.099916071
0.14365289 0.034293234 -0.099435516
0.1451118 0.047453105 -0.095913365
-0.19253416 0.053753 -0.092683084
-0.18175247 0.053753 -0.096073523
-0.17012407 0.053753 -0.093414374
-0.14769927 0.053753 -0.099746406
-0.11760858 0.053753003 -0.092675038
-0.027683079 0.053753 -0.096828535
0.032740835 0.053753 -0.099676289
0.046018414 0.053753 -0.09091337
0.13718051 0.053753 -0.092880145
-0.17189032 0.0337088 -0.08693555
-0.054250989 0.0337088 -0.080396831
0.0015814453 0.0337088 -0.081432864
0.022322999 0.0337088 -0.087351903
0.054732844 0.0337088 -0.081699803
0.067387685 0.0337088 -0.087678239
0.13536477 0.0337088 -0.085466616
0.14878327 0.041618086 -0.087049663
-0.17143513 0.053753003 -0.085517392
-0.072736762 0.053753003 -0.089984357
-0.04843723 0.053753 -0.087156914
0.033024497 0.053753003 -0.088200748
0.089482524 0.053753 -0.083194591
0.11070019 0.053753003 -0.081310302
-0.19445181 0.0337088 -0.075375766
-0.13605405 0.0337088 -0.076192491
0.11044614 0.0337088 -0.071823806
0.12471483 0.0337088 -0.079944111
-0.15322053 0.053752996 -0.070018299
-0.12852839 0.053753003 -0.072940134
-0.11838899 0.053753 -0.077183872
-0.076666705 0.053753003 -0.075028151
-0.025786921 0.053752996 -0.077243194
0.083693109 0.053753 -0.070159063
-0.20017458 0.0337088 -0.063802242
-0.14783818 0.0337088 -0.06674879
-0.046020057 0.0337088 -0.065434255
0.019647885 0.0337088 -0.062825941
0.065723777 0.0337088 -0.06264744
0.12622736 0.0337088 -0.063288316
0.13220386 0.0337088 -0.062509514
0.14094655 0.0337088 -0.069234133
-0.17022336 0.053753003 -0.064376317
-0.052343883 0.053753003 -0.061381511
-0.0059494376 0.053753 -0.067465134
0.026183233 0.053753 -0.069341183
0.10225815 0.053753 -0.061843768
-0.042422876 0.0337088 -0.057784636
0.019127972 0.0337088 -0.053362146
0.02151469 0.0337088 -0.053455882
0.034412168 0.0337088 -0.054859664
0.13925295 0.0337088 -0.053908937
0.14650375 0.0337088 -0.057718277
-0.088192746 0.053753 -0.052945875
-0.025390459 0.053753 -0.05527604
0.038086906 0.053753003 -0.050131589
0.051811345 0.053753 -0.054789156
0.066952288 0.053753 -0.055847511
0.082398653 0.053753 -0.058728687
0.093997732 0.053753003 -0.055170886
0.10045993 0.053752996 -0.05079066
0.11316499 0.053753 -0.055582248
-0.12150089 0.0337088 -0.046981595
0.020767219 0.033708796 -0.046505306
0.033856474 0.0337088 -0.047114957
0.15728973 0.0337088 -0.044996735
-0.19475426 0.053753003 -0.043673359
-0.042615753 0.053753 -0.047323063
0.14472415 0.053753003 -0.042365789
0.15187371 0.053753 -0.048721503
-0.15585825 0.0337088 -0.035729527
-0.09200085 0.0337088 -0.038439445
-0.054689445 0.0337088 -0.03235361
-0.0073477384 0.0337088 -0.031942524
0.030669997 0.0337088 -0.031006187
0.10017552 0.0337088 -0.038059942
0.12178022 0.0337088 -0.030796796
-0.17428206 0.053753003 -0.037104204
-0.12767978 0.053753 -0.032915778
-0.082495019 0.053753003 -0.033559453
0.022648863 0.053752996 -0.031495653
0.091993324 0.053752996 -0.039831899
-0.10141201 0.0337088 -0.02294226
-0.082871504 0.0337088 -0.027913859
-0.073911399 0.0337088 -0.024597913
-0.051461525 0.0337088 -0.020908181
0.070336401 0.0337088 -0.02014121
0.16254579 0.0337088 -0.024500653
0.17390472 0.033763006 -0.026401207
-0.18729055 0.043202501 -0.022394966
-0.035986729 0.053753 -0.020394165
0.10182221 0.053752996 -0.02983544
0.12565184 0.053753003 -0.023377419
0.15316206 0.053753 -0.02399306
0.16580629 0.053753003 -0.023194239
-0.12343473 0.0337088 -0.015468091
-0.18491443 0.048742767 -0.016658559
-0.18367174 0.053753003 -0.015022963
-0.094535217 0.053753003 -0.011009559
-0.049904514 0.053753003 -0.010066569
0.01305609 0.053753 -0.014681044
0.17384689 0.053753 -0.017023683
-0.15946028 0.0337088 -0.0013199672
-0.061037816 0.0337088 -0.0080062449
-0.0021277741 0.0337088 -0.00035995245
0.0054707658 0.0337088 -0.0065927431
0.062528007 0.0337088 -8.7985769e-05
0.072495855 0.0337088 -0.0061066076
0.12792775 0.0337088 -0.00097224861
0.18075424 0.04674248 -0.0098650232
-0.17735487 0.053752996 -0.0025132
-0.018681727 0.053753 -0.0024245828
0.044642273 0.053753003 -0.0065761488
0.096387267 0.053752996 -0.0019093007
0.10355419 0.053753 -0.0036577508
0.12719317 0.053753 -0.001664117
0.1418526 0.053753 -0.0091248602
-0.17054538 0.0337088 0.0055865794
-0.14537504 0.0337088 0.0028789788
-0.092512645 0.0337088 0.0092722625
0.022433072 0.0337088 0.0071952492
0.067065485 0.0337088 0.0038620699
0.16364421 0.0337088 0.0017555617
-0.076223046 0.053753003 0.0082831979
-0.014510475 0.053753 0.0069755092
0.026042506 0.053752996 0.0047123209
-0.17114094 0.039079256 0.01659359
-0.077903442 0.0337088 0.019235983
-0.067052886 0.0337088 0.013801247
-0.036530003 0.0337088 0.010092214
-0.027433412 0.0337088 0.015898451
-0.016077023 0.0337088 0.017046761
0.085478008 0.0337088 0.010168403
-0.035931349 0.053752996 0.018594474
-0.01614558 0.053753 0.018215526
0.021910906 0.053753 0.014030188
0.0591195 0.053753 0.011090964
0.066818751 0.053753 0.014323175
0.071189076 0.053752996 0.012679335
0.11765655 0.053752996 0.015907213
0.13129695 0.053753 0.018539682
0.17199433 0.053753 0.015868977
-0.073783606 0.0337088 0.024204679
-0.039885554 0.0337088 0.026210785
-0.021770187 0.0337088 0.02994376
0.075633913 0.0337088 0.027093042
0.12228963 0.0337088 0.023272999
0.1893339 0.0337088 0.026835337
0.19704252 0.045881193 0.029458333
-0.14043628 0.053753 0.025796592
-0.1381188 0.053752996 0.026798539
-0.075260691 0.053753 0.025976166
-0.012785204 0.053753 0.022094816
0.018466249 0.053753 0.022035964
0.06475056 0.053753003 0.029164664
-0.093646109 0.0337088 0.037619766
0.067665547 0.033708803 0.035257578
0.14851509 0.0337088 0.03012678
0.16412412 0.0337088 0.035442647
-0.13367523 0.053753 0.03151276
-0.067659549 0.053753 0.03637496
0.17136258 0.053753 0.037633881
-0.15786497 0.0337088 0.040859044
-0.059889108 0.0337088 0.047884695
0.044794165 0.0337088 0.047907479
0.13485542 0.0337088 0.04665006
-0.1588015 0.042701654 0.04638359
-0.10783759 0.053753 0.048730314
-0.073077232 0.053753 0.043181196
-0.08820492 0.0337088 0.057306252
0.042328775 0.0337088 0.058818042
0.10816458 0.0337088 0.051067889
0.18170144 0.0337088 0.056720853
-0.069033913 0.053753 0.057942748
-0.046371162 0.053753 0.057190895
-0.028195083 0.053753003 0.058436669
0.068304889 0.053753 0.051083848
0.12591322 0.053753 0.057188645
-0.09459123 0.0337088 0.067145318
0.083544604 0.0337088 0.062986806
0.10390328 0.0337088 0.065259591
0.14996727 0.0337088 0.062738515
0.17588842 0.0337088 0.06342911
0.19123954 0.033708803 0.061581694
-0.11130413 0.053753 0.062080577
0.028986605 0.053753 0.068607338
0.044481948 0.053752996 0.068881132
0.053514019 0.053752996 0.063850969
0.074959062 0.053753 0.064144075
0.12781215 0.053753 0.069039837
-0.058056816 0.0337088 0.072208241
-0.047509253 0.0337088 0.078986786
0.073354349 0.0337088 0.076915868
0.14033142 0.0337088 0.076496795
0.018872254 0.053753 0.077487193
0.044448219 0.053752996 0.078880236
0.1067222 0.053753003 0.076428086
-0.10495154 0.0337088 0.081209973
-0.079883769 0.0337088 0.082366139
-0.0099960454 0.0337088 0.086012147
0.079916991 0.0337088 0.088657074
0.12240836 0.0337088 0.084033757
0.19148284 0.0337088 0.088405319
-0.14456232 0.050910309 0.080759935
-0.12382098 0.053753003 0.086999968
-0.043215342 0.053753003 0.081619099
-0.02232871 0.053753003 0.08976537
-0.0037270421 0.053753 0.085203759
0.0027107019 0.053753 0.087806873
0.018053979 0.053753 0.085100666
0.050034776 0.053753003 0.088559218
0.079481862 0.053752996 0.086100012
0.14453979 0.053752996 0.087415203
0.11833782 0.0337088 0.097003847
0.18937694 0.0337088 0.092565179
0.2014938 0.0337088 0.091661066
-0.13835362 0.048843347 0.095749095
-0.016441301 0.053753 0.092034914
0.039635718 0.053753003 0.093313113
0.044110913 0.053753 0.096850753
0.061087273 0.053753003 0.093421511
0.086319059 0.053753 0.097702011
0.16156599 0.053752996 0.090876661
0.22519547 0.053753003 0.098873883
-0.022826983 0.0337088 0.10899045
-0.01719396 0.0337088 0.10833652
0.039506085 0.0337088 0.10128551
-0.10593175 0.053753 0.10091825
0.014984339 0.053753 0.10909032
0.052568838 0.053753 0.10133231
0.15541956 0.053752996 0.10181536
-0.10675403 0.0337088 0.11842332
-0.0034087515 0.0337088 0.11578535
0.022212241 0.0337088 0.11835042
0.05724901 0.0337088 0.11670648
0.091525212 0.0337088 0.11075568
0.21386564 0.0337088 0.11762923
-0.11906504 0.053753 0.11868706
-0.026942918 0.053753003 0.11840999
0.069685094 0.053752996 0.11682378
0.12411976 0.053753 0.1146038
-0.1066246 0.0337088 0.12375875
0.035816982 0.033708796 0.12061869
0.082099631 0.0337088 0.12027998
0.18619107 0.0337088 0.12572265
0.22124094 0.0337088 0.12237807
0.23762274 0.053228971 0.1274275
-0.046506174 0.0337088 0.13633847
-0.03336852 0.0337088 0.13493004
0.15437388 0.0337088 0.1353464
0.21570489 0.0337088 0.13119832
0.22532773 0.0337088 0.1341884
0.061792146 0.053753 0.13215202
0.11074119 0.053753 0.1340476
0.13218334 0.053752996 0.13913883
0.14705867 0.053753 0.13512737
0.19312529 0.053753 0.13843632
-0.11684514 0.038165934 0.14767504
0.016443798 0.0337088 0.14022222
0.21667077 0.0337088 0.14035393
-0.099732265 0.053752996 0.14167297
-0.037367828 0.053753 0.14919266
0.045591436 0.053752996 0.14326727
0.053771328 0.053753 0.14084065
0.094061203 0.053752996 0.14260773
0.14200048 0.053752996 0.14533143
0.17611551 0.053753 0.14508906
0.21870612 0.053753 0.14986958
0.12324867 0.0337088 0.15438737
0.18993783 0.0337088 0.15042232
-0.11499316 0.053324591 0.15214613
-0.0042006122 0.053753003 0.15332557
0.016040064 0.053753 0.15563223
0.080588438 0.053753003 0.15032756
0.23638725 0.053753 0.1513854
-0.10651763 0.0337088 0.16045165
-0.082327768 0.0337088 0.16856104
-0.062545791 0.0337088 0.16783513
-0.020022247 0.0337088 0.16660854
0.25429973 0.044450395 0.16768928
-0.10465427 0.053752996 0.16825294
-0.065294936 0.053753 0.16849859
0.10295019 0.053753003 0.16355136
-0.0049962238 0.0337088 0.17284362
0.060316186 0.0337088 0.1717139
0.11616142 0.0337088 0.17487338
0.12069593 0.0337088 0.17668325
0.17500611 0.0337088 0.17134181
0.2000871 0.0337088 0.17889073
-0.092612863 0.053752996 0.1784025
-0.047062572 0.053753 0.17223275
-0.026637863 0.053753 0.17540343
-0.012149444 0.053753 0.17197748
0.036025092 0.053753003 0.17754555
0.067974105 0.053752996 0.17830208
0.199965 0.053753 0.17277621
-0.054328177 0.0337088 0.18940824
-0.037382036 0.0337088 0.18498346
0.033148423 0.033708803 0.18028596
0.063273437 0.0337088 0.18385822
0.091035828 0.0337088 0.18078932
0.11691728 0.0337088 0.1814107
0.18305001 0.0337088 0.1879732
-0.012684537 0.053753 0.18285792
0.08635015 0.053753 0.18129566
0.20802151 0.053753 0.18272197
-0.095648699 0.034791924 0.19297369
0.0068173595 0.0337088 0.19557801
0.070307277 0.0337088 0.19258468
0.087073743 0.0337088 0.19543146
0.22956516 0.0337088 0.19087011
0.24777591 0.0337088 0.19216096
-0.060512163 0.053753003 0.1967327
-0.049231075 0.053753003 0.19743177
0.12540483 0.053752996 0.1929386
0.17431822 0.053753 0.1995948
0.25061789 0.053753 0.19063659
-0.034677014 0.033708796 0.20261477
0.16553923 0.0337088 0.20564537
-0.094119892 0.05117429 0.20253858
0.097845137 0.053752996 0.20583582
0.12180787 0.053753 0.2058443
0.17128178 0.053752996 0.20165734
0.21064824 0.053753 0.20323373
0.25734976 0.053753 0.20241138
0.065776244 0.0337088 0.21085662
0.10044216 0.0337088 0.21487284
0.11554995 0.033708796 0.21736515
0.13509759 0.0337088 0.21463136
0.20820427 0.0337088 0.21652508
0.2464292 0.0337088 0.21326514
0.27531177 0.036239788 0.21841674
-0.025111139 0.053753 0.21389614
0.093808778 0.053752996 0.21354592
0.14806709 0.053753 0.21674991
0.17722836 0.053753 0.21778777
-0.080388784 0.0337088 0.22065529
-0.070672117 0.0337088 0.22348735
-0.069703072 0.0337088 0.22492684
0.0046765208 0.0337088 0.22678319
0.021120915 0.0337088 0.22988999
0.045952637 0.0337088 0.22473735
0.06686461 0.0337088 0.22711378
0.13998698 0.0337088 0.22094062
0.17430513 0.033708796 0.22143482
0.20000729 0.033708803 0.22697368
0.2439528 0.0337088 0.22399426
0.27064249 0.0337088 0.22212258
0.016257219 0.053753003 0.22231202
0.099273607 0.053753003 0.22141375
0.11377164 0.053752996 0.22882757
0.22674932 0.053753003 0.22005284
0.1058037 0.0337088 0.23530714
0.16110735 0.0337088 0.23118983
0.18331352 0.0337088 0.23517185
0.22335796 0.0337088 0.2331308
-0.061430074 0.053753 0.23700483
0.033925518 0.053753 0.23476467
0.087094337 0.053753 0.23354648
0.16108339 0.053752996 0.23400275
0.2403128 0.053752996 0.23214105
-0.060728729 0.0337088 0.2418088
-0.048218377 0.0337088 0.24628201
-0.032376375 0.0337088 0.24473371
0.23835079 0.0337088 0.24746631
0.2499412 0.0337088 0.2455962
0.25861889 0.049538173 0.24998729
-0.076749213 0.052021749 0.24447507
-0.024873184 0.053752996 0.24345073
0.01408317 0.053753003 0.243999
0.14154519 0.053753 0.24493058
0.19718213 0.053753 0.24078557
0.26943678 0.053753 0.24442397
-0.073188215 0.036252465 0.25307208
0.075415775 0.0337088 0.25301167
0.099735677 0.0337088 0.25414136
0.17262267 0.0337088 0.25210363
0.28119558 0.037149835 0.25186861
0.24409059 0.042203639 0.25600511
-0.018977432 0.053752996 0.25988942
0.12295558 0.053752996 0.25347063
0.14580363 0.053752996 0.25807661
0.16908616 0.053752996 0.25407818
0.22274077 0.053752996 0.25010338
0.12278916 0.014580091 0.26991874
-0.067674838 0.037227605 0.26638255
0.044526204 0.0337088 0.26678723
-0.018709905 0.053753 0.26825088
0.04437726 0.053753 0.26553184
0.12568815 0.053753 0.26855919
0.15586941 0.053753003 0.26641351
0.24813303 0.053753003 0.26245391
0.10951392 -0.0089917518 0.27617919
-0.036153514 0.0337088 0.27367911
0.013934856 0.0337088 0.27863154
0.083302177 0.0337088 0.271191
0.11923472 0.0337088 0.27003312
0.27650893 0.038328622 0.27233383
0.070534751 0.053753 0.27154678
0.10144516 0.053752996 0.27588332
0.075141795 -0.0045678178 0.2834388
0.092923775 -0.0098870471 0.28539014
0.13063097 0.030210849 0.28885007
0.16415222 0.0337088 0.28248796
0.17596753 0.034274399 0.28351271
-0.059772864 0.049802028 0.28545955
0.21511428 0.053753 0.28976959
0.25746712 0.053752996 0.28688091
0.087776527 -0.01347085 0.29821193
0.075146794 -0.0033211305 0.29974562
0.071768001 0.010154599 0.29158905
-0.034104206 0.0337088 0.29358205
-0.022365004 0.0337088 0.29495689
-0.015482904 0.0337088 0.29728985
0.05285313 0.0337088 0.2970669
0.12873484 0.0337088 0.29346541
0.15916133 0.0337088 0.295405
0.18252021 0.0337088 0.29348177
0.20886892 0.0337088 0.29895389
0.22633474 0.0337088 0.291751
0.26078033 0.0337088 0.29373854
-0.05672878 0.04217837 0.29280859
-0.052683476 0.053753 0.2906583
0.052244056 0.053753 0.29993051
0.093907975 0.053753 0.29544735
0.10068002 0.053752996 0.29625684
0.13698992 0.053753 0.29077139
0.19997504 0.053753 0.29616272
0.25315216 0.053753 0.29997411
0.078611165 0.0087954756 0.30810985
0.13801345 0.0013255837 0.30667388
0.13818181 0.011300271 0.30707997
0.010147905 0.0337088 0.30703929
0.031897984 0.0337088 0.30196428
0.075213574 0.0337088 0.30646014
0.16780052 0.0337088 0.30095467
0.17005812 0.0337088 0.30238348
-0.0039081359 0.053753 0.30486262
0.054329805 0.053753003 0.30612677
0.08459729 0.053753 0.30869684
0.21877328 0.053753003 0.30850378
0.22072992 0.053753 0.30919522
0.24512038 0.053753 0.30384988
-0.046889812 0.0366612 0.31656194
0.032829039 0.0337088 0.3189784
0.069591738 0.0337088 0.31493843
0.11518096 0.0337088 0.31736359
0.18473017 0.0337088 0.31914228
0.23419794 0.0337088 0.31546709
-0.047219574 0.053753 0.31305674
0.016562382 0.053753003 0.31593227
0.088568926 0.053753 0.31372568
0.10540287 0.053753003 0.31039527
0.14377812 0.01913755 0.32059026
-0.035258595 0.0337088 0.32146716
0.06373141 0.0337088 0.32311988
0.0029790308 0.053753 0.32121506
0.050304487 0.053752996 0.32036826
0.11801435 0.053753 0.32203162
0.15015592 0.053753003 0.32827184
0.1662045 0.053753 0.32680383
0.2288686 0.053753003 0.3280912
0.091057107 -0.00032925114 0.33815667
0.10230626 -0.0025366805 0.33840835
0.11684594 -0.0025702249 0.33233854
0.12343481 0.00075869652 0.33348474
0.13077387 0.0049032783 0.3338874
0.090818524 0.028411809 0.3375805
0.054671314 0.036109168 0.33446455
0.0673334 0.0337088 0.33998147
0.079294302 0.0337088 0.33462274
0.16225496 0.0337088 0.3392868
-0.040894993 0.046569392 0.33103472
0.056504052 0.044183552 0.33370543
0.071429454 0.053753 0.33866164
0.19220124 0.053752996 0.33905947
0.21294901 0.053752996 0.33494186
0.22110806 0.053753003 0.33401477
0.095128126 0.021347525 0.3479853
-0.02920714 0.0337088 0.34750435
0.035812255 0.0337088 0.34792256
0.047555149 0.0337088 0.34360278
0.07855168 0.0337088 0.34072852
0.11828142 0.0337088 0.34337348
0.17736968 0.0337088 0.34053397
0.03893777 0.046752188 0.3409816
-0.0085879089 0.053753 0.34190702
0.032960821 0.053405248 0.34345737
0.08961916 0.053753 0.3456192
0.10787868 0.053753003 0.34204939
-0.01225792 0.0337088 0.35457695
0.016071012 0.038700778 0.35045329
0.021396898 0.0337088 0.35492519
0.030122753 0.033708796 0.35230318
0.040247023 0.0337088 0.35725927
0.084894687 0.033708796 0.3564043
0.1135861 0.0337088 0.35419294
0.14868501 0.0337088 0.35636553
0.15510103 0.0337088 0.35738441
0.16187723 0.0337088 0.35391212
0.0067792148 0.049495678 0.35430208
0.01605705 0.046766415 0.35045907
-0.0099070864 0.053752996 0.35491899
0.11663358 0.053753 0.35537237
0.12299369 0.053752996 0.35401669
0.14664419 0.053753 0.35542768
-0.022105897 0.035527632 0.36999959
-0.012961015 0.037399206 0.3624787
0.21593916 0.042634044 0.3613548
-0.0071274089 0.053753 0.36822921
0.045095805 0.053753 0.36366412
0.050183941 0.0337088 0.37679857
0.060790006 0.0337088 0.37781924
0.078977004 0.0337088 0.37923431
0.085920878 0.0337088 0.37896499
0.15595095 0.0337088 0.37327743
0.0019906983 0.053753003 0.37777919
0.010642342 0.053753 0.37811336
0.035432931 0.053753 0.37370077
0.09756469 0.053753 0.37995178
0.0020255072 0.038114294 0.38515866
0.065332733 0.0337088 0.38881063
-0.0038447424 0.042531006 0.38147104
0.14939448 0.053753 0.38635826
0.16156261 0.053753 0.3870824
0.056358673 0.0337088 0.39564756
0.14176327 0.034419063 0.39992791
0.16371602 0.03802906 0.3929919
0.014506856 0.041535579 0.39042503
0.14737056 0.044624675 0.39815629
0.028467726 0.052235935 0.39612317
0.1359676 0.048415106 0.40175912
0.096503697 0.052598458 0.40672454
0.12113476 0.050580911 0.40412927
