# .PCD v0.7 - Point Cloud Data file format
VERSION 0.7
FIELDS x y z
SIZE 4 4 4
TYPE F F F
COUNT 1 1 1
WIDTH 911
HEIGHT 1
VIEWPOINT 0 0 0 1 0 0 0
POINTS 911
DATA ascii
-0.38120338 0.038039733 -0.1323415
-0.33925897 0.031497277 -0.13331026
-0.2984069 0.031644076 -0.13129848
-0.22458826 0.037948925 -0.13085067
-0.18209626 0.034261137 -0.13252781
-0.16960618 0.033043999 -0.13238436
-0.11411446 0.033779994 -0.13170287
-0.30366057 0.020658312 -0.12819456
-0.26579794 0.020552037 -0.12125176
-0.22319999 0.027258519 -0.12581319
-0.085374348 0.02640043 -0.12564318
0.083845578 0.027109489 -0.12832335
0.12454303 0.024972854 -0.12688337
0.17171265 0.029607601 -0.12862785
0.20833181 0.025593212 -0.12756371
0.21847576 0.0216663 -0.12053145
0.28379864 0.020840716 -0.12760043
0.29459551 0.025494805 -0.12403329
0.32150868 0.023831025 -0.1214815
0.36339816 0.020756522 -0.12647624
-0.38935262 0.03955514 -0.12799494
-0.35947767 0.039041441 -0.12768698
-0.32092524 0.032092884 -0.1295322
-0.31941086 0.032155588 -0.1285723
-0.27621549 0.033093061 -0.12678503
-0.20744333 0.039548509 -0.12775844
-0.16788356 0.038566533 -0.12437786
-0.1423119 0.037435807 -0.12161162
-0.11233342 0.038042635 -0.12452199
-0.033368796 0.035129465 -0.1296906
-0.025824789 0.036996637 -0.12491861
0.021122649 0.035487711 -0.12789331
0.045436874 0.036002114 -0.12343094
0.11464366 0.034805033 -0.12161875
0.13359222 0.034516994 -0.12131985
0.22312397 0.033497162 -0.12108442
0.23408866 0.03105831 -0.12711887
-0.39075288 0.048286393 -0.12126549
-0.38313296 0.044742513 -0.12621631
-0.3702926 0.042844541 -0.1262359
-0.40239027 0.052954018 -0.12248893
0.34267497 0.0089842854 -0.11318947
0.36153984 0.0092461463 -0.11076494
-0.33519882 0.017452579 -0.11596235
-0.26668954 0.018574845 -0.11471938
0.14441466 0.019959595 -0.11259486
0.18219608 0.019023001 -0.1107644
0.20825389 0.019592505 -0.11360602
0.21877643 0.019178318 -0.11257854
0.24586059 0.01862124 -0.11412042
0.27777982 0.015329713 -0.11897706
0.28741592 0.012382119 -0.11324161
0.32536009 0.011040558 -0.1181628
0.33477661 0.010416556 -0.11725867
0.38618705 0.017763149 -0.11699674
-0.3727968 0.026612755 -0.1102537
-0.32795429 0.029192112 -0.11762756
-0.31226608 0.027812783 -0.1132957
-0.26379651 0.029620919 -0.11094496
-0.23208603 0.022526216 -0.11441072
-0.20337836 0.024293995 -0.1148805
-0.18669075 0.023953654 -0.11440346
-0.13486263 0.022887129 -0.11252394
-0.060107492 0.023830067 -0.11845274
-0.035104245 0.022449056 -0.11467034
-0.023253717 0.021766275 -0.11267872
-0.0096139163 0.022343768 -0.11521436
0.0248708 0.022282775 -0.11622436
0.089541465 0.02094464 -0.11398623
0.15628859 0.021966994 -0.1195057
0.19755475 0.020068388 -0.11483559
0.2529341 0.029359363 -0.11414997
0.31270295 0.023230117 -0.11735104
0.32155675 0.020807564 -0.11104199
0.34782279 0.021484405 -0.11558781
0.40594628 0.024812236 -0.11535507
-0.34798789 0.031652164 -0.11580205
-0.025649279 0.033073466 -0.11091416
0.046817049 0.034342673 -0.11793423
0.11700095 0.031901382 -0.11213119
0.40038168 0.034325995 -0.11354748
0.41131502 0.037419721 -0.1106938
-0.38589245 0.044160027 -0.11333011
0.30365154 0.0088822478 -0.10644572
-0.24585764 0.018447636 -0.10570827
0.022767011 0.019083228 -0.10454348
0.046293482 0.019377843 -0.10668849
0.068382099 0.017861761 -0.10160058
0.093973607 0.018166196 -0.10396325
0.14887655 0.018283015 -0.10674967
0.20042939 0.01764198 -0.10642413
0.22817193 0.018148918 -0.10940218
0.38286421 0.014047606 -0.10926154
-0.37841827 0.028212231 -0.1090865
-0.33875626 0.025811233 -0.10005893
-0.29154643 0.025224719 -0.10038838
-0.23108517 0.020412322 -0.10570807
-0.18495616 0.021207234 -0.10376962
-0.17118803 0.020982001 -0.10348478
-0.1133315 0.020671833 -0.1049132
0.047369365 0.020195877 -0.10979905
0.090823375 0.02906689 -0.10008856
0.19950098 0.027986849 -0.10059682
0.40135041 0.020831432 -0.10849997
-0.36218017 0.033112518 -0.10356258
-0.19793923 0.032652669 -0.10165121
-0.11019954 0.031646442 -0.10157336
0.0022443309 0.032015186 -0.1080485
0.050305329 0.031284407 -0.107246
0.41067174 0.034467328 -0.10054447
-0.42575869 0.047358613 -0.1048388
-0.38537067 0.041765362 -0.10505842
-0.32927015 0.013018865 -0.099971458
-0.28528497 0.01294577 -0.096663967
-0.25963217 0.013702808 -0.090288527
-0.22646336 0.018266179 -0.092493996
-0.16365854 0.019228945 -0.096022218
-0.15010619 0.019789342 -0.099342495
-0.14886729 0.018331364 -0.092275105
-0.11058009 0.019232802 -0.098838374
-0.035552338 0.017151061 -0.092944354
0.17235456 0.016163774 -0.099336579
0.25802609 0.012069603 -0.097350053
0.28253025 0.019560818 -0.092868529
0.33602878 0.016858412 -0.098080009
-0.39057681 0.028985299 -0.094916955
-0.37821728 0.025053393 -0.095965549
-0.28612739 0.024071397 -0.093356974
-0.24844341 0.026693633 -0.09016189
-0.17237473 0.020178653 -0.099972323
0.12208709 0.027424732 -0.094273314
0.15017109 0.028110856 -0.098839164
0.26564172 0.021466758 -0.091230109
0.42454928 0.026671894 -0.094712242
-0.36073643 0.03135201 -0.098615758
-0.19991028 0.031589858 -0.096680261
-0.13265587 0.031304143 -0.098885328
-0.1063731 0.030593868 -0.096972592
-0.39627337 0.044148371 -0.097425304
0.27020735 0.0074406872 -0.083343029
0.28038561 0.0060280953 -0.082822636
0.30452597 0.0042393673 -0.086447999
-0.34089866 0.0119069 -0.087916665
-0.29323667 0.010279279 -0.083208777
-0.26852283 0.01280977 -0.089738503
-0.20659427 0.017675033 -0.084498681
-0.17037293 0.017261706 -0.084671706
-0.16829897 0.017552616 -0.086565077
-0.091450311 0.016301818 -0.08454562
-0.085982859 0.016327593 -0.085046396
-0.05646354 0.016622208 -0.088888198
0.10646597 0.014208615 -0.086015642
0.31667396 0.01464792 -0.083364874
-0.38580775 0.025651801 -0.085771866
-0.20081112 0.029713418 -0.086556099
-0.14255083 0.029260704 -0.087991416
-0.071006909 0.027319521 -0.081271425
-0.061488125 0.027280396 -0.081797712
-0.051114421 0.027621537 -0.084654763
-0.023609415 0.026935168 -0.08247757
0.024568491 0.026744593 -0.084781133
0.033794276 0.02677007 -0.085593581
0.075078197 0.025982404 -0.08380048
0.26325166 0.021089138 -0.087455884
0.4072617 0.028925192 -0.083120309
0.42614764 0.02400019 -0.081086412
-0.39911774 0.030248618 -0.084087655
-0.20956025 0.030036699 -0.087877013
-0.40835688 0.046720807 -0.086361557
0.33863205 0.0007533828 -0.075470895
0.38641018 0.0075485632 -0.071928009
-0.24200848 0.013113281 -0.071099803
-0.23248498 0.015299177 -0.079204172
-0.18820587 0.016162377 -0.074843355
-0.16901074 0.015774015 -0.073585182
-0.11760528 0.014898842 -0.071382955
-0.032758288 0.014286236 -0.07522893
0.080472216 0.012286476 -0.070230991
0.15604731 0.012053724 -0.075894713
0.17550719 0.011797497 -0.075824171
0.18550712 0.01153858 -0.074833974
0.19113778 0.012181696 -0.079790942
0.22044 0.011163787 -0.074923165
0.26431111 0.018429182 -0.072175771
0.28608504 0.015504997 -0.071802832
0.34181499 0.011786787 -0.070628151
0.38220531 0.019086884 -0.074109614
0.40300456 0.013319474 -0.072561048
-0.38334921 0.022870265 -0.070707135
-0.37463638 0.02063721 -0.076046154
-0.3544085 0.025692875 -0.079211093
-0.33237556 0.020873114 -0.074808553
-0.32704791 0.020357162 -0.072630003
-0.30687073 0.020340651 -0.073050983
-0.27099475 0.02255697 -0.077481717
-0.21614125 0.028011495 -0.073514268
-0.15208766 0.027748965 -0.07745257
-0.093738817 0.026771802 -0.075383276
-0.065051146 0.026605738 -0.076829799
-0.046065897 0.025534533 -0.070028752
-0.012377739 0.025701687 -0.074848928
-0.0045332238 0.025960229 -0.077430874
0.043361746 0.025243938 -0.076474212
0.14940925 0.023982052 -0.076632477
0.25213128 0.021351775 -0.078750439
0.4113043 0.028651815 -0.07353197
0.42102763 0.02065021 -0.075985141
0.43057883 0.02528538 -0.077004328
-0.43222606 0.043914229 -0.077853121
-0.41471156 0.04696244 -0.071901813
-0.40150777 0.041587867 -0.072509438
0.35557255 -0.0003804997 -0.06294553
-0.31037772 0.0078073954 -0.063092023
-0.30716264 0.0077019776 -0.060297038
-0.28994533 0.0084326407 -0.064221203
0.28203568 0.003072863 -0.060669605
0.29274082 0.0024385809 -0.066622548
0.37873 0.0037770136 -0.060522143
-0.3707779 0.01810348 -0.063243136
-0.30361807 0.019331262 -0.060536787
-0.25361684 0.011258319 -0.065131143
-0.24087512 0.013103058 -0.069453955
-0.13915774 0.014701849 -0.066408634
-0.013232533 0.012706157 -0.061203185
0.0018338412 0.012532284 -0.061489787
0.037344649 0.012009676 -0.060584925
0.067656755 0.011990706 -0.065449014
0.096040212 0.011405383 -0.062728383
0.15549262 0.010563771 -0.061681069
0.16715695 0.010715948 -0.065263383
0.19815233 0.010702673 -0.06916216
0.34646106 0.010976919 -0.063849188
0.35624042 0.011453183 -0.06378907
0.37885329 0.016089384 -0.063446492
-0.33020735 0.020044491 -0.067880876
-0.11412734 0.026275715 -0.068849042
-0.062081784 0.02546316 -0.06725125
0.11796215 0.022566829 -0.060471091
0.16596456 0.022258364 -0.063884944
0.23315251 0.021452321 -0.064305305
-0.42472357 0.03801021 -0.065328158
0.42777085 0.034017522 -0.064870507
-0.40575001 0.042353228 -0.065409794
0.44682729 0.04455772 -0.068493679
-0.451704 0.065279417 -0.063317068
0.31711292 -0.00040344987 -0.054983564
-0.28104663 0.0086308029 -0.059305593
0.1713682 0.009761015 -0.051214121
0.21918017 0.0093015544 -0.054844916
0.25262573 0.0068910327 -0.054230537
0.28171289 0.0029672254 -0.058674399
0.3749094 0.0024828725 -0.057240076
0.38532555 0.0063399901 -0.053979293
0.39158842 0.0081422534 -0.056547619
-0.36707076 0.016019493 -0.05257944
-0.12680833 0.014013961 -0.058199894
-0.046647359 0.012743871 -0.053619612
-0.019425422 0.012534512 -0.0568005
-0.0013252348 0.012266784 -0.056175105
0.12793784 0.0107255 -0.058964085
0.32829785 0.010573381 -0.054280382
0.33843887 0.010155148 -0.052244097
-0.40344745 0.028588871 -0.05816637
-0.36387622 0.027199775 -0.059977457
-0.27418494 0.020556048 -0.057678171
-0.2141901 0.026457233 -0.0534239
-0.20692861 0.026488751 -0.055901542
-0.12422648 0.025367089 -0.055188142
-0.032118339 0.024199866 -0.055982962
0.023987759 0.023681447 -0.059206724
0.070428528 0.022580829 -0.050662041
0.082729653 0.022826858 -0.057879269
0.15995747 0.021704473 -0.056149393
0.17250004 0.021400789 -0.053741358
0.21331078 0.02079284 -0.052332267
-0.42187691 0.03550937 -0.055636477
-0.39548394 0.03754843 -0.054008882
0.43117139 0.03452374 -0.058982126
0.46398473 0.04155533 -0.051976234
-0.45967537 0.055825341 -0.051216643
-0.43847877 0.055550672 -0.052088596
-0.34266585 0.0086747268 -0.044078283
-0.33249551 0.0072878529 -0.040083073
-0.29609579 0.0074398858 -0.045771554
0.15042874 0.0099845389 -0.04965397
0.23871642 0.0084532928 -0.044075221
0.2644141 0.0046034381 -0.044511441
0.29487318 0.00081058464 -0.04252262
0.30281696 5.2953248e-05 -0.041243892
0.38557369 0.0051865624 -0.042309038
0.39323917 0.0081562987 -0.046746798
-0.37025845 0.01725903 -0.049528182
-0.28356898 0.01934373 -0.041339818
-0.21373019 0.014668347 -0.045177266
-0.016008638 0.012084823 -0.046458371
0.31745985 0.010606647 -0.043309338
0.37593824 0.014069531 -0.047909331
-0.38025022 0.020522349 -0.047262724
-0.34462214 0.020586289 -0.041026957
-0.25196382 0.022153664 -0.046310067
-0.21413139 0.026296748 -0.048879657
-0.059061013 0.023940001 -0.040491067
-0.0045123678 0.023411918 -0.046103697
0.17955706 0.020755269 -0.040151007
-0.42726886 0.037159063 -0.049614504
-0.45703936 0.053195715 -0.046135824
0.30363613 -0.00028498421 -0.033613533
0.32934332 -0.0017327865 -0.035598554
-0.31537184 0.0066556968 -0.032795712
0.12516975 0.0097589521 -0.033684287
0.21831644 0.0084774457 -0.032454919
0.2575773 0.005134902 -0.030313328
0.26328406 0.0045928522 -0.039487883
0.37621212 0.0026181624 -0.034887496
0.38831666 0.0065559177 -0.037179008
0.39549449 0.0083226934 -0.033437222
-0.32082665 0.018376222 -0.039173357
-0.3061322 0.018184895 -0.03179707
-0.25340652 0.010131686 -0.036512952
-0.21376137 0.014256713 -0.033453904
-0.19899863 0.014116446 -0.035047386
-0.095337726 0.012689795 -0.033667784
0.25725371 0.01684913 -0.032069024
0.28247359 0.013522349 -0.038204744
0.42282176 0.01619835 -0.034528729
-0.39216235 0.023806671 -0.0350824
-0.36270505 0.025437951 -0.030314948
-0.24830458 0.022145495 -0.033927348
-0.18835951 0.025629247 -0.039637119
-0.17393626 0.025343668 -0.036968131
-0.1175275 0.02468588 -0.039593488
-0.10299891 0.024331264 -0.034999959
0.022294359 0.022789575 -0.038537566
0.040087279 0.022541765 -0.038218334
0.11265399 0.021395376 -0.033053365
-0.43162358 0.037741963 -0.034645591
0.44069135 0.036232367 -0.038010996
-0.44304156 0.043012097 -0.031732328
-0.42978925 0.049239978 -0.033826645
-0.40646556 0.040348034 -0.038415268
-0.43973118 0.054197691 -0.034570932
0.36840317 -0.00013526075 -0.02880141
0.14673828 0.0092396522 -0.02706838
0.17109591 0.0087262606 -0.021675322
0.28903145 0.00061745365 -0.020871302
0.32764012 0.0094086863 -0.023928456
0.36875933 0.00094101334 -0.022359326
-0.28572458 0.018774129 -0.02801602
-0.19403061 0.013846965 -0.029259548
-0.11951103 0.01268221 -0.024308989
-0.080880292 0.012020894 -0.020106383
0.033149697 0.010771551 -0.027690064
0.28431028 0.012708106 -0.021922093
0.39302084 0.019172197 -0.028165862
-0.36645687 0.027113117 -0.024147259
-0.19335313 0.025018996 -0.020383744
-0.16305515 0.024820738 -0.026205454
-0.12095505 0.024187289 -0.024109438
-0.097508088 0.023816731 -0.022436483
-0.041111507 0.02314017 -0.02452318
-0.030425858 0.023123264 -0.028085247
0.022807982 0.022350457 -0.026236728
0.04692328 0.022046151 -0.026701977
0.41177219 0.024089914 -0.025449898
-0.43741667 0.039349068 -0.020234296
-0.43188757 0.049747165 -0.028669525
-0.42802671 0.047455192 -0.020093776
0.46244925 0.047695938 -0.029545156
0.47084504 0.042762026 -0.027141644
-0.44009948 0.053225163 -0.02002155
-0.47039169 0.066701949 -0.029077848
0.29969344 -0.00080621062 -0.010164212
0.31062067 -0.0015913763 -0.011894722
0.33581102 -0.00281619 -0.011030832
-0.3048901 0.0062283799 -0.017658381
-0.28575662 0.0067835748 -0.013754996
0.11235238 0.0092157219 -0.013383716
0.12930655 0.0091569358 -0.018123059
0.1453896 0.0089959446 -0.019625561
0.16229695 0.0086992783 -0.017580187
0.18358696 0.0081694284 -0.010558853
0.22546804 0.0077029215 -0.013126489
0.23470432 0.0074609066 -0.010186003
0.25661173 0.0048308973 -0.017974075
-0.37862304 0.018806217 -0.016037779
-0.36491832 0.014556705 -0.017849363
-0.31528357 0.017356135 -0.010656871
-0.29092893 0.017957345 -0.012073207
-0.2843357 0.018260675 -0.011003828
-0.27356946 0.019249167 -0.01987575
-0.24003163 0.011143978 -0.019276399
-0.13132368 0.012656857 -0.019119374
-0.12458815 0.012451107 -0.015813317
-0.032685105 0.01115245 -0.013628379
0.024246827 0.010519184 -0.017144084
0.033905171 0.010390664 -0.017140599
0.18295485 0.019687399 -0.011051401
0.28225958 0.012624038 -0.012806183
-0.38968372 0.022418883 -0.01933041
-0.26275066 0.020129707 -0.019003391
-0.24068604 0.022456869 -0.014904824
-0.22682834 0.024320597 -0.012857348
-0.19526611 0.024821356 -0.014036367
-0.077571772 0.023246383 -0.013750637
-0.068697147 0.023105346 -0.013095127
0.039447833 0.021736305 -0.015056862
0.12908308 0.020433839 -0.011909504
0.15595011 0.020323915 -0.018946223
0.41158402 0.023548672 -0.012487877
-0.38813615 0.033779997 -0.019856367
0.45058519 0.039488956 -0.019759892
-0.44289774 0.04159946 -0.012098331
-0.41596025 0.042661969 -0.019676829
-0.4594067 0.051545203 -0.016023051
-0.43398583 0.050033368 -0.017764723
-0.35302579 0.0095161265 -0.005907923
-0.24990487 0.0094883293 -0.0057970351
0.14744516 0.0085496269 -0.0077064354
0.16744815 0.0082826149 -0.0076753628
0.18115988 0.0079370737 -0.0030311551
0.24010094 0.0068335221 -0.0023190528
0.27817661 0.0013522875 -0.0066960342
0.38660532 0.0049811043 -0.0020728949
-0.3646594 0.014158027 -0.0048476104
-0.32561588 0.017378125 -0.0095811933
-0.28197014 0.018315108 -0.0089257648
-0.23310894 0.011779223 -0.0098889526
-0.1249639 0.011995042 -0.00269554
-0.085913517 0.011458871 -0.0022122161
-0.035013068 0.010793672 -0.0025403723
-0.027424464 0.010899974 -0.0084353331
-0.018318564 0.010656605 -0.004955627
0.19725099 0.019261666 -0.0043462277
0.37920034 0.014764667 -0.0039789323
0.38065577 0.015248705 -0.0071458425
0.4168151 0.013026012 -0.0048079025
0.4295187 0.016880095 -0.0033552956
-0.4105826 0.028331792 -0.0018552307
-0.40451312 0.026574787 -0.0058974023
-0.39232624 0.022726554 -0.005703025
-0.36943299 0.027110819 -0.00012112973
-0.22452557 0.024307467 -0.0048511345
-0.092639245 0.023077644 -0.0032486627
-0.055427067 0.022614187 -0.0041402746
-0.013837844 0.022021681 -0.0030159857
0.051993646 0.021058185 -0.00050779805
0.097382195 0.020569002 -0.0037614272
0.1121548 0.02039768 -0.0044758786
0.12650248 0.020374347 -0.0092403702
0.40052903 0.02051644 -0.0085379053
0.41220152 0.023490041 -0.0055889962
-0.433534 0.036712144 -0.0034431084
-0.40858141 0.039656214 -0.0051410017
-0.45893529 0.063298717 -0.0056657558
0.35425299 -0.0031942101 0.0052666711
-0.30568427 0.0054569896 0.0040472466
0.027486444 0.0095322635 0.0097068902
0.040135272 0.0094907675 0.00610286
0.063487418 0.0092459759 0.0042352378
0.1504553 0.0079820976 0.0072998088
0.17962843 0.0078133773 0.001066817
0.18176907 0.0076403972 0.0051780567
0.25074261 0.005079207 0.002224057
0.27924895 0.0006907481 0.007831715
0.30992162 0.0092777982 0.0072622467
0.34590009 0.0080419211 0.0040500695
0.37724015 0.0096739084 0.0019123657
-0.26259708 0.019433983 0.0019672625
-0.18407373 0.012436206 0.0071120095
-0.13689183 0.01186569 0.0054966127
-0.077140257 0.011139262 0.0035624621
-0.026324868 0.010513647 0.0021402352
0.13835484 0.019755388 0.0038875169
0.18221793 0.019113459 0.0055582533
0.19232143 0.019071717 0.0029235594
0.3706457 0.012087807 0.0093888119
-0.38971719 0.021553556 0.0034013069
-0.35751393 0.022298522 0.003429899
-0.24349761 0.021315055 0.0085018175
-0.23192559 0.023120062 0.0016275793
-0.20361203 0.024314765 0.0035356786
-0.11414213 0.022941159 0.0087702321
-0.050425131 0.022106741 0.0084061697
-0.002769921 0.021551119 0.0061859596
0.0037489086 0.021522721 0.0045276023
0.10158688 0.020296698 0.0023961086
0.44864655 0.024819368 0.0016904974
-0.43541014 0.037276879 0.0077363299
-0.40288717 0.037490934 0.0044860998
-0.39047396 0.033411965 0.0088189486
-0.45783377 0.049630627 0.0062231636
-0.44705093 0.055847451 0.0067077293
-0.32765594 0.0051894514 0.012218008
-0.31685266 0.0048727174 0.017461484
-0.28238347 0.0059774388 0.015150487
-0.2759521 0.0064526796 0.013268048
-0.25204134 0.0085484721 0.015001042
0.040557381 0.0092320936 0.013302797
0.060537726 0.0090262499 0.011601448
0.08129631 0.0085272714 0.017945766
0.11502722 0.0083269374 0.010888141
0.30980238 0.0090743527 0.013168896
0.31836063 0.0084394272 0.015824258
0.37884513 0.0024008346 0.014805531
-0.10198772 0.011106428 0.013895579
-0.031971995 0.010115308 0.015609632
0.17970327 0.018895745 0.012704373
0.24337131 0.017297275 0.017386205
0.27748054 0.01229916 0.012351181
0.28660175 0.011154748 0.014095319
0.38773865 0.016287001 0.018554389
0.39265758 0.017581886 0.018489435
-0.39863437 0.023752978 0.019262211
-0.37916285 0.029610671 0.014967659
-0.19803064 0.023751047 0.017464079
-0.1704953 0.023440655 0.015878232
-0.13676849 0.022880524 0.019056035
-0.04532991 0.02178725 0.015569151
-0.019193232 0.021327749 0.018755257
0.045854747 0.020452023 0.019062961
0.059242271 0.020291409 0.018567987
0.069956549 0.020344583 0.013001339
0.41812235 0.02449592 0.015626201
0.44789839 0.036685035 0.017850935
-0.43372709 0.04870468 0.015484024
-0.44870704 0.056670982 0.016799361
0.31881011 -0.0033916007 0.024465064
-0.33722663 0.0054114852 0.025129054
-0.0040635616 0.0093423221 0.027045254
0.063707814 0.008422724 0.027573381
0.099452868 0.0079714339 0.026892025
0.10529485 0.0079320436 0.025802914
0.11269869 0.0080172438 0.020578649
0.12262532 0.0077212318 0.025245346
0.16153643 0.007152915 0.026697081
0.19971043 0.0066661676 0.026107159
0.21783486 0.0065301079 0.023123425
0.22138144 0.0063522495 0.026841765
0.27889431 0.00017034638 0.023329413
0.29325885 0.0098804217 0.029865466
0.33761957 0.007416415 0.023868378
-0.37266988 0.015305428 0.025579603
-0.33512324 0.016820464 0.022033241
-0.32736737 0.016286269 0.023228483
-0.31593543 0.016149011 0.023791062
-0.26677296 0.018126952 0.029285936
-0.16836612 0.011456592 0.029041674
-0.10098532 0.010828876 0.021413121
-0.065044023 0.010181681 0.02623127
0.091142975 0.019729767 0.022479618
0.27423036 0.012165189 0.027251199
0.36731279 0.010558177 0.029783135
-0.39853835 0.023637209 0.021479979
-0.09799929 0.022141319 0.025421362
0.42887965 0.028063454 0.027149692
0.44128948 0.021061577 0.028079491
0.45550674 0.040898707 0.024270076
0.4714697 0.041282434 0.026959635
0.31029636 -0.0032360908 0.034731377
0.34654051 -0.0045277448 0.034717016
0.37073392 -0.00043118285 0.036654916
-0.34658274 0.0064921202 0.035200547
-0.3362987 0.0047822967 0.03931094
-0.060839742 0.0099810269 0.03034981
-0.05153662 0.0097480752 0.033458535
-0.010550737 0.008977389 0.039881982
0.040502872 0.008509526 0.033881422
0.063180313 0.0081098536 0.036674503
0.10597965 0.00755121 0.036379084
0.1605664 0.0069503812 0.032825407
0.20774773 0.0062786462 0.034091532
0.26310384 0.0020278208 0.031036206
0.27355009 0.00043945387 0.034102693
0.30994016 0.0083131697 0.034235597
0.31193525 0.0081789456 0.034464516
0.33495772 0.0070880791 0.035267927
-0.27846232 0.017025972 0.035553265
-0.26661962 0.017865984 0.03731491
-0.16720602 0.011200105 0.035900198
-0.13296475 0.010681853 0.037692845
0.10938441 0.018874023 0.039927475
0.12318021 0.019004373 0.030999022
0.20348153 0.017768726 0.035776675
0.26127306 0.013783472 0.034146167
0.38816333 0.015895998 0.034241404
0.39855212 0.018682452 0.032492936
-0.22769946 0.022611383 0.034873299
-0.15629184 0.022625878 0.033688102
0.45533019 0.028690454 0.0369054
-0.43705389 0.038209811 0.036725938
-0.39976308 0.03541965 0.033148028
0.44087219 0.033446651 0.036361262
0.45171863 0.039171033 0.037391134
0.32884446 -0.0046662986 0.04781403
-0.33216575 0.004193414 0.046773706
-0.25065139 0.007762644 0.042934511
-0.24185212 0.0088443998 0.042414382
-0.08582449 0.009650101 0.049340814
-0.07932955 0.0097904 0.042767458
-0.050905555 0.0092930049 0.046167146
0.013341092 0.0086321533 0.040666915
0.033633858 0.0082982313 0.042491324
0.16891098 0.0064481902 0.043956645
0.34944731 0.0066154646 0.04667009
0.40205038 0.0076331012 0.041849643
-0.37211534 0.014359645 0.043428402
-0.16068189 0.010953208 0.040456899
-0.15746665 0.010653523 0.04776714
0.059893169 0.019208154 0.049144596
0.13255772 0.018542729 0.040586725
0.1651924 0.017924424 0.045832884
0.27706558 0.011118258 0.046185091
0.37651974 0.011353759 0.043875583
-0.36383963 0.022962429 0.044212658
-0.21194568 0.023125436 0.040529735
-0.16341256 0.022228036 0.04843431
-0.018077701 0.020444822 0.043456029
0.41910905 0.024552319 0.040578619
0.45491588 0.028781714 0.042326018
-0.43694878 0.038895052 0.049737409
-0.40535995 0.037292957 0.046510246
0.46776015 0.037774272 0.042614665
-0.46205285 0.053516943 0.040300369
0.28757417 -0.0019095803 0.053438168
0.29980972 -0.0030964012 0.053123359
0.32337165 -0.0045880126 0.051947653
-0.30056223 0.0039768433 0.058501896
-0.29989746 0.0039819274 0.052823629
-0.10464948 0.0098243114 0.05275365
-0.074604973 0.0093681449 0.056034312
0.034544967 0.0079159867 0.054446679
0.085124984 0.0071828086 0.057772644
0.16160785 0.0061376328 0.059742026
0.25744021 0.0021017496 0.052855425
0.30041021 0.0083609838 0.054941166
-0.33223957 0.015696658 0.057930961
-0.32688725 0.015384723 0.050672594
-0.27703008 0.016695609 0.055171017
-0.2250452 0.01084634 0.052777011
-0.20397383 0.011185906 0.05155082
-0.19665635 0.011123216 0.050001711
-0.17905019 0.010801177 0.059532702
-0.14245348 0.010338376 0.052477501
0.071019806 0.018941469 0.0552288
0.086768374 0.018730953 0.055141404
0.10986909 0.018411597 0.055572622
-0.3978523 0.022709133 0.058230955
-0.15149444 0.022037491 0.050022449
-0.1044011 0.021345112 0.054426167
-0.07848759 0.021005539 0.052586004
-0.067210212 0.020841248 0.057675328
0.42846888 0.028557694 0.052790157
-0.40640414 0.037820801 0.053359084
0.44370365 0.035825271 0.054719776
-0.44234481 0.042384624 0.055990133
-0.42796922 0.047194306 0.054219291
-0.46091175 0.055949427 0.058484431
0.31187594 -0.0040091858 0.069941767
0.32121456 -0.0046662921 0.062362872
-0.35956633 0.0094899489 0.065772772
-0.071313322 0.0095846616 0.069281004
0.14949138 0.0063716844 0.066091709
0.35372216 0.0066527184 0.06607344
0.37657744 0.00035381963 0.060680762
0.38403723 0.0023701224 0.069472827
-0.33549199 0.016388522 0.068863332
-0.21218969 0.011548276 0.068489648
-0.18036059 0.011104742 0.068670839
-0.16576876 0.010768663 0.066031545
0.0068528056 0.019963268 0.065556802
0.016438946 0.019768639 0.06333065
0.086857997 0.018836295 0.065241106
0.14070863 0.018015373 0.06273976
0.16884162 0.017832875 0.069748007
0.18475163 0.017445592 0.06442447
0.19436541 0.017441139 0.069178537
0.38620329 0.014521773 0.063985035
-0.18310109 0.02250406 0.061351098
-0.13980776 0.021988008 0.064624563
-0.12988502 0.021789264 0.062419657
-0.10810709 0.021705177 0.06838356
-0.082527168 0.021223105 0.065939523
-0.054891966 0.020746194 0.06261196
-0.046499129 0.020766439 0.066355497
-0.022160916 0.020292642 0.06275858
0.42780423 0.029120877 0.066080339
0.44226211 0.023730375 0.064654365
-0.43903729 0.041026581 0.060460471
-0.41715333 0.043158323 0.066447243
-0.43604788 0.052420616 0.064718798
0.33653232 -0.0049772649 0.0732923
0.35414484 -0.0046949787 0.073561177
-0.35002205 0.0078440849 0.079511873
-0.27160382 0.0064854962 0.07735014
-0.26278627 0.0066996971 0.070368744
-0.24874006 0.008579432 0.076224595
-0.0057602581 0.0091600828 0.077694759
0.0081022047 0.0090485662 0.078910246
0.081697337 0.0079658832 0.078681029
0.10187893 0.0071730977 0.070305765
0.14429016 0.0068023773 0.075025551
0.1749047 0.0066336812 0.078915939
0.18595695 0.0062767891 0.076207124
0.2030175 0.0060288589 0.076213636
0.25818139 0.0022672359 0.07611955
0.27419516 1.4870275e-05 0.077356547
0.29517937 0.0090001384 0.070476711
0.38087776 0.0018768117 0.079642206
0.40727383 0.0096464027 0.073084578
-0.38549757 0.019239146 0.073127434
-0.3529287 0.019980099 0.073091686
-0.14152698 0.011084257 0.077121317
-0.12099641 0.01059557 0.074515417
-0.11047037 0.010242343 0.071336471
0.089435145 0.019416627 0.077315554
0.10572089 0.018796735 0.07105837
0.14533344 0.018326618 0.072923698
0.21156433 0.017643405 0.077258483
0.2447044 0.016179677 0.074743517
0.39838827 0.018958937 0.076856382
0.42300975 0.015334805 0.070111945
-0.3743971 0.027661938 0.073300198
-0.2046763 0.023619961 0.076569393
-0.19379866 0.023740111 0.079634726
-0.16625167 0.022885736 0.074138157
-0.11725204 0.022530317 0.078752533
-0.086095825 0.021786658 0.074975148
-0.062398836 0.021173755 0.070756242
-0.048946232 0.021321172 0.075962752
0.0015906058 0.020665644 0.077001616
0.4055253 0.021355717 0.076297954
0.42004845 0.026369382 0.070614815
-0.42600465 0.035531539 0.072096281
0.43634912 0.033925019 0.072444908
0.45415357 0.03770785 0.078061961
-0.42074203 0.04592213 0.075848192
0.37421227 -0.00083331869 0.080196112
-0.00028419867 0.0096702548 0.084269501
0.10543191 0.0080726445 0.083873227
0.15183233 0.0078085689 0.088039368
0.16303337 0.0071225483 0.082841687
0.18695991 0.0070882794 0.086106226
0.19692829 0.007171209 0.088364474
0.21317221 0.0063321874 0.082319304
0.32090896 0.0079187816 0.083148345
0.38601118 0.003901246 0.088892773
-0.36775342 0.013680161 0.081335753
-0.35758376 0.011129793 0.089877099
-0.33826327 0.018689467 0.088789694
-0.29374656 0.017792255 0.085786596
-0.28938133 0.018243842 0.087944344
-0.15193865 0.012136467 0.086132765
-0.11485942 0.011129489 0.081908785
-0.043956131 0.010762559 0.088160411
0.11337937 0.019843873 0.086163536
0.14061603 0.019865798 0.089801416
0.17016664 0.019065909 0.086773679
0.21452825 0.018251007 0.085112572
0.36729038 0.010260466 0.089572705
-0.40605888 0.027974032 0.083047099
-0.23227565 0.023003262 0.081986792
-0.22198841 0.024036963 0.081018649
0.0045675263 0.020897392 0.0804343
0.04869055 0.02083879 0.086417057
0.067322969 0.02048132 0.085728146
0.07997641 0.020258088 0.08540462
-0.4217197 0.036121286 0.089479536
-0.38386953 0.032219868 0.086616561
-0.43529597 0.042648207 0.085880309
-0.44007796 0.055805758 0.088555396
0.2993772 -0.0012178109 0.093189478
0.31767526 -0.0016085168 0.099769995
-0.31736755 0.0071493243 0.095895357
-0.27340028 0.0083399452 0.093584888
0.15138282 0.0088401297 0.095938332
-0.35679799 0.011983335 0.096574679
-0.33025521 0.018266451 0.090767995
-0.32910556 0.018512234 0.092898719
-0.25421393 0.010833731 0.098180361
-0.23122564 0.013103303 0.094596505
-0.20175365 0.013808984 0.093021952
-0.18807721 0.014336897 0.097705506
-0.15318038 0.013922093 0.098452047
-0.14798482 0.013695411 0.097599864
-0.13378179 0.012482982 0.091058634
-0.069509134 0.012716418 0.099008895
-0.057669774 0.012500122 0.09882094
-0.043989461 0.011116477 0.091058932
0.0078913644 0.011169081 0.096869364
0.015147261 0.010725074 0.094594054
0.029049441 0.010727322 0.096060038
0.22920261 0.018582823 0.090173744
0.25289586 0.016781725 0.095217571
0.27012777 0.013845515 0.093283184
-0.38311893 0.020958986 0.093561754
-0.35546833 0.023252193 0.093704849
-0.34807971 0.021876 0.098360784
-0.23654428 0.024366276 0.096335158
-0.19504948 0.025050621 0.090795532
-0.18383637 0.02566354 0.096110076
-0.15440553 0.025565399 0.098318517
-0.033271052 0.023501482 0.097198583
0.024431711 0.022104058 0.093585029
0.072797149 0.021264348 0.092872545
0.14263192 0.020954616 0.098140106
0.41394109 0.026703201 0.093280822
0.43132231 0.034185309 0.090313509
-0.41593978 0.046559468 0.094760731
0.3360635 -0.0023068027 0.10008162
-0.33289254 0.0096563911 0.10703447
0.19086409 0.0089469375 0.10064098
0.202215 0.0098940274 0.10702723
0.260627 0.0060660359 0.10915685
0.2941038 0.00081434008 0.10346843
0.37518954 0.0033737647 0.10895099
-0.14072816 0.014180936 0.10109487
0.0037507266 0.013408695 0.10894021
0.12760149 0.010003677 0.1010669
0.29642749 0.011716448 0.10004295
-0.39203152 0.025189484 0.10017179
-0.29976863 0.020731781 0.10528964
-0.27268362 0.021996554 0.10454611
-0.2483699 0.024597861 0.10594831
-0.2204715 0.027873905 0.10612258
-0.18407306 0.027094297 0.10433998
-0.10979168 0.026077027 0.10514573
-0.051912323 0.025255857 0.10562377
-0.036499754 0.024781436 0.10440721
-0.0046919733 0.024984669 0.10810804
0.003954608 0.024742506 0.10755182
0.024147458 0.024363417 0.10723181
0.11166927 0.023269005 0.10872865
0.12658659 0.022204751 0.10428701
0.16563204 0.022084063 0.10697034
0.20579809 0.020868067 0.10363229
0.39990413 0.022577215 0.10151164
0.40443894 0.025540641 0.10830161
-0.42261735 0.039667167 0.10462714
-0.41366491 0.03576079 0.10506909
-0.404275 0.043027528 0.10290873
0.23962635 0.0097020902 0.11079963
0.25132239 0.009857459 0.11957824
0.28488609 0.0043596108 0.1164681
0.30905965 0.0025973108 0.11865128
0.33111814 0.00047321635 0.11429943
0.38781056 0.0083058327 0.11119898
-0.32238778 0.010948284 0.11412585
-0.28301093 0.011806253 0.11402497
-0.22491062 0.017814748 0.11460146
-0.19944224 0.019056974 0.11907452
-0.1053035 0.016501272 0.11486048
-0.095863745 0.016861837 0.11705394
-0.056532927 0.016641621 0.11877221
-0.043473661 0.014608545 0.11099471
-0.015883811 0.015309737 0.11607085
0.049706578 0.013918405 0.1146573
0.095265396 0.013004258 0.11383942
0.18408616 0.010813926 0.11025957
0.19453305 0.011901858 0.1160804
0.29500091 0.013844679 0.11139742
0.3657023 0.014705407 0.11779831
0.41060436 0.017274084 0.11371848
-0.38279751 0.028193895 0.11850657
-0.37927949 0.029318411 0.11827709
-0.22267972 0.029441878 0.11392777
-0.064317033 0.026726808 0.1119391
-0.048277196 0.026649142 0.11277529
0.079169378 0.024739213 0.11339217
0.14217946 0.023691997 0.11321653
0.25133592 0.021083329 0.11776598
0.39075792 0.022624269 0.11688085
0.41353524 0.028652426 0.11973514
-0.39052317 0.034506969 0.11668503
-0.38692266 0.033882193 0.1169203
-0.37497634 0.032820269 0.11510806
-0.21728331 0.030490259 0.1176468
-0.30103391 0.015648834 0.12386674
-0.29052398 0.019052643 0.12493724
-0.24709123 0.017844725 0.12348329
-0.19006297 0.019575777 0.12180249
0.053793218 0.016047005 0.1236863
0.15735491 0.016424187 0.12858263
0.17305228 0.013815904 0.12255829
0.18773039 0.01400205 0.12428802
0.20162325 0.014366853 0.12659745
0.22448665 0.012545201 0.12082087
0.24272922 0.011928385 0.1222032
0.26926526 0.019523542 0.12313742
0.276501 0.018756336 0.12406151
0.29110914 0.016550552 0.1286398
0.31276369 0.014537614 0.12125197
0.33305457 0.014140929 0.12377841
0.39908051 0.015853873 0.12501542
0.40440434 0.01697007 0.12225272
-0.36964113 0.02660853 0.12090961
-0.25355226 0.020313878 0.12538335
-0.20404252 0.026181255 0.12613779
-0.13255587 0.022139266 0.12654872
-0.12805793 0.020506976 0.12560613
0.0027671931 0.020263767 0.12801695
0.057278097 0.02715949 0.12254441
0.090964958 0.026817456 0.12402311
0.10149527 0.02429677 0.12852439
0.15429056 0.023524093 0.12890683
0.17515251 0.022134619 0.12995589
0.18835646 0.025008006 0.12710646
0.20591453 0.025124287 0.12414958
-0.3806169 0.035765052 0.12107371
0.34381998 0.0069567491 0.13160472
0.27648151 0.010324377 0.13040033
0.33574906 0.01077455 0.13149421
