# .PCD v0.7 - Point Cloud Data file format
VERSION 0.7
FIELDS x y z
SIZE 4 4 4
TYPE F F F
COUNT 1 1 1
WIDTH 919
HEIGHT 1
VIEWPOINT 0 0 0 1 0 0 0
POINTS 919
DATA ascii
-0.26999164 0.024510702 -0.16169229
-0.29550439 0.034328282 -0.16259578
-0.26224002 0.032582048 -0.16139446
-0.33203796 0.049021184 -0.16515587
-0.32117507 0.049411647 -0.16418585
-0.36380517 0.06613344 -0.16501264
-0.3936004 0.075400889 -0.16186301
-0.29171649 0.029034493 -0.15571904
-0.2768943 0.023437332 -0.15664884
-0.17132647 0.02063809 -0.15202114
-0.14356889 0.025139339 -0.1561878
-0.13673268 0.023208231 -0.15595806
-0.12156592 0.020670334 -0.15220436
-0.10433416 0.029358922 -0.15498273
-0.07698334 0.029830983 -0.15433948
-0.025086924 0.02053225 -0.15141977
-0.0073720776 0.024920601 -0.15375356
0.037552029 0.02488016 -0.15454298
0.055451915 0.020420175 -0.15078294
0.12535663 0.024236526 -0.15741566
0.13412666 0.021187712 -0.15478575
0.212726 0.020670095 -0.15220301
0.24614722 0.027289592 -0.15820691
0.27899924 0.023202352 -0.15414499
-0.31174162 0.035895053 -0.1509473
-0.198597 0.030986346 -0.15844858
-0.17647308 0.031532414 -0.15746471
-0.13285515 0.030733574 -0.152302
-0.11006418 0.030098621 -0.1551405
0.048704114 0.030698415 -0.15210238
0.092035301 0.031453852 -0.15582514
-0.29841164 0.041145325 -0.15324762
-0.35164785 0.053440027 -0.15971097
-0.38917929 0.067358471 -0.15624465
-0.42348683 0.083299883 -0.1586735
-0.40424889 0.083170943 -0.15562868
-0.1788739 0.019590516 -0.14606884
0.13219988 0.019645419 -0.14638081
0.14017026 0.019711707 -0.14675745
0.2670424 0.018997772 -0.14270088
0.27133143 0.019057212 -0.14303862
-0.061499543 0.029814918 -0.14707956
-0.039341968 0.02899614 -0.14242779
-0.0097437445 0.028803604 -0.14133616
0.039811395 0.028923988 -0.14202252
0.11615488 0.020129908 -0.14913367
0.12585758 0.028899241 -0.14187711
0.15413159 0.028957678 -0.14220876
0.16450621 0.028598063 -0.14016661
0.31927273 0.02073846 -0.14334831
-0.28348878 0.033454299 -0.14335921
-0.27029577 0.030056855 -0.14759177
0.021714266 0.030035226 -0.14833231
0.098492466 0.03011781 -0.14880165
-0.30684775 0.042101029 -0.14062195
-0.39428696 0.077861227 -0.14860472
-0.37868842 0.071236394 -0.1458583
-0.40296173 0.081008568 -0.14724402
-0.13588536 0.017094277 -0.13188523
-0.11957537 0.017882751 -0.13636532
0.016114242 0.017179532 -0.13236965
0.027078196 0.017930929 -0.13663909
0.16826423 0.018252127 -0.13846414
0.22970164 0.018057633 -0.13735901
0.23142022 0.018040692 -0.13726276
0.24913289 0.016826272 -0.13036244
-0.25971937 0.027343849 -0.13304305
-0.24997237 0.027570838 -0.13433281
-0.23038009 0.027099039 -0.13165206
-0.19102797 0.027945511 -0.13646169
0.18667462 0.027261885 -0.13257647
0.19557229 0.027414184 -0.13344023
0.20736128 0.027072132 -0.13149822
-0.31179187 0.033093788 -0.13579468
-0.33326617 0.052187864 -0.13917907
-0.3986606 0.066682965 -0.13331261
-0.35818318 0.061539844 -0.1369527
-0.43686491 0.082012638 -0.1352146
-0.25009346 0.01670523 -0.12967467
-0.23099603 0.016160624 -0.12658024
-0.22773391 0.016417198 -0.12803808
-0.21953626 0.01647326 -0.12835662
-0.14685743 0.015530446 -0.12299913
-0.061831858 0.016705004 -0.12967339
0.085749358 0.015372901 -0.12184325
0.17590262 0.01645766 -0.12826797
0.20410083 0.015257857 -0.1209992
0.30306798 0.01520277 -0.12059503
0.32244381 0.016697813 -0.12963253
-0.26383299 0.025189618 -0.12016215
-0.23123401 0.02525788 -0.12066305
-0.19399101 0.026485296 -0.12816477
-0.18897855 0.026419125 -0.12778878
-0.1698195 0.025217567 -0.12036724
0.043546654 0.025806505 -0.12430698
0.14147399 0.025291752 -0.12091161
0.16155207 0.025691327 -0.12365298
0.19783366 0.026771773 -0.12979336
0.31659353 0.026749846 -0.12966669
0.37171891 0.0207729 -0.12012415
-0.31334987 0.032587316 -0.12979415
-0.35693663 0.049232461 -0.12742934
-0.33583242 0.040541373 -0.12518251
-0.31081456 0.040405832 -0.12316824
-0.40420261 0.0775446 -0.12602709
-0.27669477 0.01579285 -0.1138525
-0.23206209 0.014558131 -0.11586544
-0.058923848 0.014020191 -0.11191866
-0.045519166 0.01467341 -0.11671123
-0.025429556 0.013975007 -0.11158717
0.067428321 0.013994943 -0.11173342
0.24670193 0.014774099 -0.11744996
0.25313449 0.013920638 -0.11118827
0.33414054 0.014571461 -0.11596324
-0.26706421 0.023977645 -0.11126907
-0.24490261 0.024270883 -0.11342076
-0.13529631 0.024039064 -0.11171975
-0.050378777 0.02470525 -0.11660851
-0.0078861043 0.0239839 -0.1113153
0.013645619 0.02448383 -0.11498354
0.061831091 0.024338352 -0.11391898
0.07712315 0.024405435 -0.1144115
0.093493342 0.024181936 -0.11277109
0.16329511 0.024861 -0.11775087
0.28066784 0.024011347 -0.11151639
0.30019173 0.024892902 -0.11798495
0.31652331 0.025123917 -0.11968009
-0.40323755 0.065489233 -0.11559805
-0.44729146 0.082182653 -0.11161067
-0.43116593 0.085968003 -0.11202498
-0.41823953 0.081781141 -0.11813035
-0.26174718 0.013499595 -0.10809915
-0.21592614 0.012947107 -0.10404564
-0.20443241 0.013687724 -0.10947941
-0.1556337 0.012889306 -0.10362156
-0.13000336 0.013284524 -0.10652121
-0.11526361 0.013622686 -0.10900225
-0.037816055 0.013302166 -0.10665064
0.24158622 0.01352899 -0.10831482
0.25323775 0.013431128 -0.10759682
0.28326994 0.012998985 -0.10442626
0.39475104 0.013879674 -0.10355645
0.021086683 0.023669513 -0.10901053
0.033037379 0.023032263 -0.10433389
0.083950453 0.022873888 -0.10317162
0.10454411 0.022800565 -0.10263352
0.30832067 0.022507966 -0.100485
0.36356527 0.023086824 -0.10473251
0.39643508 0.021007208 -0.10716745
-0.33570608 0.037784588 -0.10704188
-0.30468661 0.034679614 -0.1001609
-0.34865314 0.042879421 -0.1071797
-0.42055696 0.070050418 -0.10014164
-0.45502821 0.089484423 -0.10349081
-0.44646055 0.091430686 -0.1083353
-0.27887091 0.013842305 -0.095436908
-0.21471231 0.011224778 -0.090995237
-0.011423953 0.012290715 -0.099229813
0.13892797 0.012087146 -0.097736262
0.1537437 0.011593598 -0.094115198
0.25154194 0.01189071 -0.096295044
0.29204619 0.011201386 -0.090754122
0.30840909 0.011259178 -0.091349848
0.31529853 0.011446023 -0.093032457
0.3508018 0.011296097 -0.091730423
-0.31037709 0.025762541 -0.092520609
-0.26966643 0.022249889 -0.098051056
-0.23949003 0.022066927 -0.0972488
-0.22345397 0.022375721 -0.099514641
-0.15547302 0.0214312 -0.092584036
-0.13003369 0.0212637 -0.09091951
-0.067103729 0.021692729 -0.094503343
0.010668065 0.02191538 -0.09613733
0.029580398 0.021387739 -0.092197776
0.077115126 0.021522973 -0.093257554
0.16712844 0.021826627 -0.095486
0.17800698 0.021825735 -0.095479451
0.24793175 0.022403073 -0.09971641
0.27165914 0.021755015 -0.094960466
0.29740819 0.02137382 -0.092054375
0.33451167 0.021450618 -0.092726566
-0.3679941 0.04933783 -0.099388562
-0.41757438 0.068664029 -0.098634399
-0.38764057 0.065973245 -0.091373652
-0.43968236 0.086907208 -0.095383771
-0.45807371 0.093310826 -0.090681762
-0.28903422 0.016269606 -0.081574686
-0.0058019767 0.010262412 -0.081074953
0.19571911 0.010662876 -0.085203029
0.39294437 0.011282341 -0.083806038
0.42788064 0.019980717 -0.080809563
-0.30046499 0.021354819 -0.087466836
-0.25928065 0.020218635 -0.080148898
-0.23053312 0.020857021 -0.086728185
-0.22748572 0.020836903 -0.086520858
-0.18708146 0.020933039 -0.087511659
-0.16494547 0.020226054 -0.080225334
-0.14463206 0.020991748 -0.088116705
-0.11041342 0.020498637 -0.083034649
0.035138112 0.021132967 -0.089571193
0.085061669 0.020454386 -0.082578599
0.095141545 0.020385087 -0.081864387
0.14805375 0.021095499 -0.08918599
0.16541339 0.020877907 -0.086943455
0.25274423 0.020751474 -0.085640416
0.26748252 0.020319888 -0.081192434
0.27522686 0.021020072 -0.088408612
0.29921681 0.020415066 -0.08217334
0.3767364 0.020490384 -0.082949571
0.40700179 0.023866359 -0.084675908
-0.34575033 0.038921207 -0.085665926
-0.33496934 0.034434132 -0.083121985
-0.33017766 0.042825259 -0.085298032
-0.36944932 0.057706717 -0.080305137
-0.35737842 0.05326248 -0.083105251
-0.42202559 0.078569517 -0.082777955
-0.20357238 0.0095544346 -0.07377696
-0.15456986 0.0093573164 -0.071745023
-0.14152119 0.0092094271 -0.070220545
-0.082401283 0.0092575327 -0.070716418
-0.078226611 0.0095563997 -0.073797219
-0.0088884532 0.009895239 -0.077290051
0.021846011 0.009986978 -0.078235716
0.14587803 0.0094872657 -0.07308457
0.27489614 0.0093800584 -0.071979448
0.30407959 0.0094201826 -0.07239306
0.31312525 0.009260809 -0.070750199
-0.23069882 0.019807331 -0.075909935
-0.18871996 0.019779751 -0.075625688
-0.10202025 0.019486517 -0.072603524
-0.041206285 0.01001161 -0.078489631
0.067564622 0.015014031 -0.078277439
0.10549053 0.019718213 -0.074991472
0.35861099 0.010108586 -0.079489283
0.19602416 0.020135226 -0.079289258
0.42451149 0.028759025 -0.079786174
-0.36489594 0.055231676 -0.073578134
-0.35271615 0.050609369 -0.075060323
-0.41632187 0.075998962 -0.079511866
-0.4440105 0.08601591 -0.071356781
-0.090478018 0.0086577907 -0.06453415
-0.082519636 0.008285908 -0.060026277
-0.078507811 0.0091419201 -0.069524668
-0.046019107 0.0083181523 -0.060581475
0.025847763 0.0088326307 -0.066336438
0.12500899 0.0086496118 -0.064449832
0.14864281 0.0090838615 -0.068926185
0.15220536 0.0091075534 -0.069170401
0.18283814 0.0086770197 -0.064732373
0.19336869 0.0087115979 -0.065088809
0.30664888 0.0086678537 -0.06463787
-0.30240723 0.019372702 -0.060073663
-0.26641065 0.018895814 -0.066515684
-0.24201015 0.019219203 -0.069848597
-0.15479054 0.018407397 -0.061331272
-0.12135746 0.019011997 -0.067713119
-0.044937473 0.018755199 -0.06506075
0.00078860205 0.018854387 -0.066088453
0.038764358 0.018926993 -0.06683702
0.044338726 0.018422604 -0.061340511
0.092735067 0.019138971 -0.069021717
0.1217171 0.018648764 -0.06396956
0.22727063 0.01872161 -0.064720333
0.3237626 0.018606139 -0.063530274
0.40520382 0.011191135 -0.062335834
0.41032937 0.012918727 -0.067372285
-0.31532344 0.025229026 -0.068461321
-0.30397883 0.020384479 -0.064585581
0.40222946 0.020571792 -0.061726399
0.42752382 0.027883474 -0.06074018
0.45098707 0.027785851 -0.061549559
-0.35063374 0.039116051 -0.06890963
-0.325526 0.03885565 -0.064381652
-0.44311267 0.074568622 -0.060755126
-0.27729669 0.0093692988 -0.054798275
-0.25001991 0.0077873766 -0.051442172
0.044514038 0.0080299228 -0.055618525
0.072077371 0.0080938851 -0.056719869
0.14783368 0.0080063008 -0.055211775
0.23221722 0.0081840586 -0.058272548
0.26412115 0.0079407301 -0.054082718
0.3272799 0.0080744494 -0.056385219
-0.29708892 0.016824031 -0.052522898
-0.27945274 0.019996472 -0.052861452
-0.25713107 0.017750254 -0.050015818
-0.19089039 0.017829232 -0.051375762
-0.093591973 0.017949291 -0.053442027
-0.061301842 0.018121913 -0.05640725
0.033312541 0.017880462 -0.052259907
0.1054247 0.018027222 -0.054784983
0.11465162 0.017842932 -0.051611643
0.15350085 0.01824951 -0.0586126
0.17595649 0.018142015 -0.05676163
0.3294346 0.017797627 -0.050831549
0.40875375 0.011448227 -0.053329598
0.43223557 0.019199289 -0.056449167
-0.31648669 0.024674248 -0.056536544
-0.29487109 0.026090726 -0.053989559
-0.28287488 0.021233976 -0.05147643
-0.34678179 0.046206865 -0.050209649
-0.38843206 0.052816946 -0.055582359
-0.39515176 0.065588631 -0.057068415
-0.26778078 0.0072444431 -0.042026084
-0.25430137 0.0074978312 -0.046456549
-0.069923006 0.007132384 -0.040163983
-0.020627417 0.0072389538 -0.041998994
0.026733052 0.0074811936 -0.046170074
0.039208695 0.0075887479 -0.048022024
0.069792524 0.0074945968 -0.046400856
0.08288835 0.007487345 -0.046275996
0.11028758 0.0075573018 -0.047480561
0.16946848 0.0074361339 -0.045394197
0.24847668 0.0071894806 -0.041147117
0.25098288 0.0073590698 -0.044067241
0.26540184 0.007251489 -0.042214826
0.2709505 0.0076959645 -0.049868166
0.34032586 0.0073634055 -0.044141896
0.35517815 0.0074405251 -0.045469806
0.36273843 0.007666477 -0.049360424
-0.30110744 0.018177595 -0.048916169
-0.085872918 0.017240722 -0.041243713
0.032723859 0.01733131 -0.042801909
0.042722028 0.017245675 -0.041331105
0.053015403 0.017273482 -0.041811384
0.076091677 0.017739624 -0.049832769
0.15138443 0.017473873 -0.045256767
0.17570347 0.017295614 -0.0421873
0.18449479 0.017335657 -0.042876799
0.24315211 0.017455064 -0.044932887
0.33883056 0.017647998 -0.048255045
0.34778428 0.017551608 -0.04659532
-0.34080386 0.033295013 -0.041708983
-0.35704017 0.049630418 -0.040485926
-0.41598159 0.063068666 -0.046677448
-0.39737064 0.065611705 -0.043290526
-0.42825317 0.077740029 -0.043658681
-0.4471415 0.085440636 -0.048491172
-0.22813925 0.0066257445 -0.031440262
-0.15349801 0.0066516325 -0.03188603
-0.022377335 0.0067606429 -0.033763051
-0.012210321 0.0065856641 -0.030493779
-0.0099502057 0.0070390408 -0.038556732
0.0036829412 0.0067941314 -0.034339678
0.087160602 0.0069358256 -0.036779486
0.11070227 0.0066310856 -0.031532235
0.13369089 0.0067852712 -0.034187123
0.16946457 0.0065843975 -0.030428657
0.17093347 0.006960684 -0.037207529
0.28643334 0.0065856618 -0.030493665
0.30289659 0.0066505629 -0.031867616
0.35729989 0.0070752567 -0.039180316
0.38261557 0.0068170233 -0.034003735
-0.27632537 0.018035924 -0.036054589
-0.2396566 0.017038221 -0.037755176
-0.19039378 0.016840229 -0.034345917
-0.12331454 0.016954763 -0.036318123
-0.074978553 0.017099477 -0.038803454
0.070667505 0.016632376 -0.030541221
0.10947984 0.016791636 -0.033509187
0.4335933 0.018420743 -0.036158182
-0.29823092 0.026436487 -0.038179163
0.43714693 0.029668953 -0.035774164
-0.3393828 0.032262586 -0.033972614
-0.30983177 0.030944083 -0.037531476
-0.35350698 0.047707114 -0.03172031
-0.40464342 0.057825096 -0.0336712
-0.38613266 0.050860774 -0.038416192
-0.26171613 0.006447338 -0.023339491
-0.23663954 0.0065179393 -0.027001761
-0.2083607 0.0065340288 -0.027838731
-0.18768023 0.006447833 -0.023410248
-0.10104075 0.00638306 -0.020054981
-0.063237004 0.0064250147 -0.022219189
-0.040192701 0.0064979582 -0.025995631
0.10604065 0.0064136246 -0.02161438
0.24157406 0.0064479047 -0.023374394
0.31167379 0.0064914199 -0.025634835
0.34274209 0.0065760436 -0.029999761
0.36605179 0.0064247316 -0.022215262
0.39304656 0.0071459766 -0.021205159
-0.2772747 0.017823935 -0.022979375
-0.2561895 0.016547918 -0.026175722
-0.15365133 0.016607458 -0.029253669
-0.14090264 0.01658218 -0.02794693
-0.13967566 0.016456876 -0.021468922
-0.1293143 0.01661762 -0.029779183
-0.1077534 0.016460415 -0.021651901
-0.033238675 0.016489133 -0.023136588
0.013997761 0.016449133 -0.021068618
0.03723726 0.016443403 -0.020772504
0.10072321 0.016548092 -0.026184602
0.15642899 0.016594606 -0.028580407
0.24826291 0.016454887 -0.021355059
0.28897148 0.016466748 -0.021962291
0.3754746 0.016472194 -0.022232793
-0.32525501 0.026490128 -0.028702609
0.43671215 0.029022304 -0.021288307
-0.33651745 0.030892702 -0.028111367
-0.36119255 0.050483234 -0.02186209
-0.42389295 0.065026209 -0.022433944
-0.44926339 0.08511959 -0.027417069
-0.21700144 0.006301756 -0.015812177
-0.076896019 0.0063244454 -0.016989643
-0.068122499 0.0062387651 -0.012556412
-0.024484336 0.006379785 -0.019878361
0.0044359639 0.0063820491 -0.019992597
0.029807881 0.0062042652 -0.010773248
0.030005038 0.0061996439 -0.010534375
0.13734403 0.0062444592 -0.012870353
0.18613401 0.0063308896 -0.017331624
0.25064963 0.0062855547 -0.014982915
0.33974063 0.0063086431 -0.016176041
0.38131025 0.0062713446 -0.012985139
-0.28167513 0.019102195 -0.011481188
-0.24753824 0.016354013 -0.01615119
-0.11560006 0.016336463 -0.015243917
-0.10611674 0.016244303 -0.010479381
-0.073820204 0.016355131 -0.01621622
0.064870112 0.016379425 -0.017464872
0.11206079 0.016376982 -0.017338565
0.20340921 0.016423021 -0.019715337
0.21656436 0.016263822 -0.011488498
0.22140832 0.016291451 -0.012916875
0.2461046 0.01642145 -0.019629002
0.31621477 0.016261877 -0.011381208
0.41632709 0.011934995 -0.017409805
0.45910907 0.026596304 -0.016147416
-0.27921322 0.0080552362 -0.0071163806
-0.16774952 0.0061891754 -0.0099933054
-0.034545191 0.0060401214 -0.0022892649
-0.024661049 0.0060907514 -0.0049061081
-0.0086167604 0.0060860636 -0.0046638479
0.022212252 0.0061636865 -0.0086758854
0.039164964 0.0061298935 -0.006929236
0.067860872 0.0060461056 -0.0025985364
0.23519395 0.0060074702 -0.00060163217
0.27784863 0.0061484673 -0.0078967586
-0.23885997 0.01616206 -0.0062276241
-0.098519452 0.016153315 -0.0057354849
0.057404909 0.0162235 -0.0093791131
0.12879661 0.016066985 -0.0013123857
0.2447271 0.016227253 -0.009597877
0.29719079 0.016124433 -0.0042823385
0.3205598 0.016083058 -0.0021433458
0.38844955 0.016423173 -0.0025965162
0.44826698 0.022699231 -0.0084492005
-0.31485546 0.031980414 -0.0052365861
-0.4344601 0.068879105 -0.0082987696
-0.41317004 0.060522594 -0.0077521116
-0.23484173 0.0061507984 0.0080097113
-0.061194673 0.006117451 0.0062861219
0.0058808476 0.0061311601 0.0069947033
0.02910877 0.0061351061 0.0071986783
0.073530518 0.006087292 0.0047273096
0.085249133 0.0061855335 0.0098050777
0.17055538 0.0060750027 0.0040921266
0.19256696 0.0061107241 0.0059431894
0.25641173 0.0059961183 1.4898803e-05
0.3470642 0.0060611153 0.0033756755
0.37832925 0.0059965407 3.6736968e-05
-0.25183898 0.016119195 0.0040115099
-0.23678762 0.016135825 0.0048711919
-0.21850511 0.01620033 0.0082059149
-0.1986353 0.016052898 0.00058412936
-0.095384568 0.016112985 0.0036845249
-0.04164895 0.016188165 0.007564859
0.035031561 0.016229022 0.0096892519
0.083463117 0.016233597 0.0099257305
0.1485073 0.016179603 0.0071360087
0.19712356 0.01612287 0.0041961479
0.20351332 0.016066745 0.0012983605
0.22723173 0.016191099 0.0077187861
0.26761454 0.016150031 0.0055984445
0.37738779 0.016094344 0.002723204
0.41839674 0.01244083 0.0095011406
0.43554169 0.018142108 0.00023797347
-0.34357607 0.033235773 0.0073982687
-0.3615784 0.040296972 0.0076238313
-0.45960104 0.078588523 0.0011867023
-0.23217767 0.0062919036 0.015302941
-0.22293381 0.0062114354 0.011143858
-0.21162689 0.0062502446 0.013149749
-0.12353924 0.006325122 0.017019862
-0.088945352 0.0062273825 0.011968073
-0.079875872 0.0062839985 0.014894336
-0.055183448 0.006260924 0.01370171
0.038254846 0.0063822689 0.019990452
0.058576088 0.0063764518 0.01968863
0.1227136 0.0063154735 0.016533615
0.20596349 0.0063228607 0.016910298
0.29364604 0.0062851785 0.014957739
0.34106356 0.0062873731 0.015084883
0.35860285 0.006238861 0.012587739
0.37173086 0.0062160296 0.011405186
0.38358426 0.0063897106 0.016613653
0.39825231 0.0077082729 0.014488589
-0.16304655 0.016291263 0.012906898
-0.14476298 0.016352713 0.016083663
0.049195182 0.016298717 0.013292297
0.088067599 0.01624969 0.010757693
0.14673497 0.016244566 0.010492824
0.1804063 0.016318306 0.014304961
0.20742483 0.016347026 0.015789742
0.21904166 0.016316514 0.014213746
0.23878476 0.016409799 0.019034885
0.25091127 0.016345508 0.015714588
0.29435015 0.016318761 0.014310108
0.3146461 0.016333565 0.015074476
0.36449596 0.016247585 0.010635244
0.42679802 0.025501721 0.016365588
-0.32502767 0.036163855 0.014844189
-0.38297057 0.048751973 0.011027964
-0.398063 0.054804284 0.017691519
-0.41709259 0.062218472 0.015488782
-0.44466719 0.083045103 0.014105972
-0.2395837 0.006463713 0.024195114
-0.22507486 0.0064668804 0.024363976
-0.12167953 0.0063828677 0.020017393
-0.094509929 0.0064698551 0.024524625
-0.038532164 0.0065614898 0.029250495
0.046082318 0.0064162677 0.021746911
0.05715251 0.0065213507 0.027195686
0.06636063 0.0065034814 0.026269313
0.070075333 0.0065032844 0.026259022
0.089913242 0.0065452214 0.028417733
0.12859376 0.0064250291 0.022194691
0.14893439 0.0064032678 0.021068934
0.15347737 0.0064346893 0.022692427
0.16616547 0.006499961 0.02607863
0.1706377 0.0064186119 0.021860538
0.20673499 0.0064109024 0.021459961
0.28591228 0.0065032523 0.026237652
0.321087 0.0064396597 0.022962227
0.38553005 0.0066318372 0.024352342
-0.19664277 0.016596647 0.028694361
-0.1756705 0.016597115 0.028718531
-0.15347332 0.016590612 0.02838238
-0.097426482 0.016460922 0.021663085
-0.071201771 0.016613418 0.029561479
-0.030047489 0.016602855 0.029015264
0.016795615 0.016489193 0.023139402
0.094406687 0.016578913 0.02777762
0.16291565 0.016524456 0.024962284
0.3127906 0.016520178 0.024741124
0.39483035 0.01752647 0.027137171
-0.32326522 0.025588775 0.022769783
-0.30263343 0.02764352 0.02745341
-0.3589251 0.039567985 0.022825811
-0.32258007 0.035412282 0.025012515
0.45891315 0.034121443 0.028894711
-0.44410044 0.072955728 0.022851979
-0.42709169 0.076435417 0.027749399
-0.14128861 0.0070256889 0.038326338
-0.049221382 0.0065998212 0.030993402
-0.024328373 0.0068984888 0.036136102
0.068219051 0.007081599 0.039289035
0.16808492 0.0066468706 0.031803537
0.25318143 0.0067993179 0.034428488
0.27092507 0.006836697 0.035072107
0.32994404 0.0068361126 0.035062056
-0.28380406 0.010815672 0.039488479
-0.26809096 0.016711244 0.031975292
-0.25549367 0.016981944 0.03678564
-0.23616265 0.016739035 0.032602962
-0.22266446 0.016720379 0.032281715
-0.039182432 0.016628385 0.030335197
0.00024884753 0.016828863 0.03414683
0.093659446 0.016646972 0.031017708
0.11406385 0.016898992 0.035357289
0.12050036 0.016627219 0.030274851
0.13426468 0.017067993 0.038267314
0.15175767 0.016992759 0.036971863
0.16185369 0.016759418 0.032953918
0.20207673 0.017133504 0.039395414
0.31220335 0.016788222 0.033449914
0.43051535 0.017480936 0.038140174
0.43733808 0.029815178 0.0370804
-0.35064316 0.036612988 0.032939512
0.44492504 0.032056261 0.030958477
-0.36023253 0.040293194 0.031659272
-0.41423652 0.061633114 0.034447081
-0.40111476 0.066336274 0.031192547
-0.44714051 0.074449137 0.033116259
-0.43138382 0.078169987 0.030292051
-0.18377827 0.0074742949 0.046050772
-0.17626636 0.0072637461 0.04242539
-0.09818846 0.0073224697 0.043436535
-0.081997707 0.0075270222 0.046958677
-0.056821615 0.0076693031 0.049408581
-0.043635741 0.007565178 0.047615666
-0.005571533 0.0072293212 0.041832626
0.027590141 0.0076138861 0.04845437
0.15352267 0.0073132133 0.043277152
0.1978367 0.0071826144 0.041028395
0.22738704 0.007671251 0.049442131
0.37791151 0.0071782642 0.040953487
-0.21072116 0.017483931 0.045429453
-0.094355047 0.017464655 0.045090917
-0.087390229 0.017591275 0.047272809
-0.061493024 0.017348282 0.043093208
0.081418134 0.017697187 0.049101539
0.32729575 0.017260451 0.041581303
0.33774778 0.017657558 0.048419163
0.34385586 0.01755649 0.046678845
0.38626665 0.017868269 0.048869394
-0.32242212 0.026054241 0.041131828
-0.31683013 0.024101576 0.045025934
-0.32598948 0.037847754 0.046810582
-0.37213707 0.05553722 0.040305782
-0.40795636 0.06959904 0.040647268
-0.41676074 0.07339374 0.046244066
-0.12957168 0.0078751724 0.052953411
-0.030516572 0.0080757383 0.056406908
0.18873703 0.0077987993 0.05163835
0.20161967 0.0078600226 0.052692544
0.2578398 0.0081115207 0.057023041
0.28952995 0.0082205907 0.058901083
0.324045 0.0077409735 0.050642665
-0.29448143 0.015919257 0.054431599
-0.24729441 0.018075638 0.055618145
-0.22343144 0.018157221 0.057022989
-0.2182931 0.018312987 0.059705127
-0.19421953 0.017768148 0.050323442
-0.15018877 0.018043468 0.055064224
-0.089053452 0.017825153 0.05129635
-0.073435605 0.018153526 0.056959741
-0.042215262 0.018295586 0.059405491
0.10928141 0.018207071 0.057881344
0.13734654 0.01832813 0.059965868
0.14053692 0.018257963 0.058757629
0.17104578 0.018291146 0.059329033
0.21619603 0.018285997 0.059240356
0.3972832 0.019631729 0.059899274
-0.34231979 0.034692548 0.054781459
-0.40959728 0.061156467 0.056284059
-0.41647688 0.07370057 0.053042509
-0.43907684 0.082770765 0.056482337
-0.21181315 0.0091358973 0.069462202
-0.18020958 0.0089318752 0.06735906
0.049462363 0.0082939155 0.060163647
0.13039207 0.008380712 0.061658185
0.27544832 0.0089231478 0.067269102
0.31081775 0.0083006294 0.060279261
0.35257965 0.0089511424 0.067557678
0.38442701 0.0092553869 0.06955985
-0.23246408 0.018667737 0.064164646
-0.17935707 0.018452857 0.061950039
-0.14529315 0.018542323 0.062872097
0.04469078 0.018977098 0.067353018
0.055987567 0.019169036 0.069331191
0.17084008 0.01882071 0.065741226
0.30141702 0.01884295 0.065970466
0.33144435 0.018421555 0.061574578
0.36115611 0.019039514 0.067996308
0.38568205 0.018583428 0.061589185
-0.30613142 0.021636141 0.068559654
0.40667394 0.021922005 0.065976113
-0.33795321 0.033719379 0.064755619
-0.30577728 0.03165077 0.069609053
0.44101977 0.033178542 0.06736023
-0.36563611 0.044942815 0.068382815
-0.35810971 0.041712753 0.065655716
-0.33117577 0.04143662 0.06795159
-0.39000541 0.054387473 0.067333512
-0.36832866 0.055463497 0.062721305
-0.40947983 0.061651044 0.063727483
-0.38315406 0.061773129 0.067577168
-0.43112695 0.07059373 0.068184726
-0.42511293 0.077584513 0.061161377
-0.44044703 0.084167182 0.066950463
-0.43875846 0.08374159 0.069254562
-0.26740891 0.0094712814 0.072919481
-0.20111455 0.009689427 0.075168207
-0.19653292 0.0094569642 0.072771899
-0.12702438 0.0099036992 0.077377006
-0.016798496 0.0095375897 0.073603012
0.0410286 0.0095225582 0.073448062
0.092710651 0.0096118981 0.074369013
0.11427894 0.0093068257 0.071224198
0.21356916 0.0099393502 0.077744514
0.22384715 0.0094230557 0.072422348
0.24634343 0.0096126525 0.074376792
-0.29259521 0.016834505 0.073475443
-0.072546773 0.019556776 0.07332737
0.023938391 0.019677168 0.074563548
0.1113953 0.019367425 0.071375862
0.13413015 0.019292502 0.070603676
0.14203709 0.010031135 0.07869067
0.31215587 0.010082035 0.07921537
0.34476125 0.010154255 0.079959847
0.41724288 0.01601929 0.077742457
-0.30583197 0.02194863 0.072749399
-0.26307762 0.020156026 0.079503417
-0.024531137 0.02016744 0.079626106
0.03052564 0.0200289 0.078187242
0.32291421 0.020097867 0.078904025
0.36747998 0.020042436 0.07833273
0.44031942 0.023287296 0.071217321
-0.3046872 0.031572085 0.073006243
-0.33508876 0.043434668 0.072476938
-0.38592118 0.053802434 0.07723324
-0.40059012 0.06924244 0.073765606
-0.38008279 0.06097772 0.071562275
-0.45639533 0.080982611 0.072901189
-0.4338243 0.082504034 0.076051526
-0.024242356 0.010977994 0.088451266
-0.016818076 0.010835884 0.086986348
-4.2915344e-06 0.011011502 0.08879669
0.11117672 0.01045803 0.083091259
0.23875782 0.010838642 0.087014779
-0.24771655 0.020805337 0.086195424
-0.1728946 0.020729354 0.085412316
-0.10317015 0.02078063 0.085940793
0.1857554 0.020679215 0.084895581
0.2188362 0.020934552 0.087527148
0.22484957 0.020427082 0.082297005
0.23445879 0.020206194 0.08002048
0.25155398 0.020965546 0.087846607
0.283223 0.021141198 0.089656882
0.38700786 0.021184836 0.087608412
0.41945165 0.027281867 0.082396373
-0.30343923 0.032224376 0.084129788
-0.36849415 0.047642939 0.083778612
-0.38926312 0.055754937 0.083494492
-0.4223609 0.068677709 0.082997575
-0.40252498 0.070750386 0.081066832
-0.4592872 0.091398761 0.081130974
-0.16488223 0.011899012 0.096355967
-0.089610718 0.011508382 0.093489982
-0.021397442 0.012023482 0.097269192
0.0043485314 0.011834843 0.095885165
0.20069617 0.011459056 0.093128085
0.23834845 0.011833915 0.095878363
0.24717431 0.011884518 0.096249625
0.28216171 0.011990685 0.097028553
0.35354102 0.011159275 0.090319991
0.36688623 0.012012211 0.097186476
-0.21045575 0.022364791 0.09943445
-0.2068101 0.021451863 0.092735648
-0.123491 0.021372065 0.09188813
0.083290905 0.021232184 0.090594664
0.19413152 0.022362877 0.099421009
0.21129917 0.022332598 0.099198788
0.22814688 0.022039514 0.097048059
0.34614673 0.021673687 0.094363503
0.3852351 0.022080384 0.096276596
-0.3526063 0.042990007 0.097196542
-0.39315584 0.058552943 0.09489464
-0.39344734 0.068320677 0.092068262
-0.42227143 0.07969597 0.092704326
-0.42324725 0.080599338 0.096312746
0.003767604 0.013465329 0.10784774
0.024098085 0.013598229 0.10882282
0.17005841 0.013554124 0.10849921
0.1875827 0.01277106 0.10275402
0.19443667 0.013644503 0.10916232
0.31228998 0.013303436 0.10665996
0.33683199 0.013689579 0.10949303
-0.29372025 0.021348044 0.10718705
-0.25598505 0.023058631 0.10452561
-0.21629232 0.023126006 0.10502
-0.068201527 0.022957951 0.10378782
-0.055461384 0.022866102 0.10311379
-0.049143087 0.022682853 0.10176906
0.024953816 0.023135167 0.10508683
0.084453344 0.023486555 0.10766694
0.090479434 0.023370869 0.10681802
0.15899152 0.023553569 0.1081587
0.17794801 0.023588873 0.10841778
0.20375119 0.023567138 0.10825802
0.27341098 0.023344722 0.10662489
0.35725245 0.022999745 0.10409354
0.39093354 0.024334239 0.10971048
-0.32460931 0.032739688 0.10221843
-0.29334038 0.030515619 0.10212754
-0.3395718 0.049360923 0.10714485
-0.41476449 0.078563884 0.10526254
-0.22311181 0.014230261 0.11345991
-0.01804854 0.01396176 0.11148997
-0.002690915 0.014438425 0.11498718
0.082850941 0.014099916 0.11250359
0.24260023 0.014519759 0.1155839
0.2936286 0.014615533 0.11628659
0.31969202 0.014930945 0.11860071
0.3410413 0.01380282 0.11032385
-0.26525155 0.025016533 0.11889213
-0.22174171 0.024890184 0.11796502
-0.21741918 0.024056833 0.11185014
-0.18967885 0.025020549 0.11892161
-0.14441696 0.023873616 0.11050574
0.14412412 0.024829151 0.11751717
0.19908868 0.024461729 0.11482117
0.28969997 0.023824308 0.11014394
0.34153634 0.024200117 0.11290151
-0.32866147 0.045605965 0.11076346
-0.38531655 0.057661336 0.11002421
-0.3663114 0.050960079 0.11521571
-0.44206947 0.080025673 0.11084538
-0.44159597 0.09027046 0.11350977
-0.25923362 0.016399235 0.12793599
-0.23916942 0.016368866 0.12776345
-0.22697316 0.015618665 0.12328349
-0.027345173 0.016266949 0.12718436
-0.0049852207 0.01556932 0.12303422
0.046661988 0.015182992 0.12044993
0.10168593 0.015845284 0.12478846
0.11102309 0.015511175 0.12285775
0.12807138 0.016176516 0.12667054
0.15208757 0.016605025 0.1291053
0.23520163 0.016271988 0.127213
0.27847418 0.015322095 0.1214705
0.30121499 0.015940174 0.12532763
-0.28995723 0.022786984 0.12640545
-0.16531095 0.026232019 0.12672566
-0.068366945 0.026480651 0.12813668
-0.043147057 0.026083641 0.12588285
0.005342186 0.026035972 0.12561287
0.23900224 0.026624262 0.12895432
0.28504899 0.026149493 0.12625672
0.32038221 0.025291152 0.12090722
0.35018086 0.025399305 0.12169989
-0.2966848 0.035171129 0.12480091
-0.32314903 0.045278728 0.12337203
-0.37253124 0.05563869 0.12900436
-0.42638248 0.076555207 0.12797603
-0.44591746 0.083030105 0.12122382
-0.41355705 0.081396446 0.12702185
-0.17124566 0.017531773 0.13437106
-0.16523778 0.018466005 0.13967937
-0.15802376 0.017754678 0.13563761
-0.080528215 0.017865833 0.13626921
-0.029585943 0.017617365 0.13485742
-0.0016178815 0.01836515 0.13910635
0.12776597 0.018141564 0.13783592
0.2380929 0.018096872 0.13758197
0.26198635 0.017923158 0.13659494
-0.22154844 0.027395977 0.13333924
-0.19651341 0.02811731 0.13743708
-0.17848733 0.027482767 0.1338324
-0.14048709 0.02752443 0.134069
-0.13631411 0.028488396 0.13954327
-0.082438566 0.028143648 0.13758558
-0.043477945 0.02782955 0.13580148
0.010965293 0.028325496 0.13862032
0.086289272 0.027131239 0.13183613
0.18865019 0.028286625 0.13839692
0.26251003 0.02725153 0.13251787
0.32449082 0.028095143 0.13730954
-0.32692316 0.039326765 0.13741548
-0.31442821 0.034257397 0.136494
-0.29530096 0.037232846 0.13878514
-0.33195326 0.041647561 0.13929057
-0.39771843 0.065829366 0.13071068
-0.38309813 0.060793757 0.13444613
-0.36191535 0.063504502 0.13964567
-0.43761542 0.0818891 0.13297039
-0.42960533 0.088322401 0.13043347
-0.41176435 0.082981646 0.13930804
-0.43491963 0.091896452 0.13843994
-0.26610014 0.019642927 0.14636667
-0.18480003 0.018988959 0.14265081
-0.14492209 0.019587498 0.1460517
-0.13037489 0.019936275 0.14803344
-0.095962003 0.018690586 0.14095543
-0.055589233 0.019313162 0.14449291
-0.022144243 0.018890159 0.14208943
-0.0094374865 0.019996695 0.14837675
0.012821794 0.019306589 0.14445557
0.15287364 0.019056493 0.14303453
0.2302777 0.018918047 0.14224789
0.31713161 0.01863056 0.14061438
-0.20771098 0.024595514 0.14596647
-0.14152789 0.02938536 0.14463975
-0.098588236 0.020117806 0.1490649
-0.087493725 0.029272962 0.14400195
-0.0754591 0.02895201 0.14217809
0.049509782 0.029867468 0.14737995
0.055647857 0.029577717 0.14573374
0.26583731 0.029180955 0.1434782
-0.37045676 0.058166914 0.14695349
-0.35847968 0.052426025 0.14133452
-0.37038901 0.068679497 0.14959756
-0.39907229 0.079284102 0.14617015
-0.25904071 0.022034127 0.15872277
-0.2263678 0.021941289 0.1582942
-0.2172128 0.021667942 0.15630174
-0.18472716 0.020668387 0.15219329
-0.17474391 0.020947194 0.15370025
-0.15859206 0.027173793 0.15674098
-0.1242162 0.02767662 0.15555501
-0.10495763 0.02218578 0.1549999
-0.098986253 0.022728173 0.1548456
-0.08613617 0.020820592 0.15305811
-0.046111684 0.028948408 0.15380916
0.07473027 0.020450525 0.15095541
0.09101437 0.021503072 0.1560867
0.11371337 0.023990653 0.15693468
0.19315057 0.023822075 0.15953024
0.24382776 0.023361072 0.15834866
-0.28599015 0.036928803 0.15612054
-0.26535261 0.03199267 0.1583191
-0.25667107 0.030923977 0.15337966
-0.21601392 0.031955574 0.15814884
-0.19770518 0.031140994 0.15438166
-0.17907913 0.031207647 0.15468942
0.084785365 0.03140755 0.15561078
0.19015193 0.032054998 0.15860668
0.23596227 0.030341431 0.15007156
-0.32243389 0.041628085 0.1581358
-0.36209166 0.056599446 0.15562835
-0.33841833 0.056487437 0.15142253
-0.34511179 0.060529072 0.1579811
-0.37111598 0.070120849 0.15535365
-0.42451128 0.091337934 0.15661049
-0.26641217 0.024081461 0.16155699
-0.29047644 0.039612412 0.16016135
-0.39161986 0.070615888 0.16629723
-0.41767675 0.085989922 0.16262089
-0.40037429 0.083345041 0.16926055
