# .PCD v0.7 - Point Cloud Data file format
VERSION 0.7
FIELDS x y z
SIZE 4 4 4
TYPE F F F
COUNT 1 1 1
WIDTH 929
HEIGHT 1
VIEWPOINT 0 0 0 1 0 0 0
POINTS 929
DATA ascii
-0.25461614 -0.042507 -0.15385804
0.076963097 -0.042507 -0.15328678
-0.33983025 -0.031021271 -0.15350732
-0.13884151 -0.031285055 -0.154737
-0.018381473 -0.034193292 -0.154737
0.0062012076 -0.037632793 -0.154737
0.07982859 -0.030359533 -0.154737
0.23633549 -0.038691182 -0.154737
-0.17656477 -0.026566599 -0.15207693
-0.16414353 -0.028947672 -0.154737
0.010516675 -0.027566904 -0.154737
0.030905096 -0.029027883 -0.154737
0.13802046 -0.026566599 -0.1543507
0.24953973 -0.0265666 -0.15440667
0.28268704 -0.0265666 -0.15438811
0.34845603 -0.022793457 -0.15261461
-0.34294969 -0.015426616 -0.15310551
-0.19791484 -0.042507004 -0.14366472
-0.17019309 -0.042507 -0.14624222
-0.15183228 -0.042507 -0.14377081
-0.074167646 -0.042507 -0.14874142
-0.33849901 -0.0334998 -0.14721519
-0.18633713 -0.0265666 -0.14786458
-0.17472851 -0.0265666 -0.1460695
-0.12027977 -0.026566599 -0.14828396
-0.10448617 -0.026566602 -0.14050263
-0.054186001 -0.026566602 -0.14387205
-0.036327288 -0.026566599 -0.14877096
0.0057334602 -0.0265666 -0.14807123
0.030167922 -0.0265666 -0.14182796
0.12957409 -0.026566599 -0.14234847
0.2502341 -0.026566602 -0.14881989
0.26242146 -0.0265666 -0.1438967
0.30894542 -0.0265666 -0.14317124
0.34309158 -0.02487413 -0.14387091
0.3578836 -0.01671152 -0.14857602
-0.29884759 -0.042507 -0.13102365
-0.23773775 -0.042507 -0.13691133
-0.19896325 -0.042507004 -0.13131411
-0.16327903 -0.042507 -0.13764495
0.10718413 -0.042507 -0.13844579
0.27734625 -0.042507 -0.13354014
0.346912 -0.037890941 -0.13704768
-0.25877255 -0.0265666 -0.13736539
-0.19902289 -0.026566602 -0.13049036
-0.082167447 -0.0265666 -0.1310748
0.043752488 -0.026566602 -0.13045901
0.067145914 -0.0265666 -0.13441895
0.23694868 -0.026566599 -0.13336235
0.27660343 -0.026566599 -0.13370539
0.31343114 -0.0265666 -0.13985349
0.3395648 -0.026566602 -0.13935891
0.37013665 -0.013750851 -0.13735157
-0.39886516 -0.0066666733 -0.13445666
-0.35651329 -0.006809595 -0.13830702
0.38358593 -0.0063292393 -0.13164359
0.40590489 -0.00097635575 -0.13132524
-0.043687776 -0.042507 -0.12891099
0.1303962 -0.042507 -0.12534955
0.15470445 -0.042507 -0.12211549
0.16347849 -0.042507 -0.12398466
0.19764721 -0.042507 -0.1252442
0.23640215 -0.042507 -0.12145805
0.30346799 -0.042507 -0.1243999
0.31593192 -0.042507 -0.12948188
0.33390582 -0.042507 -0.12345324
0.35084862 -0.040334735 -0.12038538
-0.315864 -0.037743706 -0.12214164
0.35398647 -0.038603231 -0.1252145
0.36471301 -0.032684211 -0.12913661
-0.36300531 -0.023748102 -0.12122788
-0.20976815 -0.0265666 -0.12940118
-0.15141347 -0.026566599 -0.12749022
-0.10094219 -0.026566599 -0.12945203
-0.063257784 -0.0265666 -0.12504466
0.023094267 -0.0265666 -0.1278764
0.036311865 -0.0265666 -0.12823845
0.055151727 -0.0265666 -0.12618527
0.11077416 -0.026566602 -0.12189403
0.19773155 -0.026566602 -0.12400062
0.32652467 -0.026566602 -0.12102963
0.33242327 -0.0265666 -0.12397233
0.37593451 -0.02649207 -0.12976843
-0.32749641 -0.018356189 -0.12428969
-0.35021871 -0.0093143629 -0.12591399
-0.31704366 -0.04190699 -0.11079313
-0.27093548 -0.042507 -0.11180783
-0.26307455 -0.042507 -0.11608297
-0.2243931 -0.042507 -0.11227264
-0.20342505 -0.042507 -0.11013074
-0.092495121 -0.042507 -0.11879516
-0.069443151 -0.042507 -0.11728877
-0.016742304 -0.042507 -0.11772046
-0.0064419359 -0.042507 -0.11977251
0.0043941885 -0.042507 -0.11550058
0.011210017 -0.042507 -0.11992299
0.063185126 -0.042507 -0.11123431
0.15669766 -0.042507 -0.11500637
0.20100805 -0.042507 -0.11019028
0.25792426 -0.042507 -0.11446304
0.28368217 -0.042507 -0.11987309
0.33432025 -0.042507 -0.11382914
0.34558582 -0.042507 -0.11466262
-0.34723675 -0.030022783 -0.1130514
-0.33117938 -0.036412522 -0.11157361
-0.3255623 -0.02270739 -0.11774459
-0.14966084 -0.026566602 -0.11345217
-0.031522501 -0.0265666 -0.1108211
0.06828174 -0.026566602 -0.11789156
0.098187611 -0.026566599 -0.11508296
0.11540708 -0.026566602 -0.1143791
0.23638679 -0.0265666 -0.11917238
-0.32872462 -0.017867448 -0.1159689
0.39195445 -0.017651966 -0.11521088
0.40182337 -0.012206063 -0.11896499
-0.40890312 -0.005484323 -0.11074567
-0.37174848 -0.0043285415 -0.11760214
0.38963127 -0.0029932777 -0.11195733
-0.42866042 0.0056068199 -0.11052091
0.4307088 0.0067685661 -0.11062552
-0.40315232 0.011749214 -0.11336617
0.41874248 0.010644548 -0.11778263
-0.31688809 -0.041815553 -0.10113202
-0.045748487 -0.042507 -0.10195718
-0.035050839 -0.042507 -0.10883275
0.023335598 -0.042507 -0.10520773
0.18632177 -0.042507 -0.10503272
0.21333528 -0.042507 -0.10619748
0.22578475 -0.042507 -0.10441304
0.25550675 -0.042507 -0.10244101
0.26688981 -0.042507 -0.10995618
0.31757858 -0.042507 -0.10275498
-0.32237184 -0.03991732 -0.10659638
0.34204194 -0.03368175 -0.10375482
0.35533968 -0.037856527 -0.10667922
-0.25059974 -0.0265666 -0.10698807
-0.24647583 -0.0265666 -0.1038328
-0.13432856 -0.0265666 -0.10574864
-0.12707037 -0.026566602 -0.10172632
0.17157534 -0.0265666 -0.1043225
0.21331257 -0.0265666 -0.10517609
0.33919531 -0.026566599 -0.10724844
0.35685873 -0.021077819 -0.10446429
0.37793678 -0.025387196 -0.10234522
-0.34585634 -0.014631877 -0.10316671
-0.33664584 -0.018296972 -0.10108551
0.36774999 -0.011267005 -0.10160382
0.37190691 -0.012773992 -0.10698289
0.40031454 -0.013038671 -0.10823569
-0.41866222 -0.0016007836 -0.10699388
-0.36608762 -0.0065812091 -0.10410167
0.38025093 -0.0043688379 -0.1036017
0.413899 -0.0055423728 -0.10967245
-0.39358461 0.0079419641 -0.10153533
-0.43059251 0.014990424 -0.10418002
-0.18414488 -0.042507 -0.09418615
-0.15636849 -0.042507 -0.095834613
-0.11583321 -0.042507 -0.092478774
-0.059753396 -0.042507 -0.097042516
-0.033845648 -0.042507 -0.095058776
0.0025454834 -0.042507 -0.090781026
0.018112242 -0.042507 -0.096317932
0.15547872 -0.042507 -0.09767054
0.18366322 -0.042507 -0.09581992
0.21064003 -0.042507 -0.0967829
0.22688167 -0.042507 -0.090407416
0.2631447 -0.042507 -0.093522638
0.31420824 -0.042507 -0.095831513
-0.32644451 -0.038296677 -0.093198016
-0.315864 -0.034043014 -0.095965967
-0.36076811 -0.024638297 -0.09788876
-0.25861892 -0.0265666 -0.092660584
-0.029121771 -0.0265666 -0.099990219
-0.017682478 -0.0265666 -0.0995657
0.0081031173 -0.026566599 -0.091538437
0.016171873 -0.0265666 -0.09529537
0.033043243 -0.0265666 -0.092132591
0.12382611 -0.0265666 -0.095788516
0.15659198 -0.0265666 -0.093681864
0.29235083 -0.0265666 -0.092493311
0.30444124 -0.0265666 -0.09462595
0.3224808 -0.0265666 -0.091591172
0.33671284 -0.026566599 -0.094630733
-0.35409051 -0.011355259 -0.091472805
0.35463339 -0.01850507 -0.092681468
0.40245467 -0.011857692 -0.098700218
-0.35627159 -0.0069057695 -0.094727539
0.38748023 -0.0041802838 -0.093908869
0.41601428 -0.0043750522 -0.0913186
-0.44130766 0.0074107465 -0.090214357
-0.43166149 0.023093972 -0.099103272
-0.14245105 -0.042507 -0.086015075
-0.024151444 -0.042507 -0.082486778
-0.0036615282 -0.042507 -0.080492578
0.21490614 -0.042507 -0.084544584
0.23339064 -0.042507 -0.087955534
0.28650397 -0.042507 -0.087595105
0.321073 -0.042507 -0.081222191
0.346912 -0.041760601 -0.087415397
-0.31586397 -0.035224978 -0.089628011
-0.36097372 -0.024556492 -0.084350765
-0.30242902 -0.0265666 -0.088608436
-0.15120719 -0.026566599 -0.082576625
-0.085236445 -0.026566599 -0.0873136
-0.068506345 -0.0265666 -0.085633323
-0.058801003 -0.0265666 -0.084280856
0.12567276 -0.026566602 -0.089341298
0.17538443 -0.0265666 -0.0818616
0.30007955 -0.0265666 -0.084553234
0.34764755 -0.022360036 -0.088244744
0.37046695 -0.029509136 -0.083644167
-0.37547076 -0.018787909 -0.085727319
-0.33978924 -0.017046124 -0.085920751
-0.40003228 -0.0090143848 -0.081595235
-0.35261118 -0.0083623426 -0.08418303
0.37168151 -0.0090974951 -0.085680567
0.3802796 -0.0043530259 -0.088886753
-0.43218613 0.019720679 -0.081878014
-0.42118961 0.018926764 -0.083805226
0.42248005 0.018933885 -0.085916258
-0.42415348 0.020106219 -0.08428748
0.43064451 0.023439353 -0.081574693
0.44019213 0.024907321 -0.083493806
-0.30143732 -0.042507 -0.073185928
-0.23221621 -0.042507 -0.072882719
-0.21628243 -0.042507 -0.073608391
-0.19927526 -0.042507 -0.079515703
-0.06787625 -0.042507 -0.070849732
0.012764499 -0.042507 -0.07627666
0.13629657 -0.042507 -0.070477784
0.15042068 -0.042507 -0.071355641
0.17972252 -0.042507 -0.078227721
0.20081528 -0.042507 -0.07477589
0.24175683 -0.042507 -0.079438418
0.2805436 -0.042507 -0.076528624
0.32157773 -0.042507 -0.074495807
0.35902941 -0.035820484 -0.076133125
-0.36547518 -0.022765297 -0.073667407
-0.30097398 -0.0265666 -0.077891842
-0.1566056 -0.0265666 -0.071958765
-0.132415 -0.026566599 -0.079144061
-0.0065241754 -0.0265666 -0.072170392
0.1708319 -0.0265666 -0.070986517
0.22960582 -0.026566602 -0.077221565
0.23696418 -0.0265666 -0.074941106
0.26174107 -0.0265666 -0.076866128
0.34746313 -0.022461785 -0.075531699
0.3538399 -0.020843308 -0.078541204
0.36855322 -0.01462462 -0.074757159
-0.35587627 -0.0070630852 -0.07564421
0.44072267 0.0092599727 -0.078708053
-0.44161463 0.023472356 -0.075531207
0.43055722 0.023391165 -0.079336219
-0.28362814 -0.042507 -0.064311519
-0.026402593 -0.042507 -0.062664628
0.29431182 -0.042507 -0.068260491
0.3489404 -0.041387696 -0.060246032
-0.315864 -0.035532944 -0.061458174
-0.15974593 -0.0265666 -0.064890124
-0.032707319 -0.026566602 -0.067299858
-0.01249066 -0.0265666 -0.061872091
0.015841052 -0.0265666 -0.068022504
0.11427242 -0.0265666 -0.060879439
0.1529896 -0.0265666 -0.069332816
0.20126916 -0.0265666 -0.064810753
0.21318661 -0.0265666 -0.069690868
0.30926341 -0.0265666 -0.066508614
0.33950341 -0.026854161 -0.062759295
-0.35500962 -0.010989508 -0.062822863
-0.36357337 -0.0057909638 -0.063270003
-0.40334415 0.0082441485 -0.063797273
-0.39061806 0.0031802347 -0.0620386
-0.38600409 0.004925481 -0.065363646
0.42439795 0.019992247 -0.061715469
-0.4535048 0.026020059 -0.066432565
0.44602245 0.028124459 -0.066285305
-0.21763758 -0.042507 -0.056913517
-0.022940803 -0.042507 -0.050991282
0.089208789 -0.042507 -0.059424836
0.35615307 -0.037407689 -0.056511648
-0.35053688 -0.028709533 -0.050628245
-0.31867617 -0.021866005 -0.051362336
-0.19512936 -0.0265666 -0.053941395
-0.1160286 -0.026566602 -0.0598979
-0.027118675 -0.0265666 -0.055564258
0.0087032206 -0.0265666 -0.052331127
0.035931051 -0.0265666 -0.057305276
0.044263609 -0.026566602 -0.059091799
0.10418771 -0.0265666 -0.059536561
0.15757349 -0.026566602 -0.054535218
0.23194613 -0.026566599 -0.050293881
0.31658769 -0.0265666 -0.056823201
-0.32794225 -0.018178785 -0.052871149
0.37335119 -0.0081761442 -0.051115014
0.41422826 -0.0053606732 -0.058264218
-0.43866259 0.0063581606 -0.058077615
-0.39006606 0.0029606014 -0.053477265
0.40176964 0.0037049549 -0.051966261
0.41995335 0.01373928 -0.051862426
0.45094427 0.014899977 -0.059316121
0.44792113 0.029172132 -0.051491879
0.003358867 -0.042507 -0.041531608
0.18590927 -0.042507 -0.04600706
0.22193155 -0.042507 -0.044850044
0.31040591 -0.042507 -0.046747413
0.35364985 -0.038788974 -0.046963871
-0.23687603 -0.026566602 -0.043101676
-0.20539057 -0.0265666 -0.045328133
-0.19815156 -0.026566602 -0.045354873
-0.16890062 -0.026566599 -0.044424608
-0.11069873 -0.0265666 -0.040594995
0.033486351 -0.0265666 -0.040591475
0.12651189 -0.026566599 -0.045031905
0.16586921 -0.0265666 -0.049196437
0.31152418 -0.0265666 -0.04080303
0.34402049 -0.0265666 -0.042756397
-0.39636952 -0.010471928 -0.047008529
-0.3254495 -0.019170716 -0.042203173
0.36752078 -0.011393469 -0.042383395
0.41834408 0.016651543 -0.049162451
0.43737939 0.027155964 -0.048081152
-0.3097885 -0.042507 -0.03820404
0.048816312 -0.042507 -0.037340838
0.13625032 -0.042507 -0.031380937
0.18168971 -0.042507 -0.032680575
0.23189792 -0.042507 -0.039659709
0.33557475 -0.042507 -0.031644825
0.34008646 -0.030138208 -0.037373498
0.36841655 -0.03064055 -0.035493385
-0.15745015 -0.026566602 -0.035628214
-0.12923816 -0.026566599 -0.036296047
-0.10456435 -0.0265666 -0.039476514
-0.070963413 -0.0265666 -0.034543768
-0.066591173 -0.026566602 -0.038352162
-0.0078964084 -0.0265666 -0.033872433
0.16272423 -0.0265666 -0.03322345
0.17225102 -0.0265666 -0.037818436
-0.39354202 -0.011597102 -0.037523054
-0.34086531 -0.016617939 -0.036206789
0.37033623 -0.0098398542 -0.031225957
0.38139892 -0.0056357421 -0.038729846
-0.39500681 0.0073141311 -0.036629263
-0.38371944 0.00043509901 -0.038151439
-0.37560192 0.00078621157 -0.036745004
0.46294221 0.037203193 -0.036039356
-0.23721974 -0.042507 -0.024519157
0.060485441 -0.042507 -0.020232899
0.10193704 -0.042507 -0.029564831
0.16724065 -0.042507 -0.027065817
0.3486459 -0.041550212 -0.029343707
0.34605998 -0.037706763 -0.024724685
-0.26393306 -0.0265666 -0.021578612
-0.10259205 -0.026566599 -0.020427097
-0.092845023 -0.0265666 -0.02401156
-0.049550306 -0.0265666 -0.025627047
0.022608384 -0.026566599 -0.023860395
0.082779743 -0.0265666 -0.029309731
0.14456284 -0.0265666 -0.020655885
0.32451731 -0.0265666 -0.025076278
0.346912 -0.026668968 -0.029059555
-0.3973873 -0.010066921 -0.025489461
0.36630565 -0.012064016 -0.020361584
0.37207031 -0.01268382 -0.028505076
0.39548525 -0.015703583 -0.021168344
-0.37574297 -0.0027390083 -0.023676503
0.41453093 -0.0051936563 -0.029968562
-0.38752612 0.0055311262 -0.028893735
-0.41711521 0.017305413 -0.027621608
-0.29508427 -0.042507 -0.019061901
-0.23650852 -0.042507 -0.011136169
-0.13902853 -0.042507 -0.014639815
-0.11136797 -0.042507 -0.016199348
-0.092351034 -0.042507 -0.019482072
-0.083271727 -0.042507 -0.012137594
-0.075922936 -0.042507 -0.017577183
-0.069324613 -0.042507 -0.014189608
0.0071745962 -0.042507 -0.017751101
0.017268047 -0.042507 -0.017987855
0.043956086 -0.042507 -0.010819964
0.14535496 -0.042507 -0.018828269
0.32758716 -0.042507 -0.013422877
-0.34318775 -0.031633995 -0.012150265
0.34099951 -0.031792767 -0.014064848
-0.35895637 -0.025359213 -0.018076599
-0.23646769 -0.026566602 -0.018575953
-0.14396904 -0.0265666 -0.018572871
-0.11108272 -0.0265666 -0.016485183
-0.093743913 -0.0265666 -0.019316442
-0.08705429 -0.026566602 -0.015020119
-0.027522147 -0.026566602 -0.013361759
0.07564424 -0.026566602 -0.014103685
0.20300303 -0.026566602 -0.017089082
0.33105582 -0.026566599 -0.017270166
0.35695794 -0.021023093 -0.013043229
0.37842816 -0.025116034 -0.011490919
-0.39698011 -0.010228951 -0.011105224
-0.34128416 -0.016451268 -0.014260361
0.36656314 -0.011921926 -0.016936556
0.3968893 -0.014928811 -0.015394139
0.40489119 -0.010513157 -0.013302982
0.37150308 -0.009195935 -0.01924267
0.41726202 -0.0036864821 -0.010627741
-0.3838582 0.00049032131 -0.01042521
-0.44625217 0.028900214 -0.019307904
0.46433145 0.036693845 -0.016288204
-0.29685742 -0.042507 -0.0077644065
-0.17921591 -0.042507 -0.0079269353
-0.11193296 -0.042507 -0.0089945011
0.12212341 -0.042507 -0.0084769912
-0.28964797 -0.026566599 -0.0083139949
-0.21991257 -0.0265666 -0.005642965
-0.094844975 -0.0265666 -0.0018911329
-0.063947901 -0.0265666 -0.0093246736
-0.013830457 -0.0265666 -0.0017474131
0.0090057906 -0.0265666 -0.0072665666
0.17416972 -0.026566599 -0.0096600242
0.18730888 -0.026566602 -0.0051710983
0.28991926 -0.0265666 -0.0059719309
0.30787867 -0.0265666 -0.0090088686
0.31191039 -0.0265666 -0.0052144416
0.39414063 -0.016445575 -0.0082356818
-0.41530296 -0.00293757 -0.0097530345
-0.37721443 -0.002153469 -0.002098728
-0.35906923 -0.0057925312 -0.0046780333
0.38362676 -0.0063067111 -0.0059767179
0.41457182 -0.0051710694 -0.0069017895
-0.44352359 0.0082925409 -0.0033300631
-0.42747873 0.0019076504 -0.0084937308
-0.39486307 0.0066600172 -0.004083883
-0.44799551 0.010072107 -0.0052303923
-0.42143542 0.019024588 -0.0095925778
-0.41712582 0.013728048 -0.0043493542
0.41694099 0.012076973 -0.00047166273
0.42073375 0.017970257 -0.0046360362
-0.45543635 0.028972579 -0.0034786891
-0.42978048 0.022345454 -0.0043715648
0.46330655 0.021721579 -0.001339402
0.46332967 0.037674643 -0.0042362968
0.46320748 0.041408058 -0.0047050901
-0.28276652 -0.042507 0.0094107743
-0.21541294 -0.042507 0.0078226067
-0.10361321 -0.042507 0.0061258003
-0.080197252 -0.042507 0.0071316585
-0.018875465 -0.042507 0.0050537959
0.063947514 -0.042507 0.0069887638
0.12949345 -0.042507 0.00022541545
0.15462375 -0.042507 0.0076378081
0.17456254 -0.042507 0.0059648789
0.18881792 -0.042507 0.0083940811
0.26232806 -0.042507 0.0056310669
-0.36522964 -0.022863002 0.0066466294
-0.32543084 -0.022759715 0.00093662832
-0.28878397 -0.0265666 0.0053761201
-0.21034811 -0.0265666 0.0042667636
-0.19785987 -0.0265666 0.0031871889
-0.16028523 -0.026566599 0.0081139933
-0.11459738 -0.026566602 0.0034923621
0.10530321 -0.0265666 0.0033579841
-0.33719367 -0.014497379 0.0045227301
0.36414209 -0.017058764 0.00050321221
-0.41863462 -0.0016117665 0.003676733
-0.36170727 -0.0065335575 0.0033716764
-0.38316327 0.00021379243 0.0039476994
-0.47221392 0.019708101 0.0046398551
-0.4626739 0.015912618 0.0055561643
-0.41002578 0.010902837 0.0036491454
-0.40345812 0.011870907 0.0050946772
0.43532223 0.022220131 0.0025083777
0.44030708 0.024970759 0.0053193606
-0.30716008 -0.042507 0.011202839
-0.27184111 -0.042507 0.012594122
-0.26805392 -0.042507 0.012410651
-0.25459909 -0.042507 0.019949906
-0.12409534 -0.042507 0.015251249
-0.099638224 -0.042507 0.016185783
-0.071140319 -0.042507 0.010692894
-0.066659048 -0.042507 0.0196984
-0.045497037 -0.042507 0.015646342
-0.0009950418 -0.042507 0.016663844
0.0743457 -0.042507 0.011920784
0.13808388 -0.042507 0.016003324
0.18505967 -0.042507 0.017722318
0.20989428 -0.042507 0.015409619
-0.33893687 -0.033325568 0.01172971
0.346912 -0.037012476 0.018004771
-0.31532696 -0.025217826 0.018097937
-0.27054486 -0.0265666 0.011441598
-0.12896551 -0.0265666 0.010383206
-0.042174786 -0.0265666 0.017113861
0.0057965815 -0.026566599 0.015705848
0.026186794 -0.026566602 0.013923702
0.063919827 -0.026566599 0.013301292
0.071386337 -0.026566599 0.01438803
0.086325504 -0.026566599 0.011588291
0.17711462 -0.0265666 0.015445471
0.18255371 -0.0265666 0.019710915
0.29947239 -0.026566602 0.012393888
0.32558396 -0.0265666 0.015420589
0.346912 -0.027302584 0.013880348
-0.37849712 -0.017583672 0.017828383
-0.32774866 -0.01825582 0.017372083
0.37105107 -0.0094453618 0.016971387
0.39091933 -0.0022825161 0.012122825
-0.40901974 0.010502527 0.014514346
0.4305121 0.019565931 0.010718886
0.45028031 0.034275159 0.019404978
-0.31449008 -0.042507 0.021275617
-0.22442362 -0.042507 0.028257107
-0.15664077 -0.042507 0.026932426
-0.073283285 -0.042507 0.020648159
-0.059262007 -0.042507 0.029022731
0.27133557 -0.042507 0.024380475
0.34511957 -0.042507 0.022816515
-0.33829951 -0.033579193 0.024239615
0.36905605 -0.03028769 0.02691723
-0.31527543 -0.026566599 0.023119146
-0.298318 -0.0265666 0.026819021
-0.14381881 -0.026566602 0.022205817
-0.11083028 -0.0265666 0.028131161
-0.097261503 -0.026566599 0.022060502
-0.071406864 -0.026566602 0.02524367
-0.063715085 -0.026566602 0.021583805
-0.035743788 -0.0265666 0.026157714
0.012486167 -0.026566602 0.02063866
0.16612855 -0.026566599 0.025695551
0.22076784 -0.026566602 0.024009811
0.25670481 -0.026566602 0.02024702
0.26062155 -0.0265666 0.027243976
0.35511658 -0.018238438 0.027803283
0.36203849 -0.014418751 0.020760488
-0.37816066 -0.0017769248 0.029344842
0.37570059 -0.0068797367 0.024576871
0.38311797 -0.0027868077 0.024001513
-0.43327749 0.0042152028 0.024180297
-0.42647427 0.0015079344 0.022649571
-0.39980513 0.0068359058 0.020397302
-0.38415489 0.0041896277 0.025516305
0.41713041 0.015981831 0.022939909
0.4207055 0.017954636 0.027452655
-0.456411 0.02936046 0.023860345
-0.43276483 0.023533046 0.02822249
-0.42868751 0.021910507 0.026956666
0.43228617 0.020544868 0.0285581
0.46676078 0.023627734 0.025844496
-0.31075627 -0.042507 0.035367712
-0.29215962 -0.042507 0.035909988
-0.21324944 -0.042507 0.03767617
-0.15408242 -0.042507 0.037384488
-0.099908307 -0.042507 0.034460802
-0.078294069 -0.042507 0.038359933
-0.06840197 -0.042507 0.038951855
-0.044147875 -0.042507 0.034990553
-0.036150075 -0.042507 0.036010999
0.15786779 -0.042507 0.034941517
0.28679401 -0.042507 0.036009856
0.32704529 -0.042507 0.035117891
-0.31485415 -0.024030266 0.036661714
-0.23217513 -0.0265666 0.036073744
-0.20533393 -0.0265666 0.030512029
-0.16511507 -0.0265666 0.03174198
-0.13719055 -0.026566602 0.032957029
-0.12051865 -0.026566599 0.03133231
-0.11081591 -0.026566599 0.03196945
-0.0089116395 -0.026566599 0.031170916
0.036559537 -0.0265666 0.035887189
0.072872385 -0.0265666 0.03784385
0.1348474 -0.0265666 0.033745516
0.19728844 -0.026566602 0.038556475
0.35012215 -0.024795173 0.038836788
0.38164857 -0.0073983241 0.037658766
-0.42390463 0.00048537937 0.036573909
-0.40578127 0.0092139039 0.030462727
-0.39454028 0.0047409413 0.032527447
-0.41403452 0.012497977 0.037704013
0.40949041 0.011765821 0.032741785
-0.46620923 0.026591219 0.032063499
-0.44536471 0.028547084 0.036588032
-0.46303838 0.035300869 0.030094478
-0.45071238 0.030674931 0.039315704
0.46249318 0.038831294 0.032913938
-0.31793326 -0.041683562 0.041348428
-0.070426933 -0.042507 0.04298
-0.039777458 -0.042507 0.049509853
0.008181408 -0.042507 0.042031389
0.065409437 -0.042507 0.047602609
0.2909165 -0.042507 0.046647418
0.31781486 -0.042507 0.047463335
0.33971277 -0.042507 0.046867121
0.34584412 -0.042507 0.048442632
0.35961807 -0.035495657 0.047388561
-0.30248976 -0.0265666 0.045688272
-0.11068214 -0.0265666 0.040023964
-0.030560091 -0.0265666 0.040421382
0.007145524 -0.0265666 0.047855437
0.041123256 -0.026566599 0.044806324
0.15579751 -0.0265666 0.049269166
0.2294175 -0.0265666 0.046852723
0.2770333 -0.0265666 0.043046325
0.3468481 -0.026566599 0.044501811
-0.35434243 -0.011255015 0.046378732
-0.34088933 -0.016608376 0.04816227
-0.36973837 -0.00512844 0.041509144
0.41050974 -0.0074127475 0.049524639
0.42622817 0.001261459 0.043188021
-0.42685944 0.017601147 0.042589404
-0.4577238 0.0298829 0.049786977
-0.28809825 -0.042507 0.0502351
-0.086835511 -0.042507 0.050446417
-0.075589061 -0.042507 0.054976989
0.12369684 -0.042507 0.05372335
0.19446304 -0.042507 0.059226535
0.23886447 -0.042507 0.059073765
0.25455177 -0.042507 0.054438654
0.3018533 -0.042507 0.052198756
-0.315864 -0.039292183 0.054067746
-0.31546947 -0.0265666 0.058890939
-0.26686472 -0.026566602 0.053645663
-0.24418125 -0.0265666 0.052176371
-0.17897719 -0.0265666 0.054637074
-0.13990071 -0.026566602 0.058877148
0.22778463 -0.026566602 0.056615345
0.28427437 -0.0265666 0.05961379
0.29883343 -0.0265666 0.054011341
0.32493091 -0.0265666 0.059751328
0.33535296 -0.0265666 0.057140414
0.35151929 -0.02212387 0.050545443
0.37568709 -0.026628599 0.058042198
0.36342004 -0.017457187 0.053333383
-0.39865941 -0.0095607024 0.054378163
0.37578616 -0.0068325237 0.05498438
0.40956396 0.0080060773 0.05467388
0.43129554 0.0040578842 0.053497139
-0.4588289 0.028976385 0.052752603
0.43370476 0.025128126 0.050341837
-0.28885025 -0.042507 0.066298544
-0.23751834 -0.042507 0.064929523
-0.17712238 -0.042507 0.066856988
-0.14253321 -0.042507 0.06246211
0.021660309 -0.042507 0.067329332
0.091551185 -0.042507 0.065638952
0.11763176 -0.042507 0.068373442
0.14870983 -0.042507 0.068967447
0.15255938 -0.042507 0.066197239
0.17826709 -0.042507 0.064334802
0.19098553 -0.042507 0.06682235
0.2026843 -0.042507 0.064286999
0.30025616 -0.042507 0.060593747
-0.31959626 -0.023290668 0.0634958
-0.16569072 -0.0265666 0.062825307
0.085849449 -0.0265666 0.067668825
0.12168004 -0.0265666 0.061558869
0.20979625 -0.026566599 0.060213152
0.21440798 -0.026566602 0.060143258
0.24935687 -0.0265666 0.069030575
0.35267556 -0.019585459 0.060014892
0.39254969 -0.017323483 0.067976378
-0.37380454 -0.0035103741 0.06602186
-0.36917087 -0.0017728591 0.061238937
0.38480252 -0.005657908 0.064067677
0.41240525 0.0095740054 0.061613139
0.43178657 0.0043288609 0.066514306
-0.41035202 0.014614172 0.068779394
0.42262426 0.015213192 0.061519943
-0.45365429 0.02767083 0.064735837
0.44128591 0.029311739 0.066168666
0.45622873 0.028299509 0.063480422
0.45064774 0.034477893 0.061411977
-0.27154535 -0.042507 0.072322167
-0.25607875 -0.042507 0.071305163
-0.2392136 -0.042507 0.071931921
-0.13497543 -0.042507 0.075466774
0.10054971 -0.042507 0.077662945
0.14507611 -0.042507 0.074943334
0.21750124 -0.042507 0.077935711
0.28591976 -0.042507 0.070058316
0.34177062 -0.033190284 0.079969741
-0.30561084 -0.0265666 0.072318301
-0.17652841 -0.0265666 0.070512913
-0.1525325 -0.026566602 0.072357282
-0.12025356 -0.026566599 0.07279218
-0.10134607 -0.0265666 0.077315703
0.029689372 -0.0265666 0.074033
0.085876234 -0.026566599 0.070548698
0.13629115 -0.026566599 0.078150332
0.17883903 -0.026566602 0.079131618
0.1856045 -0.0265666 0.073782906
0.27475032 -0.0265666 0.074710071
0.31863934 -0.0265666 0.071209922
0.34751341 -0.024030576 0.075958729
-0.35804859 -0.0097802086 0.077770509
0.3778702 -0.009483329 0.074340306
0.38100556 -0.0077531561 0.070487864
-0.39921781 0.0066022091 0.078580081
-0.37418616 0.00022285618 0.078442149
0.39939478 0.0061948178 0.073935658
-0.42071319 0.018737162 0.076671243
-0.40899044 0.014072363 0.073951952
0.43839076 0.023913331 0.072865739
0.44939208 0.024808507 0.079096563
-0.28443551 -0.042507 0.080198869
-0.036607243 -0.042507 0.085579596
-0.012358576 -0.042507 0.08192265
0.00056260824 -0.042507 0.080685653
0.075438738 -0.042507 0.089665443
0.26993647 -0.042507 0.089147873
0.29413939 -0.042507 0.084160209
0.31680921 -0.042507 0.084687039
0.327483 -0.042507 0.089005738
0.34691197 -0.042462111 0.088707879
0.34399521 -0.037221491 0.085709751
-0.32042962 -0.021168252 0.089963086
-0.19038379 -0.0265666 0.081241965
-0.095421255 -0.026566599 0.082308814
-0.011024609 -0.0265666 0.085132033
-0.0030108392 -0.026566599 0.086714394
0.11241055 -0.0265666 0.085317209
0.27338755 -0.0265666 0.081157163
0.2858471 -0.0265666 0.087659642
0.34176049 -0.025608635 0.082195483
-0.37968162 -0.01711235 0.084714934
-0.34284049 -0.015831964 0.085955776
0.36080521 -0.018900089 0.086114712
-0.37173873 -0.0007510439 0.089047596
-0.40213752 0.0077639916 0.083085373
-0.38465351 0.004388039 0.081073657
0.4063752 0.0081465822 0.08649908
-0.44962147 0.019350853 0.080189697
-0.40456545 0.012311534 0.086311445
0.41688377 0.015845692 0.081385426
0.44207695 0.010007231 0.082213864
-0.4302505 0.022532485 0.089350179
-0.12884797 -0.042507 0.096897297
-0.11636408 -0.042507 0.096515872
-0.10247965 -0.042507 0.097961366
-0.09231139 -0.042507 0.097794928
-0.052908361 -0.042507 0.097860463
-0.014696717 -0.042507 0.090874292
0.22153257 -0.042507 0.097908683
0.28437933 -0.042507 0.098797418
-0.34199002 -0.032110628 0.095683105
0.36799303 -0.03087426 0.095315404
-0.25491735 -0.026566602 0.096930981
-0.091450833 -0.026566599 0.094361916
-0.088535435 -0.026566599 0.098451912
-0.055547103 -0.026566599 0.097378135
-0.021852273 -0.0265666 0.094241545
0.085951962 -0.0265666 0.093270332
0.097025797 -0.0265666 0.098066851
0.10260498 -0.026566599 0.094096355
0.16153865 -0.026566599 0.090078652
0.17067753 -0.0265666 0.09375833
0.31578457 -0.0265666 0.09095341
-0.41295332 -0.0038725859 0.096912265
0.37143323 -0.0092345038 0.099525355
-0.44217587 0.0087224683 0.094008423
-0.43202841 0.0037181438 0.097418569
-0.40786421 0.013624213 0.090812154
0.42369658 0.01580493 0.09883666
0.44393384 0.011031819 0.091392428
0.42769852 0.021813616 0.098703705
-0.25543374 -0.042507 0.10495014
-0.15526444 -0.042506997 0.10497347
-0.11004949 -0.042507 0.10289744
-0.10071225 -0.042507 0.10817379
-0.078482389 -0.042507 0.10647853
-0.054591395 -0.042507 0.10084821
-0.0024617687 -0.042507 0.10017257
0.21538544 -0.042507 0.10326485
0.32441261 -0.042507 0.10016763
0.346912 -0.040549565 0.10312027
-0.32923245 -0.021246959 0.10225095
-0.036687292 -0.0265666 0.10985745
-0.009020837 -0.0265666 0.10945299
0.05802466 -0.0265666 0.10694984
0.10030045 -0.0265666 0.10369082
0.1604926 -0.0265666 0.10088764
0.18671614 -0.0265666 0.10513413
0.29580283 -0.0265666 0.10638161
0.33478293 -0.0265666 0.10609898
0.34711123 -0.022655971 0.10463312
0.37883022 -0.024894189 0.10378913
-0.33360189 -0.015926654 0.10224545
0.41304827 -0.0060118465 0.10526581
-0.39684442 0.0092391251 0.10915045
0.39527366 0.0039207605 0.10948589
0.43096825 0.0093926825 0.10938195
-0.41288483 0.013831284 0.10330972
-0.40122667 0.010982949 0.1070883
0.40998372 0.012038041 0.10707442
-0.12674519 -0.042507 0.11276128
-0.095903993 -0.042507 0.11037017
-0.033773303 -0.042507 0.11091799
-0.0082666129 -0.042507 0.11912359
4.222244e-05 -0.042507 0.11462784
0.053479403 -0.042507 0.11756405
0.24719948 -0.042507 0.11767637
0.27923849 -0.042507 0.11377827
0.31547293 -0.042507 0.11384836
0.34265035 -0.034784481 0.11993496
-0.31465593 -0.02353248 0.11764621
-0.28915289 -0.0265666 0.11696142
-0.17148694 -0.026566602 0.11614819
0.037853215 -0.0265666 0.11408035
0.051942676 -0.0265666 0.11369381
0.2611275 -0.0265666 0.11693709
0.34725598 -0.02257612 0.11927906
0.36179569 -0.014552724 0.1141568
0.39671636 -0.015024221 0.11410651
0.40433642 -0.010819308 0.1157494
-0.41185635 -0.0043091159 0.11692195
-0.42422131 0.0089209154 0.11401287
-0.39862907 0.0099492958 0.11617588
-0.38742796 0.0054920572 0.11753645
0.40426379 0.0069814511 0.11395575
0.41966826 0.0065169726 0.11876722
-0.41323814 0.012181089 0.1126336
-0.4077881 0.010012434 0.11858427
-0.29279906 -0.042507 0.12003838
-0.23634601 -0.042507 0.12003922
-0.16306919 -0.042507 0.12042406
-0.12078262 -0.042507 0.12297226
-0.080168299 -0.042507 0.12258841
-0.010146365 -0.042507 0.12882948
0.13154097 -0.042507 0.12505308
0.15361315 -0.042507 0.12298782
0.2214803 -0.042507 0.12455349
0.27802536 -0.042507 0.12337014
0.30306432 -0.042507 0.12984973
0.32358125 -0.042507004 0.12072297
-0.32687819 -0.038124103 0.126257
-0.315864 -0.030604027 0.12484404
0.346912 -0.035053641 0.12420157
-0.33032811 -0.020810952 0.120731
-0.25410804 -0.0265666 0.12994306
-0.040430963 -0.0265666 0.12001489
-0.0081638992 -0.0265666 0.12787351
0.0029394776 -0.0265666 0.12293586
0.053226806 -0.0265666 0.12226723
0.073778868 -0.026566602 0.12655538
0.1409698 -0.026566602 0.12349994
0.34388125 -0.0265666 0.12164345
0.35628968 -0.021391848 0.12190279
0.38620466 -0.020824844 0.12311871
0.36880231 -0.012586747 0.12639458
-0.39982241 -0.0090978844 0.12003846
-0.35803908 -0.0062024584 0.12342136
-0.3815822 0.0031659002 0.12968977
-0.2408374 -0.042507 0.13733393
-0.062200651 -0.042507 0.13786671
-0.033559546 -0.042507 0.13075325
0.095104933 -0.042507 0.13006671
0.16147539 -0.042507 0.13765071
0.22100106 -0.042506997 0.13743693
0.33373073 -0.042507 0.13396871
-0.315864 -0.037447706 0.13086057
-0.32012036 -0.021291332 0.13043649
-0.29679954 -0.0265666 0.13360301
-0.15991496 -0.0265666 0.13125259
-0.14497001 -0.0265666 0.13322125
-0.023471858 -0.0265666 0.13053188
-0.0057448521 -0.026566602 0.13677427
0.033194669 -0.0265666 0.13214441
0.067802906 -0.0265666 0.1395836
0.13241786 -0.0265666 0.13133037
0.17374115 -0.026566599 0.13947152
0.19777749 -0.0265666 0.1373775
0.23757006 -0.0265666 0.13275594
0.35096282 -0.024331287 0.13869353
-0.38278976 -0.015875567 0.13398692
0.3551318 -0.018230021 0.13403857
0.36179125 -0.018355973 0.13517523
-0.39689803 -0.006295424 0.1356149
-0.36267194 -0.0079404125 0.1394401
0.39067081 0.0013808871 0.13665852
0.40417123 0.0050302041 0.13056329
-0.31488231 -0.042507 0.14053851
-0.28920895 -0.042507 0.14501454
-0.078783132 -0.042507 0.14408287
0.039009139 -0.042507 0.14942765
0.066157073 -0.042507 0.14548886
0.085918576 -0.042507 0.14638951
0.10588742 -0.042507 0.14481838
0.22549672 -0.042507 0.14936788
0.27339202 -0.042507 0.14933817
0.33179089 -0.042507 0.14099918
-0.34263504 -0.031853952 0.14963189
-0.31778425 -0.025194027 0.14286622
-0.27370515 -0.0265666 0.14242382
-0.20892468 -0.0265666 0.14460431
-0.1648794 -0.0265666 0.14612955
-0.11463659 -0.0265666 0.14136767
-0.089066021 -0.026566602 0.14130072
-0.076927796 -0.026566599 0.14490527
-0.040744878 -0.0265666 0.14187969
-0.0091629773 -0.0265666 0.14610994
0.015099525 -0.0265666 0.14436321
0.069276035 -0.0265666 0.1425923
0.19098647 -0.0265666 0.14787139
0.25484169 -0.0265666 0.14270237
0.37787798 -0.021602085 0.14747562
-0.3352491 -0.01885277 0.14301169
-0.36313838 -0.0077548083 0.14705713
-0.25372875 -0.042507 0.15238003
-0.028990373 -0.042507 0.15351063
0.0072213411 -0.042507 0.15198418
0.062219396 -0.041533556 0.154737
0.14926907 -0.041613746 0.154737
0.2668438 -0.042507 0.15052715
-0.19488949 -0.036862664 0.154737
-0.14413978 -0.035913635 0.154737
-0.12375519 -0.039542109 0.154737
-0.10458865 -0.031151734 0.154737
-0.022767335 -0.031599332 0.154737
0.0032891408 -0.032776508 0.154737
0.054135345 -0.037425883 0.154737
0.12905386 -0.03605748 0.154737
0.23966634 -0.03608894 0.154737
0.34337154 -0.031283021 0.15428367
-0.32913157 -0.021287093 0.15035361
-0.2366349 -0.0265666 0.15454572
-0.18536904 -0.026566602 0.15130088
-0.097854204 -0.02685195 0.154737
-0.061689541 -0.0265666 0.15002099
-0.0097084492 -0.0265666 0.15277797
0.29007247 -0.0265666 0.15192525
0.30602229 -0.028191701 0.15352884
0.34444991 -0.0265666 0.15147625
0.35554993 -0.024643671 0.15157709
-0.35955393 -0.015139806 0.15012446
