# .PCD v0.7 - Point Cloud Data file format
VERSION 0.7
FIELDS x y z
SIZE 4 4 4
TYPE F F F
COUNT 1 1 1
WIDTH 964
HEIGHT 1
VIEWPOINT 0 0 0 1 0 0 0
POINTS 964
DATA ascii
-0.28921047 -0.079256549 -0.24066827
-0.21821328 -0.063231483 -0.247205
-0.30948794 -0.054399189 -0.24720502
-0.28129509 -0.05327988 -0.24720502
0.20529899 -0.040980887 -0.24511042
0.29483876 -0.043531146 -0.24720499
0.23047855 -0.039793473 -0.247205
0.29924351 -0.02872115 -0.24720502
-0.20099513 -0.01469956 -0.24574882
0.30600551 -0.0060519585 -0.24720499
-0.20924847 0.0015726434 -0.247205
0.21507618 0.0014132112 -0.247205
0.29824477 0.0037406904 -0.24720502
-0.21968643 0.017720202 -0.2421345
-0.23902313 0.029450208 -0.24640097
-0.24790816 0.031952843 -0.24336043
0.26900131 -0.087301329 -0.2335315
0.25801405 -0.060201801 -0.2394388
-0.31284839 -0.055732578 -0.23665102
-0.20675829 -0.054634701 -0.23075108
0.21280409 -0.058963142 -0.23549396
-0.23414509 -0.048270408 -0.23922403
-0.3188293 -0.038411867 -0.23324105
-0.2010684 -0.038068514 -0.23272441
-0.31236175 0.0026012093 -0.23514524
0.21448596 0.008148348 -0.23419514
0.27628765 0.0050712349 -0.23520547
-0.2271584 0.070427701 -0.23642078
0.42574999 0.072105505 -0.2303896
0.225458 -0.073777407 -0.22217384
-0.21087122 -0.061319444 -0.22455668
0.26115879 -0.06067146 -0.22130543
0.32248864 -0.042412657 -0.2225606
-0.24845058 0.0047758832 -0.22445023
-0.20622003 0.00037841965 -0.22220773
0.2146793 0.008473387 -0.22567627
0.22969328 0.023284709 -0.22798379
-0.17773865 0.070427701 -0.22259934
0.2174814 0.074490532 -0.22531487
-0.24748442 0.087330602 -0.22168529
-0.16353934 0.084090337 -0.22759502
-0.15120926 0.086006194 -0.22540139
0.21338925 0.083475828 -0.22485286
0.27844077 0.087330595 -0.22213575
-0.29637262 -0.074234068 -0.2186399
0.32237318 -0.010662139 -0.21381873
-0.20590821 -0.00042376481 -0.21209085
0.32051218 -0.0037873941 -0.21697876
-0.30696681 0.071178041 -0.213292
-0.22888944 0.070427701 -0.21007268
-0.070651606 0.079183504 -0.21439007
0.31504464 0.070427701 -0.21142788
0.42574999 0.072662018 -0.21070464
-0.29228565 0.087330602 -0.21532628
-0.13644409 0.087330602 -0.2154014
-0.09503825 0.087330602 -0.21648127
-0.067870051 0.085897103 -0.21413523
0.15618251 0.083553359 -0.21650773
0.41923797 0.08733061 -0.21788208
0.23829523 -0.081786096 -0.20152992
0.28600052 -0.083582975 -0.20026901
-0.22093342 -0.07242436 -0.20586281
-0.30422544 -0.067526035 -0.20566642
-0.28130692 -0.052576885 -0.20001253
0.2504037 -0.057969436 -0.20784231
0.28352883 -0.054638386 -0.2044348
-0.25301519 -0.041413542 -0.20494799
0.28426605 -0.037889481 -0.20494798
0.28007194 -0.022384485 -0.20494798
-0.31853628 -0.014330341 -0.20768732
0.25516164 -0.011144402 -0.20494799
0.28318167 -0.016826101 -0.20494799
-0.26457322 0.0064251861 -0.20310827
0.21415074 0.0075848489 -0.20207073
0.21879071 0.01353786 -0.20023668
0.25153193 0.032437664 -0.20295087
-0.28692144 0.070427701 -0.20111051
-0.045549177 0.070427701 -0.20899974
0.02625257 0.070427701 -0.20535494
0.074730702 0.070427701 -0.20386964
0.11804119 0.070427701 -0.20260307
-0.22068615 0.087330602 -0.20595494
0.27378181 0.087330602 -0.20082663
0.28286025 0.08733061 -0.20902742
-0.23489733 -0.081269801 -0.19637242
0.25463 -0.086926714 -0.19162841
0.26480177 -0.060645737 -0.1976072
0.31495219 0.0061398507 -0.19120313
-0.2275064 0.023998521 -0.19231993
0.24944092 0.031906515 -0.19132015
-0.32890975 0.075229436 -0.1967558
-0.31673932 0.070427701 -0.19258435
-0.23632371 0.070427701 -0.19941458
-0.22817741 0.070427701 -0.19626862
-0.18798962 0.070427701 -0.19098011
0.042697966 0.070427701 -0.19728622
0.078227177 0.070427701 -0.19102664
0.3919647 0.073483013 -0.19518584
-0.27753687 0.08733061 -0.19279777
-0.22991446 0.087330602 -0.19455612
-0.19063786 0.087330602 -0.19342953
-0.17690399 0.087330595 -0.19476992
-0.13504909 0.087330602 -0.19671848
-0.052225832 0.087330602 -0.19875395
0.041949086 0.087330602 -0.19643223
0.054792464 0.087330602 -0.19938502
0.32766902 0.087330602 -0.19776976
0.28436768 -0.083997712 -0.18511166
-0.20159474 -0.041484598 -0.18452576
0.23660661 -0.046621591 -0.18327773
0.20525128 -0.012573471 -0.18732925
-0.22814573 0.024511797 -0.18800314
-0.25040707 0.032337848 -0.18778147
0.094298944 0.070427701 -0.1884613
0.16515318 0.070427701 -0.18256043
0.20422001 0.070427701 -0.185316
-0.3205848 0.087330602 -0.18483241
-0.23759393 0.087330602 -0.18180694
0.011878476 0.087330602 -0.18083876
0.12198382 0.087330602 -0.18363032
0.13830692 0.087330602 -0.18552807
0.19046125 0.087330602 -0.18932456
0.42574802 0.087330602 -0.18291436
0.2749323 -0.073338479 -0.175368
0.28552932 -0.061116681 -0.175368
0.30773354 -0.06054331 -0.17536801
-0.29484063 -0.054914005 -0.175368
-0.27201045 -0.058021605 -0.17155752
0.23370662 -0.051823765 -0.175368
0.22665691 -0.042518709 -0.175368
-0.20938194 -0.033202164 -0.175368
0.32280663 -0.022574389 -0.175368
0.20841001 -0.016685443 -0.17536798
0.31362742 -0.011644394 -0.175368
0.28727859 -0.0020544904 -0.17372441
0.27793998 0.0043309582 -0.17818697
-0.26711437 0.021703988 -0.17536798
0.25467423 0.032794148 -0.175368
0.26706669 0.033669673 -0.17914961
0.29355517 0.070427701 -0.17349662
-0.28723538 0.08733061 -0.17945735
-0.21117112 0.08733061 -0.17396487
-0.072949052 0.087330602 -0.17325917
-0.043446232 0.087330602 -0.17044903
0.036598448 0.087330595 -0.1749602
-0.24667886 -0.057570308 -0.16802943
-0.29303893 -0.03174714 -0.16103746
-0.29351833 -0.025422435 -0.16608281
-0.24188553 0.070427701 -0.16364843
-0.20236717 0.070427701 -0.16141222
-0.150529 0.070427701 -0.16455036
-0.041291289 0.070427701 -0.16108641
0.12620541 0.070427701 -0.16266261
0.15430361 0.070427701 -0.16087028
0.17659542 0.070427701 -0.16454311
-0.36099893 0.087330602 -0.16550192
-0.32787085 0.087330602 -0.16918442
-0.10670162 0.08733061 -0.16335185
0.29852185 0.087330602 -0.16015911
0.3317132 0.087330602 -0.16347779
0.4179033 0.087330602 -0.16294004
-0.29294863 -0.032433093 -0.15138544
0.29794741 -0.024671834 -0.15830903
-0.315106 0.070427701 -0.15320063
-0.27541631 0.070427701 -0.15906453
-0.32031691 0.087330602 -0.15131286
-0.17842752 0.087330602 -0.15723084
-0.15549652 0.087330602 -0.15381449
-0.015170433 0.087330602 -0.15748075
0.097328953 0.087330602 -0.15171996
0.10489599 0.087330595 -0.15315506
0.24480201 0.087330602 -0.15360022
0.41217771 0.087330602 -0.15866506
-0.22649741 -0.029904436 -0.14528333
0.23021023 -0.029796196 -0.14195199
0.24940893 0.0039190822 -0.14051546
-0.32330763 0.070427701 -0.14100963
-0.1045435 0.070427701 -0.14475828
0.13969338 0.070427701 -0.14413789
0.14859167 0.070427701 -0.14375517
0.37279043 0.070427701 -0.14115058
0.40246016 0.070427701 -0.14318165
-0.34178558 0.087330602 -0.144585
-0.31907797 0.087330602 -0.14031513
-0.25062761 0.08733061 -0.14987224
-0.18443274 0.087330602 -0.14701763
-0.1038307 0.087330595 -0.14641726
0.052424043 0.08733061 -0.14868462
0.09080258 0.087330602 -0.14073241
0.23669288 0.087330602 -0.14943992
0.28625754 0.087330602 -0.14232555
0.27798989 -0.057888467 -0.13156025
-0.37844592 0.070427701 -0.13815667
-0.11422267 0.070427701 -0.13804591
-0.03881707 0.070427701 -0.13355021
0.14693265 0.070427701 -0.13479723
0.15332131 0.070427701 -0.13925603
0.16893956 0.070427701 -0.13807926
0.31746793 0.070427701 -0.13466553
0.3620761 0.070427701 -0.13529773
-0.12851562 0.087330602 -0.13678433
-0.015236208 0.08733061 -0.13613357
0.210639 0.087330602 -0.13148163
0.2374576 0.087330602 -0.13792229
-0.22917081 -0.040185206 -0.12459122
0.29789674 -0.021947686 -0.12822537
-0.22829431 -0.01545947 -0.12728189
-0.28716737 -0.0072565009 -0.12617649
0.24011812 -0.0027977219 -0.12856361
0.28637472 -0.0011632435 -0.12878646
0.26716945 0.0071442402 -0.12303144
-0.25922871 0.070427701 -0.12534148
-0.15576257 0.070427701 -0.12045256
-0.13392422 0.070427701 -0.12614214
-0.1108035 0.070427701 -0.12301204
-0.013628816 0.070427701 -0.12663798
0.12063594 0.070427701 -0.12963775
0.1574246 0.070427701 -0.12133689
0.20484057 0.070427701 -0.12238836
-0.14305621 0.087330602 -0.12848526
-0.093656987 0.08733061 -0.12871246
0.14359896 0.087330602 -0.12922561
0.36116266 0.087330595 -0.12240425
0.39719376 0.087330602 -0.12056053
0.42574999 0.087180249 -0.12665197
-0.28933218 -0.043265902 -0.11721128
-0.29201081 -0.016729761 -0.11573403
0.27747282 0.0045962874 -0.1189431
-0.12070347 0.070427701 -0.11555248
-0.011441752 0.070427701 -0.11865978
0.18785624 0.070427701 -0.11439008
0.20867619 0.070427701 -0.11976467
0.26052129 0.070427701 -0.11021759
0.36020273 0.070427701 -0.11573076
0.42574996 0.071372598 -0.11919808
-0.3276515 0.08733061 -0.11026001
-0.18298849 0.087330602 -0.11787196
-0.069339119 0.087330602 -0.11498825
0.18951567 0.087330602 -0.11332504
0.27169257 0.087330602 -0.11629314
0.28599405 0.087330602 -0.11250329
0.384938 0.087330602 -0.11064707
-0.25053793 -0.059168547 -0.10707956
-0.23303309 -0.046821155 -0.10088398
-0.22630249 -0.025104737 -0.10861348
-0.23468715 -0.0045513362 -0.10693716
0.23978603 -0.0031344788 -0.10305487
0.29304552 -0.0091779744 -0.10705423
-0.24558783 0.0035900897 -0.10816633
-0.40236953 0.072285488 -0.10441706
-0.2451134 0.070427701 -0.10722093
0.017019348 0.070427701 -0.10158527
0.07142292 0.070427701 -0.10130001
0.29819044 0.070427701 -0.10576434
0.34943193 0.070427701 -0.10484686
-0.2396754 0.087330602 -0.10833745
-0.21236831 0.087330602 -0.10113914
-0.14267606 0.08733061 -0.10896775
-0.060829163 0.087330595 -0.10452862
0.11678962 0.08733061 -0.10012202
0.17350855 0.087330602 -0.10150722
0.30341884 0.087330602 -0.10160384
0.29758799 -0.020826513 -0.098156735
-0.17007054 0.070427701 -0.098485738
-0.10244249 0.070427701 -0.096471854
0.13608724 0.070427701 -0.099139504
0.15265082 0.070427701 -0.097570643
0.2400997 0.070427701 -0.093607761
-0.17471823 0.087330602 -0.096481919
-0.13541791 0.087330595 -0.092066415
-0.052523039 0.087330602 -0.098662257
0.0044505373 0.087330602 -0.099201173
0.20777556 0.08733061 -0.096050985
0.29572731 0.087330595 -0.097927108
0.23716098 -0.047814526 -0.081839353
-0.29262829 -0.034866288 -0.080815367
-0.25026378 0.070427701 -0.085413061
-0.098132357 0.070427701 -0.086574465
0.1070371 0.070427701 -0.088269889
0.16944449 0.070427701 -0.086051628
0.18430755 0.070427701 -0.089838363
0.33756179 0.070427701 -0.08493045
0.39078286 0.070427701 -0.088381939
-0.26903343 0.087330602 -0.088822
-0.022681177 0.087330602 -0.088340059
0.12540482 0.087330602 -0.088325791
0.34485209 0.087330602 -0.080466695
0.35455397 0.087330602 -0.082595788
-0.22790347 -0.016403096 -0.075750142
0.25042379 0.0045145648 -0.079874545
0.28262907 0.0016679452 -0.071019672
-0.35734326 0.070427701 -0.074213058
-0.32663253 0.070427701 -0.0737525
0.32573932 0.070427701 -0.0710219
0.38897979 0.070427701 -0.071353517
-0.30417299 0.08733061 -0.074407823
-0.21907511 0.08733061 -0.079302587
-0.16997679 0.087330602 -0.079040006
0.20437759 0.087330595 -0.072514489
0.23908673 0.087330602 -0.072544165
-0.27212059 -0.057975985 -0.060298745
-0.29262054 -0.018603604 -0.06462238
-0.23031992 -0.010569056 -0.066858113
0.23140058 -0.01777258 -0.060942963
0.23469774 -0.0098741464 -0.0630465
-0.24390709 0.0028939035 -0.066352129
-0.034471311 0.070427701 -0.065337256
0.099422231 0.070427701 -0.062002294
0.19414052 0.070427701 -0.069435835
0.24854703 0.070427701 -0.066609889
0.32138246 0.070427701 -0.068927258
-0.30534959 0.087330602 -0.064922802
-0.2579596 0.087330602 -0.066207357
-0.18876484 0.087330602 -0.068189152
-0.15561026 0.087330602 -0.064756744
0.0028687567 0.087330602 -0.064308405
0.297755 0.087330602 -0.069758758
0.30635759 0.087330602 -0.067081667
0.37554687 0.087330602 -0.066802651
0.40629241 0.087330595 -0.067975089
0.2736454 -0.059276015 -0.052866891
-0.31601596 0.0535249 -0.052433904
0.21645674 0.0535249 -0.051946059
0.28820708 0.056156464 -0.054934599
0.34141263 0.053524897 -0.054721788
-0.33404601 0.060009457 -0.05071608
-0.19112593 0.068086714 -0.054934599
-0.15912628 0.06466575 -0.054934599
0.26416728 0.067075729 -0.054934599
0.27644217 0.063942879 -0.054934599
-0.3649154 0.070427701 -0.056016203
-0.22185692 0.070427701 -0.050960213
-0.056942359 0.070427701 -0.058644898
0.0032229943 0.070427701 -0.056002136
0.14696722 0.070427701 -0.057908006
0.19725412 0.070427701 -0.053963907
0.27171791 0.070427701 -0.056411624
-0.30949238 0.087330602 -0.055374715
-0.24178597 0.087330602 -0.052669708
-0.23109907 0.087330602 -0.05540517
-0.12517293 0.087330602 -0.050007679
-0.076535903 0.087330602 -0.052930206
-0.034871139 0.087330602 -0.05444622
0.022479892 0.087330602 -0.055049837
0.096085593 0.087330602 -0.05682908
-0.26617157 -0.059742786 -0.047070198
-0.29050758 -0.040428102 -0.042914752
-0.16870464 0.0535249 -0.048813947
0.26539475 0.0535249 -0.04561143
0.19701201 0.061549917 -0.046091184
-0.042552665 0.070427701 -0.041576184
0.0044132983 0.070427701 -0.0430611
0.26799488 0.070427701 -0.049489498
0.15463021 0.087330602 -0.049214497
0.26554334 -0.022471914 -0.033612579
-0.29160148 -0.015741484 -0.030533746
0.26098412 -0.0029319264 -0.033398811
0.2573773 7.3349103e-05 -0.032924149
-0.24536788 0.017119206 -0.03026332
-0.3217659 0.0535249 -0.034417529
-0.25427169 0.053524897 -0.039043851
0.36181501 0.062281355 -0.038654491
-0.3886463 0.070427701 -0.038249671
-0.10383832 0.070427701 -0.035063308
0.071000859 0.070427701 -0.032022022
0.18618056 0.070427701 -0.039424054
0.22398141 0.070427701 -0.033898838
0.29678413 0.070427701 -0.033899583
0.32479829 0.070427701 -0.034557469
0.34439278 0.070427701 -0.03222014
0.35651386 0.070427701 -0.032898873
0.38765618 0.070427701 -0.038888775
-0.42148665 0.087330602 -0.034539476
-0.38125974 0.087330595 -0.037759706
-0.27217835 0.08733061 -0.039895639
-0.24621849 0.087330602 -0.032414217
-0.16541103 0.087330602 -0.039767783
-0.086695164 0.087330602 -0.033341572
-0.072026402 0.087330602 -0.038207851
0.008041488 0.087330602 -0.034424685
0.18682081 0.087330602 -0.035466075
0.34265465 0.087330602 -0.03172956
0.38866544 0.087330602 -0.034275465
-0.25269699 -0.059622932 -0.02094949
0.281771 -0.055669822 -0.025858631
0.29798308 -0.031021614 -0.024946541
-0.24994811 -0.0267643 -0.02346685
0.24093166 -0.018573731 -0.024488108
-0.24362829 0.0027784188 -0.028653901
-0.23540258 0.001444336 -0.023145404
-0.27893898 0.04808259 -0.027629994
-0.28873771 0.0535249 -0.020074151
-0.23774874 0.0535249 -0.028145384
-0.1669462 0.053524904 -0.023269171
-0.159015 0.054008596 -0.028841926
0.24038713 0.050719708 -0.024070326
0.30592415 0.053524897 -0.028032646
-0.24812625 0.066202097 -0.027446903
-0.37726909 0.070427701 -0.025501901
-0.27868158 0.070427701 -0.029556707
-0.20657402 0.070427701 -0.020449126
-0.16560416 0.070427701 -0.026894387
-0.028290356 0.070427701 -0.022770999
0.002464273 0.070427701 -0.029653542
0.052407216 0.070427701 -0.026087865
0.27090085 0.070427701 -0.022665482
0.3350305 0.070427701 -0.027577795
-0.18404493 0.087330602 -0.025458492
-0.10283751 0.087330602 -0.028991101
-0.095733218 0.087330602 -0.025206394
-0.082271934 0.087330602 -0.027722944
-0.011557788 0.087330595 -0.023611981
0.053429663 0.087330602 -0.02802442
0.12942104 0.08733061 -0.023233145
0.13914847 0.087330602 -0.020056939
-0.27598256 -0.056376547 -0.018791776
0.28497094 -0.053792197 -0.012696499
0.2952452 -0.040497489 -0.011624202
0.2831938 -0.0267643 -0.015159626
-0.28052092 -0.00034825457 -0.019986898
-0.28904957 0.0077483021 -0.017054548
-0.32944173 0.053524897 -0.0189895
-0.159015 0.055732384 -0.012089961
0.23398659 0.056491878 -0.017461229
0.32990137 0.053524904 -0.010565952
0.36181501 0.053861022 -0.010844441
-0.159015 0.062659703 -0.010990606
0.24292117 0.066202097 -0.010870807
-0.39980146 0.070427701 -0.017565429
-0.3493183 0.070427701 -0.011620946
-0.17448498 0.070427701 -0.010927759
-0.16421543 0.070427701 -0.015462509
0.062171638 0.070427701 -0.019290062
0.12853146 0.070427701 -0.015563671
0.42575002 0.074404687 -0.019732893
-0.0603946 0.087330602 -0.016135652
-0.045979083 0.08733061 -0.016250495
0.0043981746 0.087330602 -0.014841417
0.22169384 0.087330602 -0.010951491
0.26023415 -0.060677998 -0.0079205632
-0.22705154 -0.034112968 -0.0041933879
0.23972361 -0.0267643 -0.0031099822
0.25040606 -0.0267643 -0.0059368513
0.23098205 -0.019380011 -0.0059984773
-0.23919831 -0.00039407966 -0.0039798943
-0.29311839 0.016715167 -0.0043796492
0.23177589 0.04128759 -0.009604088
-0.33312789 0.0535249 -0.0020526797
-0.31618059 0.053524897 -0.001024453
-0.29308629 0.050540004 -0.0046231556
-0.22617495 0.052227449 -0.00069080701
0.20455003 0.053524904 -0.0032306053
0.35972437 0.0535249 -0.0073558744
-0.159015 0.062577412 -0.0029945085
0.2975482 0.064929709 -0.0025330617
-0.33404601 0.070137717 -0.0020082388
-0.15926705 0.070427701 -0.0091607794
-0.061431807 0.070427701 -0.0081769228
-0.052465066 0.070427701 -0.00099332258
-0.26616633 0.087330595 -0.00010586251
0.090206139 0.087330602 -0.0032633161
0.3759478 0.087330595 -2.2935681e-05
0.24463581 -0.054692931 0.0088655874
-0.22932246 -0.040551335 0.0081213936
-0.2915068 -0.0267643 0.0039789639
-0.27212441 -0.0267643 0.0068500279
-0.25844571 -0.021875052 4.6027901e-09
-0.24656639 -0.0267643 0.0061396649
-0.22610387 -0.017719289 0.00015097111
0.23150147 -0.00050818257 0.0089415452
0.23426686 0.034538873 4.6027901e-09
-0.29274574 0.046743464 0.007209749
0.25097036 0.059026942 4.6027901e-09
0.27172214 0.056363374 4.6027901e-09
-0.25967208 0.066202097 0.00020811305
0.25044012 0.066202097 0.0075755669
-0.16858646 0.070427701 0.00745341
-0.10900289 0.070427701 0.0045877472
0.14137857 0.070427701 0.005247348
0.16829391 0.070427701 0.0068635494
0.18301301 0.070427701 0.002273187
0.30627987 0.070427701 0.0081133228
0.31345701 0.070427701 0.0041613989
-0.11263321 0.087330602 0.0020246017
-0.093774259 0.087330602 1.7529353e-05
-0.088710494 0.087330602 0.0041351565
0.16435102 0.087330602 0.0068389238
0.18460298 0.087330602 0.0026154546
0.23186409 0.087330602 0.0039670314
0.42051491 0.087330602 0.003961598
-0.27790758 -0.055185568 0.01934251
0.25028911 -0.057904344 0.012620955
-0.29258463 -0.03519766 0.011131845
-0.28411645 -0.0267643 0.013657612
-0.25763714 -0.0267643 0.01638682
-0.29045141 0.0051704403 0.013799456
-0.28928927 0.00072112493 0.016605303
-0.2606945 0.0069358572 0.015222758
-0.23287278 0.030554356 0.019848209
-0.31523496 0.0535249 0.012491482
-0.29156816 0.054808885 0.013441283
-0.20118067 0.0535249 0.011641277
-0.17406271 0.053524897 0.014470994
0.21678081 0.0535249 0.018490553
0.29404795 0.054391369 0.015222692
0.3268933 0.053524904 0.011300154
0.34582567 0.0535249 0.015991293
-0.2301265 0.068628646 0.015728358
0.19701201 0.068731576 0.01542592
0.26448017 0.066202097 0.010833756
0.20109729 0.070427701 0.015505182
-0.29396093 0.087330602 0.019002367
-0.25796324 -0.0267643 0.027589861
-0.23894984 -0.00058476022 0.023003735
0.24673025 -0.0037998781 0.028937474
-0.27916643 0.00065352116 0.026372176
-0.24526307 0.0034555639 0.021569103
0.25509763 0.005911191 0.020386167
-0.27733737 0.023816172 0.028859451
0.28679934 0.026767064 0.024810549
-0.28244674 0.042566843 0.024938382
-0.28632337 0.057640716 0.020607827
-0.18474548 0.053524897 0.023893565
-0.1635886 0.053524897 0.029885758
0.19942491 0.053524897 0.02082007
0.2052547 0.053524904 0.023503218
0.24360332 0.061004922 0.026538152
0.25072667 0.066202097 0.020105164
0.28608841 0.066797391 0.025356146
-0.33005884 0.070427701 0.023861328
-0.23510128 0.070427701 0.026563793
-0.024701035 0.070427701 0.020964794
0.085715294 0.070427701 0.022777691
0.095460325 0.070427701 0.022075906
0.21321136 0.070427701 0.029221974
-0.29716253 0.08733061 0.020370683
-0.1332708 0.087330602 0.029632125
-0.081232838 0.087330602 0.026458766
-0.017555162 0.087330595 0.025744066
0.068646774 0.087330602 0.022732869
0.07345359 0.087330602 0.020471485
0.098283663 0.087330602 0.026895158
0.14980355 0.087330602 0.024574857
0.25071293 0.087330602 0.027697396
0.35280883 0.087330602 0.02591007
0.29518315 -0.012820601 0.03133443
-0.27249485 -0.0076126587 0.031057296
0.26358485 -0.0072010709 0.033437714
0.27358902 -0.007589235 0.032337777
-0.25539094 0.0064496249 0.034986313
0.27733591 0.004674009 0.033694059
0.25578955 0.04693668 0.032715201
0.26930445 0.061115894 0.033117559
-0.22374609 0.070427701 0.0304063
-0.090876564 0.070427701 0.036881573
-0.022310684 0.070427701 0.033014134
0.10648393 0.070427701 0.034775168
0.12461978 0.070427701 0.0356206
0.1379942 0.070427701 0.037155904
0.22403871 0.070427701 0.036736384
0.28893349 0.070427701 0.030654103
-0.26170212 0.087330602 0.0316176
0.1581433 0.087330602 0.037171874
0.36797094 0.087330602 0.038647518
0.23445824 -0.010295804 0.045862094
-0.28411585 -0.003279306 0.043904506
-0.24659376 0.0040067602 0.040839907
0.26558149 0.0071331533 0.04776299
-0.31640756 0.053524897 0.046033405
-0.27492502 0.070427701 0.043302923
-0.26843846 0.070427701 0.04774376
-0.25301456 0.070427701 0.045640625
-0.084186815 0.070427701 0.047870696
0.12028551 0.070427701 0.043238021
0.1452671 0.070427701 0.048210315
0.28185031 0.070427701 0.043224297
-0.3222872 0.087330602 0.045974139
-0.23177105 0.087330602 0.0470111
-0.096383005 0.087330595 0.048705734
-0.058506958 0.087330602 0.045939419
-0.033542931 0.087330602 0.046385638
-0.0060544759 0.087330602 0.046725154
0.029518969 0.087330602 0.047273614
0.07098408 0.087330602 0.049028061
0.081170887 0.087330602 0.047088668
0.16021341 0.087330602 0.044790894
0.2936869 0.087330602 0.04719799
0.2543216 -0.059240229 0.053115886
0.28597623 -0.00077032973 0.054927438
-0.31688809 0.054073893 0.054934599
-0.30855009 0.060976125 0.054934599
-0.34273008 0.070427701 0.055208303
-0.32855693 0.070427701 0.050653558
-0.14489874 0.070427701 0.053948302
0.050274238 0.070427701 0.058641445
0.11088362 0.070427701 0.056612618
0.24943107 0.070427701 0.052303262
0.25951433 0.070427701 0.055975102
0.36620167 0.070427701 0.054317743
0.42574996 0.071775138 0.05632057
-0.36825255 0.087330602 0.058226336
-0.30268967 0.087330602 0.057040706
-0.21944991 0.087330602 0.059330285
-0.20838891 0.087330602 0.059696179
-0.16130513 0.087330602 0.053129241
-0.089979663 0.087330602 0.059012715
-0.056814779 0.087330602 0.0589513
0.078082517 0.087330595 0.051350415
0.23139518 0.087330602 0.057895258
0.29764926 0.087330602 0.054170474
0.31824905 0.087330602 0.059793931
0.35789815 0.087330602 0.054214284
0.36368656 0.087330602 0.051813729
0.40973058 0.087330602 0.05077032
-0.22655945 -0.023153208 0.06654796
0.23018689 -0.026491541 0.06556581
-0.26223841 0.0067325816 0.069906145
-0.37085539 0.070427701 0.069082886
-0.33581862 0.070427701 0.067829795
-0.01371224 0.070427701 0.064278007
0.12195194 0.070427701 0.068016231
0.34540755 0.070427701 0.067869358
-0.1951263 0.087330602 0.068672568
-0.17359236 0.087330602 0.062838063
-0.078381963 0.087330602 0.062784523
0.15263483 0.08733061 0.061898652
0.35374293 0.087330602 0.06257426
-0.28016141 -7.2353287e-05 0.079680458
-0.25326008 0.070427701 0.076890841
0.33826861 0.070427701 0.078974634
0.38831401 0.070427701 0.073550254
0.41782498 0.070427701 0.07010147
-0.004066512 0.087330602 0.072161525
0.27877522 0.08733061 0.070371769
0.28877801 0.087330602 0.075482018
0.34271866 0.08733061 0.07630486
0.37112817 0.087330602 0.078302391
-0.28197825 -0.052061714 0.084196381
-0.29344964 -0.028627878 0.084323004
0.29793653 -0.023133226 0.080598988
-0.23295656 -0.0068069287 0.082043387
0.23481899 -0.0096606929 0.081788018
-0.27627048 0.0027288012 0.085639246
-0.25358352 0.0062116291 0.081382409
0.25206643 0.0050761187 0.083422557
-0.36429566 0.070427701 0.086098939
-0.30899012 0.070427701 0.080401674
-0.29874459 0.070427701 0.086797506
-0.2887696 0.070427701 0.085567862
-0.2757147 0.070427701 0.086794332
-0.18827613 0.070427701 0.085566804
-0.15876229 0.070427701 0.080475539
0.074411467 0.087330602 0.084330909
0.083008379 0.087330602 0.083141252
0.13795409 0.087330602 0.086170062
0.2682918 0.087330602 0.08304622
0.38131171 0.087330602 0.082724519
0.3931362 0.087330602 0.088242598
-0.27174115 -0.058133148 0.097845867
-0.28917158 -0.043653622 0.096188352
-0.22713262 -0.034728877 0.095592812
-0.25467235 0.0063550044 0.098756559
-0.29773888 0.070427701 0.090518884
-0.13453567 0.070427701 0.093647204
0.078475967 0.070427701 0.098396704
0.17310721 0.070427701 0.091875166
0.19845824 0.070427701 0.098455727
-0.099464849 0.087330602 0.095101058
-0.054999541 0.087330602 0.094681077
-0.043737013 0.087330602 0.090829618
-0.034242913 0.087330595 0.09317901
0.0045302957 0.08733061 0.096034065
0.19303143 0.087330602 0.091951974
0.20896634 0.087330602 0.091966122
0.2657952 0.087330602 0.097829342
0.23864259 -0.049275309 0.10087283
-0.2885474 -0.0090551917 0.10687044
-0.31255722 0.070427701 0.10087776
-0.30103856 0.070427701 0.10599099
-0.2116729 0.070427701 0.10467404
-0.08084999 0.070427701 0.10736361
-0.063258462 0.070427701 0.10226516
-0.018315393 0.070427701 0.10488813
0.038138688 0.070427701 0.1063637
0.071512118 0.070427701 0.10086121
0.1873408 0.070427701 0.10746296
0.25828165 0.070427701 0.10932873
0.35115078 0.070427701 0.10990757
-0.35267842 0.087330602 0.10542773
-0.17646623 0.087330602 0.10433617
-0.0700811 0.08733061 0.10788827
0.10401893 0.087330602 0.10004719
0.1231966 0.087330602 0.10260825
0.15513393 0.087330602 0.10887568
0.22230384 0.08733061 0.10260644
0.28857625 0.087330602 0.10010555
-0.26625228 -0.059732154 0.11648564
-0.23541754 -0.049928773 0.11687632
-0.283142 -0.0023595137 0.11799102
-0.28613716 0.070427701 0.11497448
-0.15654513 0.070427701 0.11166528
-0.071603328 0.070427701 0.11428599
0.085073203 0.070427701 0.11042663
0.21856092 0.070427701 0.11428104
-0.35335171 0.087330602 0.11365465
-0.33390522 0.087330602 0.11082591
-0.22796355 0.087330602 0.11274549
-0.045604184 0.087330602 0.11949627
0.038604271 0.087330602 0.11945251
0.17961693 0.087330602 0.11604336
0.29798308 -0.029723782 0.12492896
-0.23618396 -0.0027071382 0.12204523
-0.37323111 0.070427701 0.12563905
-0.2637842 0.070427701 0.12364836
-0.20432495 0.070427701 0.12919493
0.061015163 0.070427701 0.12786487
0.075189337 0.070427701 0.12572554
0.082737014 0.070427701 0.12461613
0.30653733 0.070427701 0.12688693
0.3240841 0.070427701 0.12867153
0.36986953 0.070427701 0.12743831
0.37956291 0.070427701 0.1217865
-0.29797235 0.087330602 0.1293436
-0.22158124 0.087330602 0.1225904
0.13770597 0.087330602 0.12646151
0.29206169 0.087330602 0.12877782
0.36770833 0.087330602 0.12510115
0.25999168 -0.060679715 0.13604303
0.27124304 -0.059937775 0.13034011
-0.28660765 -0.047001295 0.13911283
-0.24993899 0.0053924015 0.13546447
-0.33355299 0.070427701 0.13900077
-0.255703 0.070427701 0.1379149
-0.097650945 0.070427701 0.13022153
-0.034370534 0.070427701 0.13216923
-0.0073893256 0.070427701 0.13220659
0.19246149 0.070427701 0.13859403
0.26322323 0.070427701 0.13808092
0.29497164 0.070427701 0.13562335
0.37188566 0.070427701 0.13373911
0.41201586 0.070427701 0.13314204
-0.34068635 0.087330602 0.1342646
-0.30837935 0.087330602 0.13729937
-0.2744233 0.087330602 0.13592613
-0.15150733 0.08733061 0.1307641
-0.11674211 0.087330602 0.13368672
-0.043141842 0.087330602 0.13220367
-0.032686159 0.08733061 0.13325903
-0.022382356 0.087330602 0.13687676
0.0073654172 0.087330602 0.13486403
0.11705811 0.087330602 0.13158952
0.16447936 0.087330602 0.13752696
0.24443698 0.087330602 0.13924232
0.37355089 0.087330602 0.13557422
0.29799178 -0.030959807 0.14483409
-0.28860098 -0.009124984 0.14610951
0.27013195 0.006674475 0.14369622
-0.18905818 0.070427701 0.14063053
0.12376615 0.070427701 0.14195415
0.25385472 0.070427701 0.14520451
0.30528685 0.070427701 0.14273621
-0.2386363 0.08733061 0.14415276
-0.2087273 0.087330602 0.1416671
-0.1101822 0.087330602 0.14527899
-0.092894852 0.087330602 0.14886668
-0.039126068 0.087330602 0.14717786
0.10652813 0.087330602 0.1453646
0.28624082 0.087330602 0.14337513
0.38071963 0.087330602 0.14565676
0.29507437 -0.012635274 0.15460303
-0.26762417 0.0060234908 0.1545511
-0.24217367 0.0018890346 0.15102312
0.26809996 0.0071507376 0.15927643
0.2836931 0.0010636569 0.15440112
-0.16822536 0.070427701 0.15287967
0.0029342019 0.070427701 0.15421623
0.12723395 0.070427701 0.15154707
0.27062035 0.070427701 0.15551999
0.366678 0.070427701 0.15611993
-0.36297634 0.087330602 0.15507543
-0.22064075 0.087330602 0.15213366
-0.18382575 0.087330602 0.15537784
0.0019499436 0.087330602 0.15078223
0.018003406 0.087330602 0.1541941
0.13257018 0.087330602 0.15637042
0.297508 0.08733061 0.1555856
-0.2267838 -0.021449214 0.16149466
0.29613137 -0.015537474 0.16381913
-0.17085062 0.070427701 0.16672546
-0.094100438 0.070427701 0.16502054
-0.0564912 0.070427701 0.16574633
0.13033211 0.070427701 0.16997454
0.17514727 0.070427701 0.1648232
0.2133549 0.070427701 0.16149864
0.3375138 0.070427701 0.16594177
0.40278792 0.070427701 0.16783206
-0.24545354 0.087330602 0.16393557
-0.21705288 0.087330602 0.16665609
-0.1184984 0.087330602 0.16670334
0.19667271 0.087330602 0.16469204
0.23277736 0.08733061 0.16250849
0.34267661 0.087330602 0.1694243
-0.23438092 -0.079810776 0.175368
0.26157874 -0.07732822 0.175368
-0.2521677 -0.068284094 0.175368
-0.22223218 -0.050290018 0.175368
0.23564185 -0.051984549 0.175368
-0.22173113 -0.044882968 0.175368
-0.20091444 -0.015437344 0.17899692
0.29385948 -0.01056505 0.17215289
-0.23806098 -0.0012668089 0.17620496
0.20759332 -0.0042677941 0.17677498
0.30610734 -0.00685735 0.175368
-0.21273404 0.007425488 0.17546296
0.28190023 0.0093505904 0.17536801
-0.2494975 0.011266573 0.17536801
0.28777516 0.017519042 0.175368
-0.25756052 0.021071156 0.17536798
0.278449 0.023903964 0.175368
0.28824478 0.0255995 0.175368
-0.27051187 0.070427701 0.17825393
-0.11630578 0.070427701 0.1751909
0.24671608 0.070427701 0.17587012
0.28769606 0.070427701 0.17888451
0.37976053 0.077917606 0.1748587
-0.1587245 0.087330602 0.17246895
-0.14040062 0.087330602 0.17432618
0.0091724433 0.087330602 0.17032054
0.023121485 0.08733061 0.1701338
0.38471854 0.087183163 0.17613442
0.41438213 0.087330602 0.17205621
0.42572731 0.085658893 0.17730841
0.27197802 -0.087144673 0.18485932
-0.2994231 -0.071784981 0.18217322
0.29507005 -0.078710705 0.1844362
-0.21236834 -0.063184194 0.18308732
0.25143439 -0.058488362 0.18263361
0.20613019 -0.044253036 0.18025182
-0.31989336 -0.02867404 0.1887594
0.2411495 -0.001751811 0.18686941
0.27139282 0.0063460777 0.18649149
0.28459811 0.030274358 0.1821896
0.28800613 0.070427701 0.18261766
0.39887446 0.070427701 0.18059352
-0.34163815 0.087330602 0.18288757
-0.30805171 0.087330602 0.18635806
-0.25197151 0.087330602 0.18415318
-0.21164286 0.087330602 0.18705235
-0.05322111 0.087330595 0.18987007
0.093111895 0.087330602 0.18014687
0.13333821 0.087330602 0.18979064
0.42574999 0.085971303 0.18254305
-0.31748432 -0.043807823 0.19827883
0.20705302 -0.047885843 0.19871165
-0.22643633 -0.029440284 0.19451801
-0.20100345 -0.014623605 0.19364265
0.20475093 -0.014347896 0.19247562
-0.2031101 -0.0076225558 0.19866297
-0.3044332 0.013364136 0.19068401
-0.29842758 0.019202437 0.19845946
-0.21411216 0.012032771 0.19457102
-0.26512748 0.032876529 0.19853565
-0.28878933 0.070427701 0.19940415
-0.071044587 0.070427701 0.19652146
0.078080013 0.070427701 0.19662265
-0.17948563 0.087330602 0.19650868
0.024096562 0.087330602 0.19004028
0.059477478 0.087330602 0.19726969
0.17953518 0.087330595 0.19706628
0.30941364 0.087330602 0.19251555
-0.2768406 -0.056004379 0.20031819
0.24851024 -0.05689384 0.20154402
0.28500426 -0.053772639 0.2040187
-0.2790339 -0.02219357 0.20494799
-0.2263092 -0.028474793 0.20973019
0.20383553 -0.017594226 0.20596917
0.24030586 -0.0026073332 0.20287868
0.26897395 0.0067131808 0.20494801
0.27374977 0.033333618 0.20671397
-0.27904189 0.070427701 0.20431411
-0.18300796 0.070427701 0.20999493
-0.16892529 0.070427701 0.20686483
-0.016975943 0.079386175 0.2064736
0.026244255 0.072845243 0.20508653
0.031488068 0.079664081 0.20497474
0.067709491 0.070427701 0.20442545
0.15799585 0.070427701 0.2059696
0.27161404 0.070427701 0.20774151
0.31333214 0.070427701 0.20035481
0.41801757 0.070427701 0.2062497
-0.10689709 0.087330602 0.2084382
-0.060378026 0.086741574 0.20991862
0.15774679 0.08733061 0.20749339
0.1932404 0.087330602 0.20865761
0.25545233 -0.087124646 0.21379809
0.26411229 -0.087237574 0.21011338
-0.21419969 -0.065465182 0.21142653
0.2690118 -0.0605524 0.21453239
-0.23638955 -0.050978746 0.21359891
0.27761608 -0.058107812 0.21208873
0.31734523 -0.055489954 0.21728051
0.23768006 -0.04832631 0.21634015
-0.22790229 -0.037122674 0.21598896
0.20353845 -0.031680286 0.21662974
0.2316137 -0.03651705 0.21092539
0.32448763 -0.031409457 0.21539497
-0.27867088 0.0010713871 0.21930726
0.26367447 0.0071198391 0.21754763
0.27422279 0.0056090197 0.21103874
0.23978791 0.028938461 0.21294193
0.29737359 0.023785366 0.21928576
-0.27422136 0.031882055 0.21994448
-0.27945662 0.070427701 0.21766537
-0.25281045 0.070427701 0.21500804
0.19116652 0.073686942 0.21890226
0.25370419 0.070427701 0.21567862
0.29700246 0.070427701 0.21521658
0.41819888 0.070427701 0.21142037
-0.30386639 0.082101583 0.21486732
-0.21251668 0.087330602 0.21500435
-0.11664702 0.087330602 0.21676205
-0.091114677 0.084694818 0.21353902
0.22793564 0.087330602 0.21173811
0.28089106 -0.084880762 0.22715777
-0.27835721 -0.05484052 0.2244823
-0.25349668 -0.059728235 0.22694807
-0.23625024 -0.050871842 0.22781481
-0.20608658 3.5079662e-05 0.22278036
-0.22358559 0.020850653 0.22167918
-0.25518078 0.03307331 0.22715372
0.2647987 0.033699319 0.22899231
0.29555011 0.070427701 0.2263269
0.42574996 0.077468514 0.22234358
0.27270293 0.087330602 0.22307454
0.24195568 -0.083352447 0.23790269
-0.25963736 -0.060536861 0.23566209
0.24460977 -0.054678138 0.23384774
-0.23435979 -0.0485502 0.23352937
-0.31891689 -0.037610408 0.23578462
-0.21269646 0.010101308 0.23760059
0.22477384 0.019366264 0.23352881
-0.25752378 0.070427701 0.23417285
-0.2165688 0.074395455 0.23792672
-0.25890216 0.087330602 0.23546347
-0.20667925 0.087175138 0.23648967
-0.1788018 0.082309052 0.23005292
0.27132818 0.087330602 0.23243774
0.29127946 -0.080833733 0.24348333
-0.22691329 -0.071360059 0.247205
0.26300246 -0.079785883 0.247205
0.2960929 -0.073786102 0.24720502
-0.30723155 -0.063424893 0.24361266
-0.28957272 -0.063272581 0.24720499
-0.26785758 -0.068691008 0.24720502
0.32080781 -0.048373308 0.24134934
0.20356157 -0.029911244 0.24001145
0.20374991 -0.017897893 0.24047029
0.30951601 -0.0076741977 0.24720502
-0.31283692 0.0015218619 0.2417237
-0.29049838 0.0074393749 0.24720499
-0.26658261 0.0075869653 0.24720502
-0.2303326 0.0057389224 0.24720499
-0.2405694 0.014522451 0.24720499
-0.22165626 0.016524259 0.247205
