# .PCD v0.7 - Point Cloud Data file format
VERSION 0.7
FIELDS x y z
SIZE 4 4 4
TYPE F F F
COUNT 1 1 1
WIDTH 876
HEIGHT 1
VIEWPOINT 0 0 0 1 0 0 0
POINTS 876
DATA ascii
-0.36703193 0.007159777 -0.090316132
-0.34049767 0.0017261363 -0.090593778
-0.30362555 0.0044820742 -0.096919999
-0.2968075 0.0033050154 -0.092868343
-0.28371021 0.004617434 -0.096919999
-0.2710337 0.005438074 -0.096853614
-0.19381279 0.0051007718 -0.096183091
-0.11658126 0.0047634225 -0.090978332
-0.08288753 0.0059256856 -0.096919999
-0.048164852 0.0092302235 -0.096919999
-0.030599663 0.0044698864 -0.090734579
0.054922752 0.0065584276 -0.096919999
0.084524922 0.0048395782 -0.094768308
0.094652988 0.0054155444 -0.094654381
0.11898068 0.0049502235 -0.091905177
0.12856045 0.0056352047 -0.096919999
0.15065834 0.0050519481 -0.094685033
0.18546568 0.0051637227 -0.09470325
0.23323759 0.0053171292 -0.096430413
0.28891057 0.0039687124 -0.096794084
0.3202408 0.0060436316 -0.096919999
0.34491211 0.0059168921 -0.096919999
0.36882511 0.0076522818 -0.091594182
-0.36989701 0.010153106 -0.095353656
-0.26958084 0.015866008 -0.096919999
-0.24071565 0.015909791 -0.096919999
-0.20769441 0.013576928 -0.096919991
-0.078915447 0.011534669 -0.096919999
-0.060853414 0.012356708 -0.096919999
-0.051889941 0.010589807 -0.096919999
-0.0054233987 0.016574869 -0.096919999
0.24716318 0.014918929 -0.096919999
-0.23775077 0.027730189 -0.095211431
-0.22816417 0.024904188 -0.096544109
-0.20018326 0.021780441 -0.096919999
-0.1672491 0.027422227 -0.09277606
-0.1467174 0.02407828 -0.096919999
-0.1326685 0.023147509 -0.096919999
-0.12320931 0.024899017 -0.096919999
-0.11497409 0.022974046 -0.096919999
-0.10078643 0.027131908 -0.094489679
-0.084147885 0.027059227 -0.093046963
-0.076361239 0.021021681 -0.096919999
-0.062384564 0.022096241 -0.096919999
-0.01672421 0.026951915 -0.09371952
0.0001242077 0.021059521 -0.096919999
0.083270766 0.02014133 -0.096919999
0.12607698 0.027410498 -0.093522191
0.15636861 0.027507775 -0.093320966
0.16775683 0.026018934 -0.096919999
0.17833619 0.02161563 -0.096919999
0.2367056 0.027765762 -0.093464933
0.24149778 0.022678139 -0.096919999
0.2897743 0.026333615 -0.090101719
0.40686753 0.022464972 -0.091794409
-0.38786012 0.034922823 -0.092475563
-0.37802088 0.032317758 -0.0931556
-0.36302531 0.0060587279 -0.082639098
-0.32181945 0.0012030664 -0.084859468
-0.18312939 0.005054106 -0.083647653
-0.12156905 0.0047852094 -0.082940757
-0.098904707 0.0046862112 -0.086869605
-0.025963694 0.0044847731 -0.08972232
0.057427898 0.0047525633 -0.086320572
0.084481053 0.0048394371 -0.084602058
0.1373919 0.0050093466 -0.08368019
0.19174287 0.0051838802 -0.087389469
0.25938466 0.0054010935 -0.088572919
0.30459565 0.0026505454 -0.08636535
0.32697722 0.0012677145 -0.084492847
0.36570957 0.0067961053 -0.085874386
-0.38796824 0.012913212 -0.082051873
-0.41360158 0.022142923 -0.08274959
-0.32366875 0.023727462 -0.088849068
-0.31750113 0.024003441 -0.081744254
-0.28727567 0.026543539 -0.086494178
-0.23565127 0.027721018 -0.087140992
-0.22026983 0.027653832 -0.081773005
-0.12068769 0.027218839 -0.081647754
-0.075861618 0.027023032 -0.086910449
0.034064077 0.027115015 -0.088124007
0.074330814 0.027244324 -0.081520624
0.095389754 0.027311951 -0.084880874
0.10663894 0.027348075 -0.089460179
0.21416306 0.02769337 -0.083020225
0.25071093 0.027810737 -0.080992989
0.33337653 0.023922175 -0.085261084
0.34655157 0.024368899 -0.080665261
-0.39965212 0.039853081 -0.083106838
0.39597672 0.038004629 -0.083154321
0.43165731 0.0387064 -0.084974401
-0.41827008 0.044151556 -0.086537644
-0.40160036 0.040832907 -0.084245868
0.40257707 0.04132412 -0.086106107
-0.43483794 0.051814657 -0.08140111
-0.35254472 0.0031786023 -0.070062272
-0.34682128 0.0019405412 -0.070143513
-0.33160818 0.0014247352 -0.073823161
-0.2426541 0.0053141117 -0.07471896
-0.22970837 0.0052575641 -0.073994726
-0.15101339 0.0049138227 -0.071461648
-0.086337917 0.0046313191 -0.074114166
0.056412771 0.0047493037 -0.075519413
0.073247276 0.0048033628 -0.070364527
0.09176188 0.0048628175 -0.074835941
0.12818868 0.0049797925 -0.076938912
0.16533917 0.0050990917 -0.074886084
0.18602157 0.0051655071 -0.074215204
0.26459917 0.0054178387 -0.076088317
0.30004212 0.0030332219 -0.077615134
0.34515765 0.0018841042 -0.074714594
-0.39308664 0.014319777 -0.074645877
-0.38738286 0.012752345 -0.076044858
-0.28330439 0.02687728 -0.078113005
-0.25362355 0.027799524 -0.074714042
-0.17319737 0.027448211 -0.078158125
-0.13320276 0.027273508 -0.079856545
-0.11734213 0.027204225 -0.070648156
-0.065286167 0.026976837 -0.077029958
0.05002252 0.027166262 -0.070981719
0.12115251 0.027394682 -0.0729222
0.18017003 0.027584206 -0.076601587
0.21220329 0.027687076 -0.077603556
0.22557043 0.027730005 -0.07934498
0.24357116 0.027787812 -0.076354012
0.30017382 0.025459634 -0.077686563
0.34051383 0.024164177 -0.073122405
0.35219082 0.025478669 -0.072051302
0.42785543 0.02957359 -0.078207076
-0.43395779 0.032755107 -0.075430907
0.3722707 0.030795196 -0.071507707
0.40309551 0.041584861 -0.071996637
0.45454106 0.04385066 -0.073525302
-0.44439039 0.058940634 -0.071269751
0.43831807 0.052412327 -0.078868508
-0.37667227 0.0098090023 -0.067217037
-0.22993115 0.0052585369 -0.067556977
-0.19596076 0.0051101539 -0.060646653
-0.084838316 0.0046247691 -0.066032194
-0.074299619 0.0045787357 -0.061519578
-0.0086118933 0.0045404937 -0.063670412
0.027461123 0.0046563325 -0.063503355
0.040515535 0.0046982542 -0.065831237
0.11003059 0.0049214829 -0.062524974
0.1223706 0.0049611097 -0.062696368
0.23273745 0.0053155227 -0.066809788
0.28410569 0.0043725106 -0.061591212
0.29020286 0.00386011 -0.062676772
0.40477717 0.017542057 -0.065566249
-0.41457736 0.022651626 -0.060595706
-0.35155216 0.02530982 -0.068100505
-0.33070368 0.023831557 -0.064506374
-0.31917512 0.023862761 -0.065058075
-0.30664179 0.024916044 -0.068373486
-0.22385168 0.027669474 -0.067313254
-0.20986436 0.027608378 -0.069170333
-0.19621068 0.027548738 -0.061544396
-0.17236491 0.027444575 -0.064246275
-0.15916416 0.027386909 -0.065207079
-0.099928431 0.02712816 -0.069107234
-0.072458476 0.027008168 -0.060481973
-0.042986479 0.02687943 -0.065921038
-0.035894275 0.026890354 -0.06763415
0.028262705 0.027096383 -0.06539996
0.059294321 0.027196037 -0.060585488
0.062398031 0.027206002 -0.068526715
0.073608182 0.027242005 -0.061981671
0.081897557 0.027268624 -0.062432982
0.14041996 0.027456557 -0.064007074
0.24189162 0.027782414 -0.061120544
0.29926589 0.025535941 -0.062513664
0.30142218 0.025354724 -0.064853474
0.32388073 0.023600202 -0.063653253
0.34788045 0.024413954 -0.064730823
0.35622555 0.02654694 -0.064671293
-0.44110993 0.036483683 -0.066370167
-0.43479511 0.033191629 -0.064456768
-0.37954429 0.032721099 -0.065954648
0.37538156 0.03161886 -0.063731685
-0.4374083 0.058845174 -0.064919144
-0.4447113 0.062521517 -0.067488648
0.44165957 0.060985275 -0.065499283
0.45086765 0.064149886 -0.064181224
-0.37536955 0.0094510075 -0.051492948
-0.32680106 0.0012617471 -0.052743036
-0.2527647 0.0053582746 -0.05267185
-0.20992833 0.0051711644 -0.051029418
-0.19823334 0.0051200804 -0.054754592
-0.051005814 0.0044769878 -0.059201695
-0.021410409 0.0044993949 -0.057842478
-0.012132049 0.0045291902 -0.057822261
0.023040127 0.0046421364 -0.055016354
0.04638119 0.0047170897 -0.055247694
0.054649115 0.0047436398 -0.054283034
0.064511061 0.004775309 -0.057573818
0.083248928 0.0048354808 -0.053144932
0.10035981 0.0048904275 -0.059824012
0.20931479 0.0052403077 -0.050003599
0.32275087 0.0011247933 -0.05920713
0.372264 0.0085973069 -0.056990698
-0.40288988 0.017013775 -0.05882737
-0.37802672 0.010181225 -0.051839441
-0.42380226 0.027460791 -0.05858532
-0.28034228 0.027126212 -0.056977239
-0.27950627 0.027196467 -0.059962045
-0.22314416 0.027666386 -0.05755417
-0.21554603 0.027633194 -0.058820281
-0.17935912 0.027475126 -0.057612859
-0.056558378 0.026938714 -0.057366673
0.0018697493 0.027011629 -0.052451044
0.062773332 0.027207209 -0.056801196
0.12698153 0.027413402 -0.050769586
0.1775831 0.027575901 -0.050937876
0.20093845 0.027650902 -0.058129378
0.21124291 0.027683994 -0.055357337
0.22709048 0.027734885 -0.059083916
0.27120647 0.027876556 -0.052482076
0.28099227 0.027071655 -0.055628642
0.29937541 0.025526736 -0.05436521
0.33568257 0.024000365 -0.057762038
0.34830645 0.024450205 -0.051272914
0.36524397 0.028934732 -0.054427236
0.41438946 0.022553286 -0.052602347
0.39466077 0.037342783 -0.052055847
0.43549359 0.033555638 -0.05383151
-0.41333818 0.046736181 -0.058794126
-0.40705675 0.043577082 -0.053548507
0.47437984 0.053778142 -0.052992582
-0.44749433 0.063922495 -0.050367042
0.46137246 0.064160317 -0.057576254
-0.35612971 0.0041637784 -0.046084948
-0.22501411 0.0052370597 -0.046152689
-0.21123129 0.0051768562 -0.042504065
-0.18472938 0.0050610951 -0.041233234
-0.16125372 0.0049585528 -0.045269534
-0.15338913 0.0049242 -0.045454413
-0.12950003 0.0048198523 -0.049468249
0.11616436 0.0049411799 -0.04163909
0.16096704 0.0050850515 -0.048498161
0.17695595 0.0051363958 -0.042819846
0.19564979 0.0051964261 -0.044638701
0.23413874 0.0053200228 -0.040651485
0.31157497 0.0020640094 -0.049488667
0.36451125 0.0064667985 -0.041551229
0.37718904 0.0099507459 -0.047873493
0.38797918 0.012915947 -0.040686414
-0.34328672 0.024258226 -0.049218088
-0.3189218 0.023884051 -0.040679738
-0.28427565 0.026795657 -0.04670801
-0.23014976 0.027696988 -0.043526411
-0.20606533 0.027591782 -0.046479143
-0.18449119 0.027497541 -0.043081984
-0.11393063 0.027189326 -0.044908591
-0.10096154 0.027132673 -0.049071185
-0.09929347 0.027125387 -0.041193865
-0.079819016 0.027040318 -0.045371398
0.018337008 0.027064508 -0.048816666
0.027133843 0.027092759 -0.044742651
0.052646592 0.027174689 -0.04210265
0.12623504 0.027411006 -0.041842651
0.17967266 0.027582608 -0.040257521
0.24374838 0.027788378 -0.045034647
0.29755589 0.025679648 -0.040982019
0.32632092 0.023682943 -0.045445263
0.35114405 0.025201514 -0.044193383
-0.44061449 0.036225408 -0.047802418
-0.46280557 0.047480937 -0.044597574
0.45693731 0.044526838 -0.042910803
0.46687979 0.049531896 -0.046926782
-0.43019134 0.055212136 -0.040891666
-0.42468128 0.052440945 -0.043009903
0.47392485 0.053125713 -0.040457878
0.45522943 0.067816362 -0.046698369
0.46711361 0.063854173 -0.047815189
0.46015716 0.07095179 -0.048717681
-0.34835434 0.0020270597 -0.032194585
-0.28582582 0.0042278897 -0.031712703
-0.059954561 0.0045160763 -0.036721401
-0.034823541 0.0044563226 -0.037002247
-0.010483883 0.004534482 -0.031942893
-0.0077143461 0.0045433762 -0.032097682
0.03057842 0.0046663433 -0.036440574
0.04398001 0.0047093788 -0.033996902
0.052796729 0.0047376915 -0.036436532
0.14200711 0.0050241668 -0.03345092
0.23697138 0.005329119 -0.039936192
0.24109471 0.0053423601 -0.035574019
0.29821318 0.0031869276 -0.030521918
0.34379601 0.0018379405 -0.037482183
-0.32466793 0.023737861 -0.037215773
-0.3194209 0.023842108 -0.037753444
-0.27297828 0.027745068 -0.037737966
-0.23525892 0.027719304 -0.034589909
-0.21882342 0.027647512 -0.039567377
-0.094041973 0.027102448 -0.034771711
-0.052178264 0.026919581 -0.036348037
-0.043442678 0.026881423 -0.035799619
-0.037725624 0.026884472 -0.032929372
-0.018150998 0.026947333 -0.033408325
0.010942001 0.027040761 -0.032063738
0.10587172 0.027345613 -0.03261948
0.12714107 0.027413916 -0.036803145
0.19313149 0.027625833 -0.037011907
0.21468279 0.027695041 -0.039086074
0.25020218 0.027809106 -0.036212049
0.26318413 0.027850796 -0.033494916
0.31356341 0.024334377 -0.03728601
0.41992512 0.02543922 -0.036427472
-0.44496441 0.038493119 -0.036949914
-0.39347738 0.036747634 -0.036421806
-0.38604832 0.034443118 -0.032091219
-0.37489286 0.031489573 -0.038142994
0.43508944 0.033344928 -0.037155394
0.41329491 0.046714436 -0.030351656
0.4775809 0.057337217 -0.0364656
0.44895351 0.06465707 -0.035609864
0.45871729 0.069623046 -0.038646147
0.47365299 0.060180403 -0.039789557
-0.46167505 0.072352536 -0.035091624
-0.32677218 0.001260769 -0.025736123
-0.27535811 0.0051075742 -0.02105609
-0.2389666 0.005298004 -0.022737652
-0.21558656 0.0051958798 -0.021054108
-0.18626121 0.0050677862 -0.024404751
-0.17830081 0.0050330148 -0.026545897
-0.14317968 0.004879605 -0.020954907
-0.096761182 0.0046768482 -0.02784428
-0.041230682 0.0044357474 -0.021763321
-0.026453039 0.004483202 -0.024778921
-0.01277055 0.0045271395 -0.025573581
0.017553622 0.0046245176 -0.028153159
0.043650471 0.0047083208 -0.028814733
0.068759046 0.0047889501 -0.024473019
0.072729528 0.0048017004 -0.024346346
0.19790037 0.0052036531 -0.026246123
0.21131383 0.0052467273 -0.022960071
0.29529071 0.0034325281 -0.026614657
0.31301636 0.001942873 -0.025834356
-0.355122 0.026254984 -0.025640387
-0.30487469 0.025064548 -0.02087469
-0.25688604 0.027813775 -0.021811282
-0.15108916 0.027351638 -0.021232592
-0.099673718 0.027127046 -0.020398147
-0.085293517 0.027064232 -0.023831502
-0.025356252 0.026924195 -0.023786169
0.086826898 0.027284451 -0.020286284
0.090601861 0.027296573 -0.020939333
0.14940351 0.027485406 -0.023056574
0.24303135 0.027786076 -0.020938605
-0.46755296 0.049870782 -0.024109632
0.46259275 0.047373809 -0.024150729
-0.4317084 0.055975821 -0.024031147
0.44299054 0.06165529 -0.026831515
0.45040172 0.065386087 -0.024070323
-0.46830451 0.071049422 -0.027860189
0.46731207 0.07441251 -0.022480782
-0.3679556 0.0074136052 -0.017349634
-0.31699002 0.0016089207 -0.013907947
-0.30996588 0.0021992153 -0.018080996
-0.21121749 0.0051767956 -0.016241498
-0.14052925 0.0048680278 -0.012401555
-0.088764697 0.0046419194 -0.01524606
-0.0076519158 0.0045435769 -0.015513459
0.139028 0.0050146002 -0.012205064
0.16098244 0.0050851009 -0.019176129
0.1830976 0.005156118 -0.012338678
0.21687758 0.0052645938 -0.01249001
0.22124434 0.0052786162 -0.014977237
0.24230865 0.0053462582 -0.016957432
0.25702897 0.0053935284 -0.019113358
0.2679891 0.0054287245 -0.010883212
0.28282613 0.0044800439 -0.018534347
-0.34131908 0.024191506 -0.015977101
-0.32513759 0.023642821 -0.017437145
-0.31912166 0.023867253 -0.011731424
-0.27237734 0.027795572 -0.014122716
-0.25593442 0.027809616 -0.011107631
-0.16413432 0.027408622 -0.010633752
-0.12827463 0.027251981 -0.018239083
-0.092650466 0.027096368 -0.012500395
-0.065496847 0.026977757 -0.01627297
-0.053303353 0.026924495 -0.018645693
-0.041051425 0.026873793 -0.017224167
0.020613823 0.027071821 -0.016215757
0.088043004 0.027288357 -0.013768122
0.104849 0.027342329 -0.01875348
0.11774589 0.027383743 -0.013180781
0.13683036 0.027445029 -0.012598868
0.16638577 0.027539942 -0.014069603
0.26407507 0.027853657 -0.013801849
0.3406994 0.024170471 -0.010376498
0.36876577 0.029867198 -0.018248986
-0.38619751 0.034482632 -0.018479586
0.39468008 0.037352502 -0.014644791
-0.453991 0.043043651 -0.016147736
-0.41829398 0.049228586 -0.011148714
-0.44827011 0.064313032 -0.011221763
0.47794208 0.063179433 -0.013145253
-0.47129187 0.070386261 -0.012788046
-0.30014962 0.0030241509 -0.0019318946
-0.29728466 0.0032649152 -0.0068544922
-0.16584809 0.0049786214 -0.00014086301
-0.15845975 0.0049463487 -0.0067590885
-0.10337242 0.0047057266 -0.0019783303
-0.082351208 0.0046139052 -0.0097232312
0.0010083243 0.0045713866 -0.0080361627
0.011780389 0.0046059783 -0.00036373176
0.086059831 0.0048445067 -0.0092563648
0.10605866 0.0049087279 -0.00021970738
0.13253823 0.00499376 -0.0030361637
0.16739114 0.0051056808 -0.0017048046
0.19080697 0.0051808748 -0.0081082825
0.2518602 0.0053769308 -0.0011179144
0.26695365 0.0054253992 -0.0016323552
0.3491978 0.0022585681 -0.0023583504
-0.42373019 0.02742322 -0.0086289719
-0.36051041 0.027681636 -0.0061173141
-0.34474787 0.024307769 -0.0092886128
-0.32718024 0.023712084 -0.0069743786
-0.31652135 0.024085781 -0.0024575219
-0.30379423 0.025155347 -0.0088272691
-0.29435819 0.025948334 -0.0064438209
-0.20986697 0.027608389 -0.0068945326
-0.19708426 0.027552553 -0.0028997082
-0.18222745 0.027487656 -0.0058359047
-0.16776003 0.027424458 -0.005062941
-0.12733573 0.02724788 -0.0058794413
-0.091535233 0.027091498 -0.0065310141
-0.06473875 0.026974447 -0.0055527799
-0.057729609 0.026943829 -0.0033480937
-0.0026203515 0.026997209 -0.00704813
0.0072809095 0.027029006 -0.0084612444
0.10719502 0.027349861 -0.0085578011
0.1154535 0.027376384 -0.0041156411
0.19678666 0.027637567 -0.0032654293
0.32637113 0.023684643 -0.0027345298
0.36609897 0.029161118 -0.0080049504
-0.43201277 0.031741135 -0.0014329655
0.37645936 0.031904221 -0.0053790417
0.44385737 0.037907977 -0.0054841465
-0.4138447 0.046990931 -0.0062224544
0.43200487 0.056125082 -0.0065138005
0.47170624 0.051961552 -0.0091660954
-0.47305796 0.068472326 -0.0029868132
0.44034231 0.060322151 -0.0092366971
0.45855904 0.069492497 -0.007268107
-0.36807108 0.0074453452 0.00096188486
-0.24163684 0.0053096679 0.0005538417
-0.23284137 0.0052712495 0.0016021179
-0.21113789 0.0051764478 0.00079503097
-0.20546369 0.005151663 0.0063867047
-0.1148885 0.0047560288 0.0071794689
-0.10041314 0.0046927999 0.0064621214
-0.091359347 0.0046532527 0.00011982955
0.22080185 0.005277195 0.0070251729
0.23488238 0.0053224107 0.0036321636
0.24467953 0.0053538717 0.0081449412
0.30382812 0.0027150479 0.0062287878
0.33888867 0.0016715613 0.0098381732
0.37821493 0.010232659 0.00052903593
-0.41529188 0.023024129 0.0040541571
-0.35366398 0.025868941 0.0069967117
-0.33317286 0.023915283 0.0061088465
-0.17567505 0.027459033 0.0092332773
-0.13873875 0.027297691 0.0082665868
-0.01018812 0.026972905 0.0040490814
0.027929235 0.027095312 0.0056808386
0.047059089 0.027156744 0.0087635014
0.064168148 0.027211688 0.0039147292
0.12198912 0.02739737 0.0084281377
0.1827518 0.027592499 0.001862051
0.2841419 0.026806964 0.0048464257
0.29252344 0.026102576 0.0097354027
0.32163951 0.023655659 0.0065796231
0.41882366 0.024864983 0.0012864154
-0.39459485 0.037309643 0.0017639026
0.44530484 0.038670603 0.0058933315
-0.45430344 0.043200955 0.0025925003
-0.44896406 0.040513076 0.0018385611
0.40376863 0.041923381 0.0052713752
-0.4404566 0.060379684 0.0046582446
0.44765943 0.064005613 0.0079685049
0.46099779 0.071727552 0.0014416249
-0.32833454 0.0013137402 0.017059507
-0.29933524 0.0030925872 0.015995879
-0.25023443 0.0053472226 0.010702457
-0.22044021 0.0052170805 0.01024331
-0.19182976 0.0050921096 0.010607582
-0.1694577 0.0049943877 0.019509174
-0.12583819 0.0048038568 0.012560984
-0.065097459 0.0045385407 0.016421732
-0.053354673 0.0044872477 0.016309487
-0.035539735 0.0044540227 0.018662225
-0.00194804 0.0045618932 0.018959496
0.018451672 0.0046274015 0.011641078
0.10621711 0.0049092364 0.016006036
0.11407675 0.0049344762 0.018286733
0.12704359 0.0049761152 0.018719077
0.17828959 0.005140678 0.014731104
0.18474445 0.0051614065 0.019394469
0.19112825 0.0051819063 0.011986284
0.25740844 0.0053947475 0.01068899
0.26374361 0.0054150913 0.013392664
0.32080936 0.0012879554 0.013352649
0.365255 0.0066711898 0.012919098
-0.4081879 0.019320652 0.017116033
0.38729653 0.012728339 0.014242424
0.40848917 0.019477258 0.017478596
-0.35353673 0.025835259 0.012960728
-0.28277126 0.026922084 0.017683141
-0.27709854 0.027398808 0.013289805
-0.16144888 0.027396891 0.011410508
-0.069958426 0.026997246 0.01998054
-0.050135951 0.026910659 0.010253705
-0.0013847984 0.027001174 0.014712094
0.001936242 0.02701184 0.015498682
0.10303794 0.027336512 0.012921125
0.26462701 0.027855428 0.015999202
0.30056378 0.025426866 0.015054882
-0.44272846 0.037327472 0.013161325
0.37354541 0.031132709 0.010941878
0.38149384 0.0332372 0.013819759
0.39657533 0.038305681 0.017684618
-0.42068166 0.050429437 0.010710989
0.47945255 0.058226857 0.015836854
-0.47482774 0.06655442 0.013054674
-0.44838518 0.06437096 0.017551037
0.46660149 0.075469196 0.013936378
-0.28348061 0.0044249762 0.022341788
-0.27079788 0.005437044 0.025124673
-0.21840437 0.0052081877 0.025071198
-0.19651631 0.0051125805 0.022126261
-0.18269731 0.0050522191 0.026555806
-0.16653527 0.0049816226 0.021132803
-0.13053636 0.0048243785 0.024446815
-0.065492749 0.0045402674 0.028932372
-0.053781904 0.0044891136 0.02074204
-0.041465111 0.0044353139 0.028852778
-0.0078549851 0.0045429245 0.025882492
0.053193275 0.0047389651 0.029152371
0.11579066 0.0049399799 0.024709735
0.18099971 0.0051493812 0.029229486
0.21454047 0.0052570887 0.025408562
-0.40353861 0.017192047 0.020315755
-0.38825274 0.012991389 0.027767988
-0.29286879 0.026073502 0.028634207
-0.27347052 0.027703701 0.025407916
-0.25693095 0.027813971 0.020153632
-0.12756559 0.027248884 0.024644192
-0.052923709 0.026922837 0.021959361
-0.015118245 0.026957072 0.020707861
0.04246819 0.027141999 0.026726954
0.075292483 0.027247412 0.026268609
0.091039956 0.027297981 0.023020772
0.26605582 0.027860016 0.022358127
0.2729421 0.027748192 0.029095249
0.29041237 0.02627999 0.022877153
0.3387067 0.024102904 0.027034383
0.35530609 0.026303489 0.026561579
0.36467749 0.028784754 0.023707565
-0.36931592 0.030013012 0.026849961
0.37508368 0.031539999 0.020614782
0.44554853 0.038793698 0.021629121
0.41034037 0.045228511 0.023241162
-0.47594586 0.054990798 0.026132245
-0.43168184 0.055962469 0.029086981
0.42422143 0.052209668 0.021075787
0.43801588 0.059151024 0.026832212
0.45537674 0.067890525 0.025069252
-0.36487916 0.0065681809 0.036380496
-0.327562 0.0012875472 0.033300348
-0.27581042 0.0050695627 0.030054713
-0.25545335 0.0053700185 0.037470341
-0.24501853 0.0053244391 0.030381925
-0.2126611 0.0051831016 0.035261191
-0.20971753 0.0051702433 0.033833068
-0.1771241 0.0050278753 0.039780501
-0.14590523 0.0048915106 0.03312283
-0.017097047 0.004513246 0.032215249
0.090634614 0.0048591979 0.035484727
0.10052811 0.0048909681 0.031863242
0.14645657 0.0050384551 0.030056536
0.15376095 0.0050619114 0.03106951
0.20549805 0.0052280515 0.030211918
0.24610116 0.0053584371 0.030004594
0.28915042 0.0039485525 0.034390509
0.36152658 0.0056465892 0.038208861
-0.40194955 0.016755372 0.03999795
-0.39313245 0.014332367 0.037595533
-0.36118075 0.027859118 0.035462871
-0.32328072 0.02357986 0.033920322
-0.29851747 0.025598798 0.032865785
-0.15324043 0.027361035 0.0358072
-0.14828368 0.027339384 0.036645278
-0.060703985 0.026956821 0.032134213
0.0078529939 0.027030841 0.031264968
0.089479849 0.027292971 0.038809679
0.13165042 0.027428396 0.033387765
0.16174428 0.027525038 0.036365844
0.19541377 0.027633162 0.031549484
0.25998849 0.027840532 0.033333451
0.27148974 0.027870249 0.033108167
0.28008306 0.027148066 0.038377717
0.32630166 0.023682289 0.036945414
0.34488994 0.024312558 0.031248339
-0.37450647 0.031387273 0.039996751
-0.40615165 0.043121886 0.034562428
-0.42407075 0.052133877 0.034258429
-0.44056803 0.060435794 0.036692485
0.44498837 0.062660992 0.037137054
0.45225701 0.066320039 0.036579072
0.47573248 0.061289661 0.036094863
-0.36375377 0.0062589161 0.043157998
-0.30581731 0.0025478506 0.043526158
-0.29929405 0.0030960492 0.045357566
-0.26703987 0.0054206289 0.045819007
-0.22237244 0.005225521 0.044900198
-0.20965384 0.0051699653 0.041580979
-0.17656119 0.0050254166 0.049213402
-0.13680613 0.004851765 0.040926982
-0.1150533 0.0047567487 0.046010129
-0.068338349 0.0045526968 0.041409481
-0.041239157 0.0044357204 0.049650371
-0.0095502343 0.0045374809 0.042131159
0.14830483 0.0050443904 0.043193318
0.16021475 0.0050826357 0.048147783
0.17497569 0.0051300367 0.045915514
0.18817499 0.0051724226 0.049413718
0.19934359 0.0052082874 0.041166879
0.22944435 0.0053049484 0.049910806
0.24935648 0.0053688907 0.047162101
0.36365229 0.0062307487 0.04842294
0.40152612 0.016638732 0.046519909
-0.4282254 0.029766671 0.049350411
-0.31169075 0.024491737 0.044078939
-0.23579943 0.027721666 0.048649963
-0.10703304 0.027159194 0.04894305
0.10973416 0.027358014 0.048196767
0.13563538 0.027441194 0.040496346
0.24657974 0.027797472 0.045790926
0.25435448 0.027822439 0.044505339
0.32470053 0.023743749 0.044895403
0.353746 0.025890429 0.048718587
-0.44719416 0.039622124 0.041474227
-0.39865378 0.039350994 0.048190359
-0.46034348 0.046241499 0.043015555
-0.42116055 0.050670266 0.041964062
-0.45293534 0.066661507 0.042816162
-0.44132233 0.060815491 0.045423612
0.44595027 0.06314522 0.044292599
-0.46476367 0.070316494 0.042820413
-0.37517178 0.0093966573 0.057980932
-0.13132659 0.0048278305 0.052557468
-0.087417498 0.0046360348 0.053079449
-0.065002784 0.0045381272 0.054385081
0.058654461 0.0047565023 0.050465122
0.10641113 0.0049098595 0.058950193
0.14152715 0.0050226254 0.058311731
0.23655808 0.0053277924 0.056039833
-0.40796816 0.019206103 0.055576131
0.37985826 0.010684252 0.055769771
-0.33967948 0.02413591 0.052058868
-0.29815143 0.02562956 0.050601814
-0.23249958 0.027707251 0.056957871
-0.20493124 0.027586829 0.053619053
-0.17467903 0.027454682 0.053284459
-0.094099514 0.027102698 0.053664435
-0.010605922 0.026971564 0.053980038
0.030341439 0.027103059 0.051600888
0.087266468 0.027285863 0.052730896
0.093501613 0.027305886 0.05470255
0.15829113 0.027513947 0.057930477
0.22107503 0.027715567 0.051055476
0.23943576 0.027774531 0.053935956
0.2853395 0.026706312 0.054938495
0.3480702 0.024420394 0.059729945
-0.43272349 0.032111648 0.058611579
0.40354469 0.041810762 0.057616044
-0.43371293 0.056984913 0.05650777
0.4243868 0.052292842 0.059647571
-0.33179742 0.0014311515 0.068087637
-0.30394596 0.0027051135 0.067087397
-0.18229955 0.0050504813 0.066034496
-0.091457993 0.0046536839 0.066217713
-0.0015544407 0.004563157 0.069131143
0.038885932 0.0046930201 0.068733461
0.092406072 0.0048648864 0.061781645
0.1460475 0.0050371415 0.060426205
0.15127245 0.0050539197 0.067893937
0.16919969 0.0051114885 0.066559546
0.17374995 0.0051261005 0.069000967
0.18472151 0.0051613329 0.062565431
0.19287214 0.0051875059 0.062800661
0.27418587 0.0051972084 0.065188676
0.31343007 0.0019081088 0.06306421
-0.3606652 0.027722618 0.062773265
-0.30169261 0.025331963 0.065654166
-0.15758762 0.027380023 0.069520429
-0.09303049 0.02709803 0.064369753
-0.08429502 0.027059868 0.060223162
-0.075223476 0.027020246 0.064724639
-0.067450039 0.026986292 0.062415291
0.011274744 0.02704183 0.06863527
0.047025811 0.027156636 0.06333869
0.084191494 0.027275989 0.061623953
0.16486391 0.027535057 0.067277946
0.20221713 0.027655007 0.067917041
0.28159669 0.027020857 0.068192549
0.31487289 0.02422433 0.065556511
0.3588891 0.027252171 0.064284354
0.41646141 0.023633469 0.065600224
0.42813051 0.029716978 0.067599662
-0.39422774 0.037125021 0.065864384
0.37725234 0.032114185 0.061157301
0.38304448 0.033647772 0.063852869
-0.40568915 0.042889278 0.069423497
-0.46432114 0.053053711 0.06637536
-0.43948543 0.059890807 0.06262242
0.42181015 0.050996978 0.067901954
0.46454853 0.054508403 0.065389276
0.44527426 0.062804915 0.063707031
0.4607465 0.06512744 0.061622158
-0.35884255 0.0049092793 0.071000434
-0.32110766 0.0012628864 0.077670082
-0.18493809 0.0050620069 0.07547725
-0.17760831 0.0050299899 0.074641749
0.014834719 0.0046157865 0.070759326
0.029010927 0.0046613095 0.074788831
0.040245116 0.0046973852 0.078600347
0.11740947 0.0049451776 0.071134821
0.159289 0.0050796634 0.07004001
0.17347398 0.0051252143 0.074112028
0.28324443 0.0044448907 0.07917387
0.2937178 0.0035647159 0.074081138
0.32887131 0.0013319314 0.073436953
0.33963212 0.001696768 0.078131415
-0.40393817 0.017429506 0.074566342
-0.39537829 0.014949542 0.07215894
0.39800048 0.015669864 0.078799039
0.40646857 0.018423831 0.070494644
-0.34707317 0.024386618 0.070069328
-0.32801101 0.023740254 0.07365977
-0.28154659 0.027025001 0.076812662
-0.27490193 0.027583409 0.072660603
-0.23585823 0.027721923 0.076133363
-0.21493192 0.027630512 0.073645778
-0.18422791 0.027496394 0.073846497
-0.17477588 0.027455105 0.078756899
-0.16376649 0.027407015 0.078860864
-0.12054089 0.0272182 0.075123437
-0.088466346 0.027078092 0.076395705
-0.066341117 0.026981447 0.078402556
-0.038434982 0.026882194 0.07783667
-0.0095101725 0.026975084 0.079617582
0.043660924 0.027145831 0.074538752
0.12123615 0.027394952 0.079975933
0.14555961 0.02747306 0.076507159
0.15562041 0.02750537 0.071744487
0.19094381 0.027618807 0.070946671
0.24156256 0.02778136 0.078821257
0.26546371 0.027858112 0.074953347
0.29986566 0.025485532 0.074118212
0.30608562 0.024962809 0.071334101
0.36451474 0.028741661 0.077077776
0.42571285 0.028456584 0.073949099
-0.44343159 0.037694022 0.072352797
-0.38460457 0.034060873 0.070403598
0.36985061 0.030154433 0.078734264
0.37443972 0.031369489 0.075101234
-0.40326053 0.041667845 0.079343513
-0.43067303 0.055454619 0.070370167
-0.42924482 0.05473607 0.079456501
-0.44550544 0.062228765 0.07287652
-0.36005342 0.0052420367 0.088053405
-0.34651172 0.001930046 0.089619115
-0.27854905 0.0048394157 0.083111353
-0.20178795 0.005135607 0.083248623
-0.18708149 0.005071369 0.083258584
-0.15776858 0.0049433298 0.08460521
-0.13166958 0.0048293285 0.084056512
-0.053955831 0.0044898735 0.088408217
0.015007077 0.0046163402 0.088382065
0.057801142 0.0047537615 0.083361402
0.066068627 0.0047803107 0.086471744
0.082510598 0.0048331097 0.083943695
0.11685212 0.004943388 0.0823019
0.15891415 0.0050784592 0.081259191
0.18733405 0.0051697223 0.088486202
0.19007923 0.0051785377 0.085268021
0.24578936 0.0053574354 0.085734122
0.2772195 0.00495122 0.089995615
0.31871274 0.0014641532 0.081120163
0.32173282 0.0012103501 0.087841988
-0.3858344 0.012326818 0.084478237
0.39642054 0.015235683 0.088016756
-0.42183495 0.026435181 0.088622876
-0.41876692 0.024835739 0.081009433
-0.34646738 0.024366077 0.084811278
-0.263019 0.027840564 0.087567717
-0.22272043 0.027664535 0.084614091
-0.21534856 0.027632333 0.08607094
-0.15950328 0.027388392 0.085291043
-0.064628363 0.026973965 0.080285333
-0.046529528 0.026894905 0.082740813
0.0041359612 0.027018905 0.0829731
0.017891467 0.027063077 0.086546458
0.12212377 0.027397804 0.083438076
0.16215029 0.02752634 0.08860983
0.17893903 0.027580254 0.089425132
0.18319961 0.027593937 0.084425554
0.25090146 0.02781135 0.081718273
0.43810517 0.034917142 0.083124422
-0.44181859 0.046091028 0.084547006
0.43661097 0.048058115 0.08663699
-0.44378251 0.050995253 0.080470532
-0.37704509 0.0099114543 0.091099828
-0.35421458 0.0036374833 0.091939956
-0.11409608 0.004752567 0.098721057
-0.073450185 0.0045750253 0.09121722
0.014682278 0.0046152971 0.093086503
0.042814732 0.0047056368 0.094321772
0.1272614 0.0049768151 0.0974444
0.1362309 0.0050056176 0.093972541
0.14611997 0.0050373743 0.095987678
0.23487157 0.0053223763 0.095042102
0.37494257 0.0093333973 0.091468424
0.38671625 0.012568884 0.09700194
0.39231342 0.01410702 0.095627271
-0.33613315 0.024015661 0.094225913
-0.040944278 0.026875336 0.092652835
0.022590365 0.027078167 0.094298705
0.13082154 0.027425734 0.094656602
0.1776395 0.027576081 0.096587554
0.22916572 0.027741551 0.090641461
0.26226243 0.027847834 0.099793054
0.34413838 0.024287075 0.094450086
0.35906404 0.02729848 0.094055355
-0.39925429 0.036999568 0.098823294
0.39578027 0.037905827 0.0989969
0.4057197 0.038752545 0.096754968
0.43150586 0.036172025 0.09065856
0.40252271 0.041296788 0.090263754
-0.29117709 0.0037781801 0.10082449
-0.21544848 0.0087551763 0.101133
-0.13216718 0.0051677837 0.10066895
-0.082870871 0.0062936256 0.101133
0.086712271 0.0095644174 0.10113299
0.13978022 0.0056222253 0.101133
0.20130199 0.0052145766 0.10080553
0.21523574 0.0082238261 0.101133
0.22935936 0.005609897 0.101133
-0.24237455 0.01425765 0.101133
-0.21211256 0.017682686 0.101133
-0.13829635 0.015286094 0.101133
-0.10538264 0.012276422 0.10113299
-0.098699942 0.013194473 0.10113299
0.030241735 0.012432716 0.101133
0.063934468 0.012097144 0.101133
0.07910721 0.011281963 0.101133
0.13784787 0.016736247 0.101133
0.21047629 0.017737163 0.101133
0.26027906 0.016256303 0.101133
0.30189711 0.014397262 0.10113299
0.3886019 0.018252667 0.10096079
-0.3181408 0.020397522 0.101133
-0.20144422 0.025992118 0.10113299
-0.13212819 0.021675408 0.101133
-0.085198104 0.023900196 0.101133
-0.071203932 0.024142109 0.101133
-0.068964288 0.020930288 0.101133
-0.033927023 0.023649974 0.101133
-0.02955238 0.021113383 0.101133
0.25339794 0.024477167 0.101133
0.26800898 0.020045502 0.101133
0.35601547 0.025811797 0.10109228
0.38604257 0.03265886 0.10093075
