# .PCD v0.7 - Point Cloud Data file format
VERSION 0.7
FIELDS x y z
SIZE 4 4 4
TYPE F F F
COUNT 1 1 1
WIDTH 935
HEIGHT 1
VIEWPOINT 0 0 0 1 0 0 0
POINTS 935
DATA ascii
-0.22403604 -0.092169613 -0.13159788
-0.24774189 -0.082430981 -0.13338099
-0.23364428 -0.089362793 -0.13338099
-0.21363041 -0.079289578 -0.13338099
-0.20373477 -0.071266934 -0.13338101
0.19651628 -0.071035542 -0.13203986
0.2576037 -0.070165813 -0.13338099
-0.20508787 -0.065513015 -0.13338099
-0.23105165 -0.05478524 -0.13108876
-0.25745937 -0.047852401 -0.13338099
-0.22887257 -0.03760542 -0.13338099
0.20263156 -0.037603129 -0.13338099
0.22687477 -0.039332855 -0.13243094
-0.22617073 -0.024983358 -0.13338099
-0.28664309 0.016845051 -0.13338099
-0.20386159 0.016349679 -0.13338099
-0.19197348 0.017229287 -0.13338098
-0.038405441 0.017483402 -0.13338099
0.020587973 0.0134056 -0.13212214
0.23779605 0.016765891 -0.13338099
0.28133586 0.01857806 -0.13338099
0.30033785 0.017262559 -0.13338099
-0.34532827 0.024787469 -0.13096355
-0.21613112 0.024885267 -0.13338099
-0.20374013 0.022310507 -0.13338099
-0.026127582 0.026903706 -0.13338099
0.052956875 0.026227511 -0.13338099
0.088861242 0.025215426 -0.13338099
0.1783995 0.023180366 -0.13338099
0.32657644 0.027090689 -0.13338099
-0.3689312 0.038245264 -0.13170449
-0.31568867 0.033822659 -0.13260382
-0.28522593 0.032278623 -0.13338099
0.33713856 0.034762233 -0.1331093
0.35549095 0.034305692 -0.1323379
0.36189714 0.038781799 -0.13199441
0.37252548 0.035086311 -0.13096267
0.34860235 0.048650771 -0.13074185
-0.22296879 -0.09206333 -0.12131468
0.20035584 -0.078084111 -0.1211573
0.22087769 -0.072145097 -0.12649724
0.21402687 -0.064770281 -0.12620015
-0.24382703 -0.053466585 -0.12661085
-0.21240704 -0.0586669 -0.12401518
-0.26172471 -0.048063129 -0.12791818
-0.23293322 -0.03916005 -0.12714633
-0.21235605 -0.027424339 -0.12195058
0.24500087 -0.027450003 -0.12004027
-0.28260118 0.013405599 -0.125036
-0.22284429 0.0134056 -0.12205113
-0.21392405 0.013405599 -0.12598372
-0.1181849 0.0134056 -0.12871873
-0.076175407 0.0134056 -0.12840319
-0.020464469 0.0134056 -0.12190384
0.031397469 0.0134056 -0.12613867
0.092317656 0.0134056 -0.12936525
0.12639216 0.013405599 -0.1225469
0.20260082 0.0134056 -0.12612669
0.27420068 0.0134056 -0.12263339
0.34003595 0.022790784 -0.12639345
-0.30268201 0.03536246 -0.129274
-0.28388885 0.034333684 -0.12922329
-0.13268897 0.034327801 -0.12019025
-0.10956646 0.034327801 -0.12820992
-0.098837331 0.034327801 -0.12953311
-0.071517289 0.034327801 -0.12699881
-0.067892283 0.034327801 -0.12520789
0.12013977 0.034327801 -0.12221909
0.26903519 0.034327801 -0.12636568
0.28268841 0.034327801 -0.12801313
-0.37559056 0.040935688 -0.12931332
0.38785353 0.040830635 -0.12304891
-0.37415141 0.058289759 -0.12130542
0.38505229 0.062402129 -0.12228173
-0.2273872 -0.092503324 -0.11298728
0.20497286 -0.083555967 -0.11536789
0.21144328 -0.067144468 -0.11470571
-0.26293623 -0.059227191 -0.11326484
-0.21319017 -0.053259663 -0.11835291
-0.24119335 -0.048430733 -0.11563646
0.1962724 -0.045589939 -0.1102051
0.22575344 -0.023494886 -0.11799397
0.23036 -0.023537697 -0.11153524
-0.20381859 0.0134056 -0.11959588
-0.088326611 0.0134056 -0.11581014
0.014376123 0.013405601 -0.1188528
0.039965257 0.0134056 -0.118064
0.11446071 0.0134056 -0.11096685
0.16081421 0.0134056 -0.11029343
0.35893393 0.02992042 -0.11979121
-0.15614451 0.034327801 -0.1162824
0.026556656 0.034327801 -0.11930671
0.2672089 0.034327801 -0.11099732
0.33045179 0.035514954 -0.11455205
-0.38934347 0.064021006 -0.11875132
0.38653737 0.062962383 -0.11055209
0.2420021 -0.089658827 -0.10953711
-0.22562537 -0.077046789 -0.10752968
-0.26247469 -0.063862205 -0.1072672
-0.2454908 -0.067228928 -0.10969237
-0.21476451 -0.066405296 -0.10046963
0.19486165 -0.065642998 -0.10262817
-0.24337803 -0.052387502 -0.10966042
0.21046184 -0.05105447 -0.10662927
-0.22119924 -0.04377041 -0.10921559
-0.2150849 -0.044017412 -0.10633629
0.19648105 -0.045037277 -0.10772706
0.21848877 -0.045536261 -0.10825797
0.22877786 -0.042008817 -0.10870348
0.23927946 -0.0461642 -0.10350611
0.24033529 -0.047381938 -0.10005876
-0.2183837 -0.024703067 -0.10580017
-0.14063375 0.013405599 -0.10093018
-0.13925669 0.0134056 -0.10790928
-0.052009776 0.0134056 -0.10181246
-0.026903108 0.0134056 -0.10780536
0.011257909 0.013405599 -0.10268325
0.029745147 0.013405599 -0.10210836
0.13667798 0.0134056 -0.10598791
0.19237855 0.013405601 -0.10753868
0.27185661 0.013405599 -0.10180193
-0.3555544 0.028645502 -0.10656316
-0.30048329 0.0351674 -0.10705411
-0.17664713 0.034327801 -0.10348759
-0.052557796 0.034327801 -0.1022518
0.039766714 0.034327801 -0.10911112
0.075594351 0.034327801 -0.10041556
0.31632656 0.037678838 -0.10424003
0.36787903 0.033295184 -0.10684967
-0.35082281 0.049488999 -0.10750455
0.33855826 0.044861745 -0.10520387
-0.39513069 0.066204578 -0.10016657
-0.41642272 0.074237183 -0.10147568
-0.22644606 -0.091605179 -0.091535598
-0.24946602 -0.085290611 -0.094629243
-0.21024463 -0.085262775 -0.091535598
0.21623385 -0.068215914 -0.095980391
-0.26216406 -0.056058031 -0.091535598
0.20353118 -0.056908134 -0.091535598
-0.24029362 -0.047331855 -0.096146584
-0.2298734 -0.03277434 -0.091535598
-0.20582213 -0.034990929 -0.091535598
0.20531422 -0.03397768 -0.091535598
0.21057639 -0.034359898 -0.091535598
0.24388078 -0.026975568 -0.096522622
-0.18248041 0.013405599 -0.094013222
0.019650847 0.0134056 -0.097986721
0.039736923 0.0134056 -0.098930866
0.078787774 0.0134056 -0.094204903
0.088357046 0.0134056 -0.092042439
0.11106378 0.0134056 -0.096407354
0.16501342 0.013405599 -0.097122379
0.1952554 0.0134056 -0.09703204
0.21247268 0.0134056 -0.09184809
-0.33324724 0.028103849 -0.099090584
-0.27497703 0.034327801 -0.090298541
-0.16360085 0.034327801 -0.096419796
-0.092138849 0.034327801 -0.095387861
0.023202084 0.034327801 -0.097055845
0.090718277 0.034327798 -0.096243426
0.11578868 0.034327801 -0.090082519
0.1393159 0.034327801 -0.090115488
0.1479881 0.034327801 -0.09844324
0.18096465 0.034327801 -0.099380113
0.28545868 0.034383118 -0.090438083
0.34098241 0.045776308 -0.099817939
-0.42783266 0.055914789 -0.098123476
-0.35776451 0.052107804 -0.098519199
-0.41132849 0.072315291 -0.097426936
-0.21405874 -0.064843073 -0.080386221
-0.24264172 -0.05075838 -0.088663921
0.24431932 -0.059114866 -0.088279277
-0.23150641 -0.042281009 -0.084920682
-0.33125448 0.019819291 -0.085885286
-0.3155627 0.01600611 -0.086166203
-0.22010569 0.013405601 -0.088629425
-0.12052587 0.0134056 -0.085790955
-0.076135077 0.0134056 -0.087091893
0.025924109 0.013405599 -0.08935342
0.099362776 0.0134056 -0.089296594
-0.34711096 0.025460009 -0.087565877
0.34245831 0.023704801 -0.08293587
-0.33219469 0.030893601 -0.084523618
-0.26164374 0.034327801 -0.087199219
-0.14156841 0.034327801 -0.086060487
0.13400806 0.034327801 -0.083921514
0.14040154 0.034327801 -0.084098637
0.26898593 0.034327801 -0.080555342
0.38159138 0.038468465 -0.087534763
-0.34219226 0.046233006 -0.083047189
0.38877547 0.0411788 -0.088828892
0.43461189 0.058471777 -0.089008421
-0.38251165 0.061443817 -0.086162955
0.39187211 0.064974964 -0.08401107
-0.43912429 0.070237607 -0.085521162
0.22401157 -0.042565592 -0.07544145
-0.17823303 0.0134056 -0.070533194
-0.16966197 0.0134056 -0.073538505
-0.046602648 0.0134056 -0.079410911
0.038961209 0.0134056 -0.079548232
0.25722453 0.013405599 -0.07283169
0.28086889 0.013405599 -0.076888725
-0.33052021 0.03533167 -0.077133216
-0.29682589 0.034894716 -0.070471615
-0.23855089 0.034327801 -0.071028583
-0.14657839 0.034327801 -0.079511553
-0.11504097 0.034327801 -0.074334241
-0.069136798 0.034327801 -0.079208918
0.035199665 0.034327801 -0.077201448
0.064751133 0.034327801 -0.074192405
0.099235892 0.034327801 -0.071775571
0.11427459 0.034327801 -0.076010734
0.17456907 0.034327801 -0.077522822
0.29892468 0.035051197 -0.079217903
0.32234553 0.039193466 -0.075435281
-0.43401054 0.058244895 -0.074997254
-0.41498014 0.051065262 -0.079812564
-0.44663417 0.080972284 -0.072506748
0.24332169 -0.06361638 -0.061234538
0.2226208 -0.043128885 -0.06823419
-0.25773004 0.0134056 -0.06174263
-0.21134692 0.013405601 -0.065034613
-0.16336004 0.013405599 -0.065588236
-0.13358262 0.0134056 -0.062783763
0.023317616 0.0134056 -0.067824006
0.099487312 0.0134056 -0.060520593
0.13297664 0.0134056 -0.069658369
0.21030392 0.013405599 -0.066651754
0.22639355 0.0134056 -0.067310549
-0.2711021 0.034327801 -0.066277444
-0.16456433 0.034327801 -0.063964188
-0.15275045 0.034327801 -0.06546133
-0.13437459 0.034327801 -0.066716217
-0.074266598 0.034327801 -0.064844742
-0.062047727 0.034327801 -0.061284829
-0.04765889 0.034327801 -0.068617314
0.037254438 0.034327801 -0.068098098
0.044362158 0.034327801 -0.068399608
0.061619706 0.034327801 -0.060819976
0.26280746 0.034327801 -0.060643539
0.27164444 0.034327801 -0.062924616
-0.34708983 0.048080634 -0.065833166
-0.32505038 0.040013172 -0.064097434
0.42500812 0.054848325 -0.060404986
-0.45733696 0.067045331 -0.060428753
-0.42641881 0.078008294 -0.067144021
0.4507302 0.079288349 -0.066895708
-0.44345534 0.084435642 -0.064596005
0.22989145 -0.073872529 -0.057268053
-0.24074852 -0.047887467 -0.057265386
-0.2827583 0.0134056 -0.058043461
-0.20249641 0.013405599 -0.058626022
-0.10340606 0.0134056 -0.052558713
0.046031743 0.013405601 -0.053872108
0.057060815 0.013405601 -0.050730575
0.26450986 0.0134056 -0.057287354
-0.35508192 0.028467221 -0.05682639
-0.38513231 0.039804436 -0.052365661
-0.24654651 0.034327801 -0.053207975
-0.18978997 0.034327801 -0.054588813
-0.17124899 0.034327801 -0.053421445
0.065185726 0.034327801 -0.05497722
0.088590205 0.034327801 -0.058650605
0.19160423 0.034327801 -0.057188202
0.28022066 0.034327801 -0.058811676
0.316818 0.037782896 -0.055759117
0.37101668 0.034479029 -0.058070652
-0.33428699 0.04325074 -0.054700404
0.35837498 0.052337877 -0.059480723
-0.45212635 0.065079533 -0.057578132
0.40361238 0.069403924 -0.057589635
0.42848155 0.078786172 -0.050441317
-0.45542777 0.081491672 -0.055186749
0.24419791 -0.055729967 -0.044482715
-0.2204192 -0.044122711 -0.045032676
0.22928834 -0.042059708 -0.044331092
0.12023316 0.0134056 -0.047628239
0.16697067 0.0134056 -0.044089548
0.18502119 0.0134056 -0.049998522
0.21745932 0.013405601 -0.044224653
0.26524457 0.013405601 -0.046743408
0.29648739 0.013858688 -0.045904238
0.32798725 0.018829565 -0.045395255
-0.36339238 0.031602621 -0.046716493
-0.30829972 0.036176071 -0.04505413
-0.26097608 0.034327801 -0.040971424
-0.21910794 0.034327801 -0.041227058
-0.1779338 0.034327801 -0.046053383
0.066473536 0.034327801 -0.049863838
0.1272568 0.034327801 -0.040464908
0.13592806 0.034327798 -0.040579349
0.19614995 0.034327801 -0.04678436
0.20118293 0.034327801 -0.043592334
0.21615762 0.034327801 -0.041859381
0.27470705 0.034327801 -0.043851949
0.36101091 0.030703966 -0.047960352
-0.40712839 0.048102997 -0.04558415
-0.38864347 0.041129105 -0.047251292
-0.34995633 0.049162008 -0.049795061
-0.32700881 0.040606439 -0.044198815
0.33622974 0.043983288 -0.046012085
-0.42112231 0.053382382 -0.047188535
-0.37516093 0.058670871 -0.046828561
0.4352687 0.058719367 -0.044820234
-0.41427374 0.073426358 -0.040756166
0.46604952 0.071887001 -0.040370367
-0.44639593 0.085544676 -0.04632901
0.21655381 -0.068336733 -0.033282328
0.23964471 -0.0693736 -0.035291448
0.24225777 -0.066020459 -0.035428789
0.24413732 -0.055360112 -0.038686838
0.23690014 -0.044455208 -0.031790201
0.26016387 -0.0004612648 -0.033906713
-0.28435999 0.0030580717 -0.030983992
-0.20986992 0.0052821697 -0.037524
0.18526736 0.0032318844 -0.034256458
0.28205562 0.003273089 -0.037524004
-0.22100087 0.013405601 -0.032241061
-0.17742147 0.01101989 -0.037524
0.080292523 0.0134056 -0.032505706
0.19522336 0.0134056 -0.032421909
0.25955799 0.013405601 -0.0358155
0.2686038 0.013405599 -0.038402699
0.28573415 0.013448727 -0.034150694
0.32757533 0.018704783 -0.03498897
-0.38388264 0.039333127 -0.036960475
-0.094243333 0.034327801 -0.037718903
-0.031088427 0.034327801 -0.036600932
-0.025389247 0.034327801 -0.038095944
0.024222113 0.034327801 -0.034120809
0.031840101 0.034327801 -0.039999176
0.043391399 0.034327801 -0.032550521
0.25554517 0.034327801 -0.037638914
0.38280681 0.038927108 -0.036200866
-0.4116677 0.049815573 -0.031786606
-0.35066152 0.049428038 -0.037601393
-0.3410452 0.045800343 -0.031355135
-0.42447484 0.054647285 -0.031729281
-0.41256267 0.050153237 -0.034778643
-0.36993742 0.056700174 -0.035497673
0.43186855 0.057436608 -0.035025693
-0.38186762 0.06120104 -0.037334394
0.4435904 0.061858919 -0.035098244
-0.42034256 0.075715862 -0.036610462
-0.408025 0.07106892 -0.034982163
0.43203151 0.080125332 -0.039704598
-0.24402329 -0.054664321 -0.029237153
0.24447975 -0.057502579 -0.021239785
0.23174009 -0.042304117 -0.025018502
-0.24990705 -0.0010833933 -0.025148939
0.17529225 -0.0010160614 -0.024344783
-0.21687782 0.0029444401 -0.024851717
0.19883147 0.0029444401 -0.027551524
0.22771929 0.0029444401 -0.023456477
-0.30027992 0.014141858 -0.021234568
-0.17179 0.011426629 -0.023743123
-0.083719797 0.013405599 -0.025461469
0.2891674 0.013556558 -0.025052197
0.32239011 0.017448552 -0.028617537
0.34961215 0.026403867 -0.02296605
-0.30072367 0.035185322 -0.028488412
-0.12078542 0.034327801 -0.024062403
0.037312418 0.034327801 -0.029960172
0.068448752 0.034327801 -0.027054349
0.13036735 0.034327805 -0.026984118
0.28658363 0.034418538 -0.020836554
0.29243469 0.034602776 -0.025836799
0.32053524 0.038645077 -0.028221797
0.37303126 0.035239033 -0.025997866
0.38140127 0.038396969 -0.02715023
-0.33594733 0.043877129 -0.028831134
0.400475 0.045592621 -0.027949106
0.23888987 -0.069991782 -0.014855393
-0.20655844 -0.050096951 -0.010420368
0.24409798 -0.055120084 -0.013882909
0.18197545 -0.048166499 -0.013379489
0.18664208 -0.031446707 -0.011019078
0.19528082 -0.039147988 -0.012015268
0.25753349 -0.03123072 -0.011555774
0.21334577 -0.021523235 -0.013003773
-0.25348857 -0.01067633 -0.016979404
-0.24722637 -0.012188692 -0.016781587
0.20416865 -0.014396762 -0.016062308
0.26528999 -0.019909525 -0.015771704
-0.28047886 -0.0019998592 -0.013067088
-0.27428055 -0.009896026 -0.012692869
-0.21021685 -0.0011186367 -0.018052047
0.2401724 -0.0093344161 -0.017154928
0.20452477 0.0022221804 -0.018666528
-0.27958614 0.0134056 -0.016610559
-0.19968431 0.0134056 -0.018815538
-0.15961526 0.013405601 -0.018950351
-0.10796721 0.0134056 -0.019249709
-0.083195776 0.013405601 -0.014282764
-0.059644017 0.013405601 -0.012248885
-0.03879229 0.0134056 -0.016118132
-0.017984612 0.013405599 -0.014368489
0.07921949 0.013405599 -0.01527488
0.083783701 0.0134056 -0.017041612
0.17857376 0.013405599 -0.013137093
0.21432409 0.013405599 -0.013670339
0.24782343 0.013405601 -0.017662682
-0.3546797 0.02831581 -0.013424825
-0.33792207 0.021993339 -0.01751044
-0.28982848 0.034520712 -0.014205508
-0.27633154 0.034327801 -0.01883693
-0.26640883 0.034327801 -0.014230508
-0.24500003 0.034327801 -0.013418904
-0.18181358 0.034327801 -0.015363792
-0.16026005 0.034327801 -0.018767368
-0.12410526 0.034327801 -0.011468373
-0.087287351 0.034327801 -0.016306385
-0.079030842 0.034327801 -0.015268721
0.10467772 0.034327801 -0.01398962
0.11495793 0.034327801 -0.019775368
0.13100696 0.034327805 -0.017267022
0.16174711 0.034327801 -0.011251178
0.17157777 0.034327801 -0.013607439
0.20683369 0.034327801 -0.014836579
0.24655692 0.034327801 -0.010542758
-0.34626114 0.047768053 -0.018564425
-0.42540225 0.054997265 -0.012349186
-0.44148457 0.061064564 -0.015316159
0.38681117 0.063065819 -0.010344125
-0.41927588 0.075313389 -0.01778339
-0.45786113 0.089869991 -0.01667965
0.463552 0.090066373 -0.019124424
0.23229387 -0.07347919 -0.003951381
-0.21485159 -0.06291461 -0.0084602572
0.21495558 -0.060560606 -0.0068831937
-0.24436402 -0.056743748 -0.0093342643
-0.22433746 -0.050069954 -0.0071995263
-0.21513808 -0.055102684 -0.003796556
-0.19446947 -0.055066548 -0.0024553884
0.21884011 -0.05178469 -0.005111679
0.23534468 -0.053629473 -0.0071273232
-0.23910585 -0.045166425 -0.0071958499
-0.1902789 -0.049326077 -0.0037549129
-0.18968491 -0.049375031 -0.00026737479
0.20905051 -0.048166499 -3.7933656e-05
0.2382445 -0.046735182 -0.0072023356
0.24688476 -0.041515823 -0.0039099879
-0.24323957 -0.030067861 -0.0068805125
-0.27395815 -0.010306768 -0.0053177932
0.17679125 -0.01428766 -0.005847597
0.2666398 -0.019630294 -0.0022579515
-0.3290084 0.01913891 -0.0037800409
-0.31859046 0.016644329 -0.0071123
-0.1991273 0.013405599 -0.006266796
-0.131677 0.0134056 -0.0050549931
-0.099547148 0.013405599 -0.0067845201
-0.072872788 0.0134056 -0.0086089652
-0.0077589676 0.0134056 -0.0054833442
0.017370667 0.0134056 -0.0069097881
0.13225177 0.0134056 -0.0026941113
0.25739926 0.0134056 -0.0025141197
0.26276994 0.0134056 -0.0078804381
0.30384725 0.014408065 -0.0088742115
0.32346469 0.017675996 -0.00026077032
-0.36199868 0.031076923 -0.0021604635
-0.30783105 0.036108196 -0.0070931939
0.0091001913 0.034327801 -0.0086113866
0.039589107 0.034327801 -0.0044663139
0.048618011 0.034327801 -0.0024552392
0.26950604 0.034327805 -0.0025678053
0.3244189 0.039821573 -0.00033628149
-0.40562934 0.047537461 -0.0081762075
0.42663509 0.055462085 -0.0008522626
-0.40326163 0.069272153 -0.0016652234
0.44607458 0.085423149 -0.0061630709
-0.45961717 0.090532586 -0.0081005394
-0.2365039 -0.071801834 0.0042799423
0.22952753 -0.073932111 0.00015347358
-0.2158736 -0.067776412 0.0052686734
0.23599984 -0.06518285 0.0035747068
-0.24045959 -0.053219307 0.0044074208
0.19140397 -0.051162332 0.0049549229
0.21809989 -0.059075944 0.0093857478
0.22625062 -0.056088746 0.004631923
-0.21933001 -0.048166499 0.0048369598
-0.20297928 -0.042936001 0.0078438595
-0.1880227 -0.045187443 0.0019755661
0.17759101 -0.048166499 0.0010813372
0.22752136 -0.049110733 0.0072460901
-0.25270367 -0.031105796 0.0057879775
-0.24271737 -0.038750675 0.0071584578
0.25181758 -0.030651923 0.00025526164
-0.26384696 -0.023187699 0.0011901334
0.24079046 -0.025001794 0.00074596022
0.17352247 -0.0030249329 0.0062192576
-0.14302731 0.013405599 0.0029064585
-0.12349303 0.013405601 0.0053965189
-0.10476726 0.013405601 0.0055850968
0.078657821 0.0134056 0.0094433334
0.10553486 0.0134056 0.0055899778
-0.33920977 0.022479188 0.0096722916
-0.38228321 0.038729742 0.0030856375
-0.3769252 0.036708146 0.0034271851
-0.20480603 0.034327801 0.0092076957
-0.19780308 0.034327801 0.008489836
0.046512216 0.034327801 0.00041011348
0.20387694 0.034327801 0.0084674079
0.21516085 0.034327801 0.00013602525
0.22205338 0.034327801 0.0059159398
0.36699569 0.032961864 0.0049335472
-0.33011705 0.041677587 0.0028004434
0.3336007 0.042991441 0.0037236735
-0.35433233 0.050812915 0.0031214096
0.41977811 0.052875083 0.0081098303
0.43780503 0.059676196 0.0069343997
-0.46679437 0.086127609 0.0073499242
0.219192 -0.07094638 0.017330324
0.23065624 -0.073747315 0.012700255
-0.22063953 -0.062069274 0.015564202
0.2161236 -0.06808117 0.012626255
0.23619846 -0.069305047 0.0105413
0.24068737 -0.068205722 0.010709817
-0.20978831 -0.048166499 0.01151662
-0.19641636 -0.042935997 0.016018584
0.19611837 -0.04615429 0.012207326
0.19421537 -0.039285354 0.011578287
-0.24053891 -0.020565297 0.015175254
0.18145195 -0.025815135 0.014999447
0.2384755 -0.021479048 0.014670279
0.24647348 -0.027913511 0.010572655
0.260452 -0.027512841 0.011407066
-0.21264577 -0.01377316 0.01581578
0.18244533 -0.014213024 0.016517326
0.2157101 -0.01983612 0.010489889
0.22711286 -0.017993333 0.013145743
-0.25357774 -0.0094117504 0.017145466
0.25488314 -0.0041741803 0.017830687
-0.19139145 0.013405599 0.01508066
-0.13609844 0.0134056 0.010835187
-0.10717267 0.013405601 0.013522487
0.16513368 0.013405599 0.010155722
0.21067411 0.0134056 0.011777714
0.30032027 0.014144796 0.011567464
0.32289985 0.017556438 0.013365343
-0.35393837 0.028036289 0.010938563
-0.31723475 0.037871297 0.017236311
-0.23608845 0.034327801 0.01328494
-0.18211056 0.034327801 0.017620675
0.0044550747 0.034327801 0.010525635
0.1610349 0.034327801 0.018193167
-0.35666567 0.05169319 0.019217733
-0.44667441 0.063022688 0.011564597
0.37922108 0.060202226 0.0192047
-0.46783173 0.071004651 0.016613515
-0.41480726 0.0736278 0.011479355
0.4374052 0.082152784 0.016559798
0.21785238 -0.046858944 0.021134935
-0.26088476 -0.0033778888 0.028319411
-0.27272403 0.0039828271 0.024044249
-0.25154042 0.0012852405 0.028251961
0.28022298 0.0029444401 0.02443783
-0.28765064 0.013508952 0.025763487
-0.22530755 0.0134056 0.025616564
-0.10744899 0.0134056 0.022093143
0.065584064 0.013405601 0.025289053
0.088278838 0.0134056 0.024321916
0.16582917 0.0134056 0.023775397
-0.29451922 0.034722734 0.026926856
-0.23655564 0.034327801 0.020824701
-0.19706202 0.034327801 0.0273044
-0.1440362 0.034327801 0.027938947
-0.13723192 0.034327801 0.020179253
-0.021807879 0.034327801 0.029706754
0.046111338 0.034327801 0.021800753
0.11571149 0.034327801 0.020535145
0.25835484 0.034327801 0.02875774
0.28326008 0.034327801 0.029484011
-0.39847556 0.044838931 0.026509713
-0.33033434 0.041759558 0.029720142
-0.32755029 0.040770475 0.022815652
0.42481384 0.05477494 0.02401872
-0.45133919 0.064782582 0.021701969
0.45649493 0.06672737 0.024523102
0.42760441 0.078455515 0.023979399
-0.23660672 -0.071755387 0.034793273
-0.2438674 -0.05371296 0.036880765
0.21369094 -0.051934987 0.038470697
-0.23603237 0.0029444401 0.037447676
-0.20203277 0.0029444401 0.037130676
0.27155864 0.0042780265 0.031323478
-0.27886242 0.011009521 0.030720945
-0.26887095 0.0134056 0.037111394
-0.18426107 0.0134056 0.034975849
-0.097248659 0.0134056 0.030683374
-0.014902166 0.0134056 0.03533531
0.025331039 0.0134056 0.037320539
0.051788259 0.0134056 0.031183014
0.098814748 0.013405599 0.035323516
0.18783128 0.0134056 0.035449117
0.21846712 0.013405599 0.031779248
0.26059508 0.0134056 0.037504278
0.29800749 0.013972156 0.039320018
0.31952959 0.016843101 0.03170903
0.33397272 0.020642729 0.037487984
0.35183758 0.027243502 0.032217029
-0.33016652 0.036269054 0.038592547
-0.17160383 0.034327801 0.033270862
-0.14889655 0.034327801 0.035081331
-0.068503544 0.034327801 0.034986079
0.054600023 0.034327801 0.038948167
0.11410184 0.034327801 0.038609907
0.12967384 0.034327801 0.039457902
0.14033292 0.034327801 0.038091093
0.16277492 0.034327801 0.038183071
0.17408808 0.034327801 0.035792071
0.20393336 0.034327801 0.031560186
0.2533955 0.034327801 0.032509219
0.33145469 0.032856535 0.036212564
-0.42518905 0.054916888 0.032547358
-0.41952187 0.052778989 0.036321092
0.35871112 0.052464578 0.03086449
0.41898888 0.052577637 0.035983406
-0.39682719 0.066844538 0.037245225
0.45866928 0.067547657 0.033273146
-0.44396728 0.084628485 0.033103917
0.43552476 0.081443571 0.036485381
0.46163306 0.090836786 0.03004184
-0.10010584 0.0134056 0.042513847
-0.051719856 0.0134056 0.046255901
0.039697081 0.0134056 0.043365575
0.09131103 0.0134056 0.042450611
0.15027438 0.0134056 0.049972579
-0.35400262 0.028060552 0.04354313
-0.33520889 0.021017194 0.048026707
-0.11217608 0.034327801 0.048525464
-0.084957138 0.034327801 0.045321807
-0.050574124 0.034327801 0.042888358
0.0020751134 0.034327801 0.044202037
0.11317389 0.034327801 0.044676691
0.28264642 0.034327801 0.041695479
0.3323786 0.03040741 0.04075741
0.36883041 0.03365425 0.046205074
-0.39620894 0.06661126 0.045894053
-0.41450673 0.073514402 0.048789572
0.45437831 0.088556238 0.042264238
0.23618366 -0.071946591 0.054075159
0.21526162 -0.067027882 0.052185014
0.24428739 -0.059435934 0.054417774
-0.2431692 0.0134056 0.057884451
-0.16478027 0.0134056 0.051926009
-0.13390349 0.0134056 0.052511655
-0.12772092 0.013405601 0.056915667
-0.03555407 0.0134056 0.055446133
0.13740957 0.0134056 0.055327743
0.19520144 0.0134056 0.052481815
0.23384319 0.0134056 0.05625701
-0.3773593 0.036872007 0.051797491
-0.36733812 0.033091586 0.05041752
-0.29667035 0.034883115 0.058233738
-0.18457422 0.034327801 0.059665415
-0.14220092 0.034327801 0.055493157
0.026707711 0.034327801 0.051775225
0.093406834 0.034327801 0.056154568
0.11624752 0.034327801 0.054916099
0.13572004 0.034327801 0.054650113
0.19271661 0.034327801 0.053855889
-0.33882385 0.044962332 0.052641377
0.34029523 0.045517027 0.057574537
-0.43789843 0.059711795 0.053769298
0.43218488 0.057556022 0.053208608
-0.45383775 0.065725163 0.054184254
-0.41341841 0.073103793 0.055123799
0.42562798 0.077710018 0.059321985
-0.45123214 0.08736968 0.051753026
-0.4488844 0.086483918 0.055589821
-0.21405061 -0.064825051 0.065803006
-0.21777135 -0.046123713 0.060659721
-0.24319214 0.0134056 0.064018965
-0.21629363 0.013405599 0.061779048
-0.17415661 0.0134056 0.069906294
-0.030040095 0.013405601 0.066896707
-0.001198234 0.0134056 0.067824103
0.016987689 0.0134056 0.068070963
0.16793174 0.0134056 0.062686533
0.17667893 0.013405601 0.065680042
0.2137982 0.0134056 0.063845143
0.23692599 0.013405599 0.065810904
0.25225449 0.0134056 0.065819293
0.31490508 0.015910886 0.067107961
0.33148164 0.01988811 0.068039939
-0.33298841 0.025164224 0.068080947
-0.33225203 0.030741625 0.060603183
-0.29731613 0.034931265 0.061356224
-0.27394521 0.034327801 0.06792181
-0.22733286 0.034327801 0.069401413
-0.19494432 0.034327801 0.06507878
-0.17545012 0.034327801 0.062071264
-0.15036067 0.034327801 0.064601213
-0.010532483 0.034327801 0.066660181
-0.0087046325 0.034327801 0.067431234
0.090977944 0.034327801 0.065004282
0.16813387 0.034327801 0.061067022
0.17083733 0.034327801 0.06787245
0.23689844 0.034327801 0.060064342
0.28670061 0.034422219 0.069522269
0.34086204 0.045730859 0.060774069
-0.35927069 0.052676003 0.062272247
0.35236457 0.050070331 0.06031578
0.41895366 0.052564669 0.066283837
0.45256057 0.075846419 0.065770939
-0.45037019 0.08458674 0.063424885
0.2366544 -0.071733877 0.076863319
0.2416086 -0.066923767 0.075882547
-0.2444215 -0.057094492 0.070073642
0.2385118 -0.045612812 0.076232739
-0.30024713 0.01413941 0.077358365
-0.27215615 0.013405599 0.071528062
-0.23306344 0.0134056 0.077736884
-0.21155083 0.013405601 0.07064075
-0.17190805 0.013405601 0.074951261
0.13365284 0.0134056 0.07776615
0.22996432 0.0134056 0.070537522
0.29856646 0.01401388 0.079608306
0.34057915 0.022995805 0.079522632
0.352382 0.027448904 0.075151362
-0.22813609 0.034327801 0.070387453
-0.1272185 0.034327801 0.079222582
0.014824023 0.034327801 0.070574716
0.13900542 0.034327801 0.072484761
0.22739637 0.034327801 0.076438241
0.26503843 0.034327801 0.074461214
0.29673547 0.034887969 0.07041233
0.30155215 0.035247091 0.07117442
-0.40476713 0.047212321 0.078325458
-0.39273643 0.042673133 0.078513391
-0.34530789 0.04740848 0.07780093
0.35115939 0.049615651 0.070654631
-0.41472712 0.050970256 0.077952065
-0.36169586 0.053590931 0.078182347
0.42065495 0.053206515 0.07524094
0.38526002 0.06248039 0.072348461
-0.44146255 0.083684079 0.072215118
-0.23457631 -0.072181627 0.083914384
-0.31736124 0.016384156 0.081526771
-0.20970586 0.013405599 0.087758631
-0.14535065 0.0134056 0.082670256
-0.10129735 0.0134056 0.08593601
-0.082798243 0.0134056 0.085704491
-0.028999798 0.013405599 0.089320607
0.030471504 0.0134056 0.089843832
0.04871355 0.013405599 0.087542176
0.054333445 0.0134056 0.084194891
0.086914144 0.0134056 0.086547144
0.33452702 0.020810638 0.08079876
-0.19200699 0.034327801 0.087418437
-0.026471075 0.034327798 0.086701944
-0.40387154 0.046874382 0.083195403
-0.34497422 0.047282614 0.082583152
0.36471498 0.054729618 0.083653517
0.44258511 0.061479833 0.081946097
-0.43922913 0.081619456 0.080569744
0.23337691 -0.092085689 0.092442513
-0.20457925 -0.081055686 0.091535598
0.21336228 -0.089121692 0.093320638
-0.25806308 -0.075791039 0.095616847
-0.20161021 -0.079617731 0.093598522
-0.19676445 -0.071585983 0.094072245
-0.26249492 -0.052761465 0.093503356
-0.19760102 -0.051266443 0.091535598
0.24426411 -0.059669763 0.090751022
0.19585344 -0.046699472 0.098822147
0.21304575 -0.045005761 0.091535598
0.24174955 -0.049109899 0.095339157
-0.20249483 -0.035014413 0.098787665
0.21703143 -0.033307761 0.091535598
0.22422887 -0.033237319 0.091535598
0.24783327 -0.032868095 0.091535598
-0.24737197 -0.029153896 0.093062982
-0.23874982 -0.025037978 0.098786518
-0.28222245 0.013405599 0.094338201
-0.26474747 0.013405601 0.097590402
-0.1826171 0.013405601 0.095783971
-0.093417704 0.0134056 0.096538663
-0.05700817 0.013405601 0.099854536
-0.023394682 0.0134056 0.09302707
-0.012301762 0.0134056 0.099898368
-0.0071278736 0.0134056 0.097407907
0.23886988 0.0134056 0.091832325
0.27246144 0.0134056 0.091973796
0.28553236 0.01344239 0.093822338
0.30511355 0.014502589 0.099100389
-0.3358047 0.023093913 0.098367088
0.33319589 0.020407407 0.099061757
-0.27217573 0.034327801 0.092559323
-0.25852653 0.034327801 0.090560257
-0.16564755 0.034327801 0.096739367
-0.13639121 0.034327801 0.090115994
-0.062724479 0.034327801 0.091529146
-0.031922355 0.034327801 0.090215325
0.072867647 0.034327801 0.092213653
0.10134804 0.034327801 0.098716334
0.14407535 0.034327801 0.094956234
0.17743929 0.034327801 0.09198714
0.23302811 0.034327805 0.090128697
0.36761683 0.033196718 0.091883123
-0.41158926 0.049786177 0.096799642
-0.39965877 0.045284763 0.097804405
0.34978312 0.049096439 0.095911384
-0.41602585 0.051460136 0.092858918
-0.41060776 0.072043262 0.094246693
-0.23348238 -0.076659933 0.10573093
-0.22114334 -0.072245456 0.10315402
-0.24411997 -0.055254385 0.10758696
0.21388659 -0.051417176 0.1063173
-0.24255835 -0.044839114 0.10943695
-0.22351362 -0.03927106 0.10345728
-0.27880487 0.013405599 0.10192329
-0.033969261 0.013405601 0.1082368
0.024803653 0.013405599 0.10215861
0.23048516 0.013405601 0.10152812
0.28152144 0.013405599 0.10316894
0.29197466 0.013644729 0.10508236
0.34466723 0.024538202 0.10071523
-0.36146793 0.030877195 0.10018348
-0.25424206 0.034327801 0.1053023
-0.16688785 0.034327801 0.1099856
0.038499374 0.034327801 0.10845947
0.10867193 0.034327801 0.1083961
0.16304263 0.034327801 0.10205561
0.17509012 0.034327801 0.10289788
0.26969403 0.034327801 0.10096259
0.27057004 0.034327801 0.10093201
0.28666225 0.034421012 0.10248157
-0.40229285 0.046278503 0.1097204
-0.32534409 0.040102139 0.10144645
0.25386155 -0.081639156 0.11673714
-0.22537172 -0.073673479 0.11340369
0.23374841 -0.073046997 0.1157363
-0.21273845 -0.060689412 0.11808448
0.24142627 -0.069194101 0.11245801
-0.19450404 -0.05089891 0.11074118
0.20916621 -0.057110697 0.11694773
0.24433514 -0.058955804 0.11483493
0.25922155 -0.04243201 0.11587605
-0.21408936 -0.026641335 0.11116987
-0.32781488 0.018777365 0.11034031
-0.26811042 0.0134056 0.11449292
-0.24676827 0.0134056 0.11891577
0.067020103 0.0134056 0.11986529
0.12724037 0.0134056 0.11747697
0.29526207 0.01378975 0.11784143
-0.33983415 0.022714775 0.11180784
-0.38153994 0.038449548 0.11049081
-0.36063626 0.030563414 0.11331395
0.1330272 0.034327805 0.11639905
0.33157641 0.032533821 0.115548
0.38194704 0.038602829 0.11751373
0.33422956 0.043228693 0.1192162
0.39650592 0.044095013 0.11505509
-0.36665565 0.055462062 0.11451318
0.37702519 0.059373721 0.11435832
-0.41045898 0.067920163 0.11026613
0.3920013 0.065023705 0.11979561
0.40508634 0.066242814 0.11411107
0.25060016 -0.084361479 0.12076408
-0.24410625 -0.061247356 0.12436902
0.23686144 -0.065665387 0.128151
-0.24756853 -0.055703085 0.12963164
0.212568 -0.057268403 0.12379478
-0.2421914 -0.044390872 0.12489008
-0.23654008 -0.040457334 0.12668301
-0.22702473 -0.044624008 0.128151
0.21446475 -0.044526041 0.12329316
0.23931299 -0.043176562 0.128151
-0.2286678 -0.038650025 0.12466504
0.21678758 -0.025422812 0.12766984
-0.30975896 0.015165817 0.12517525
-0.25709149 0.0134056 0.12105276
-0.23154575 0.0134056 0.1266076
0.026717536 0.0134056 0.12677953
0.17879315 0.0134056 0.12966426
0.28179651 0.0134056 0.12409212
0.33095962 0.019729974 0.12262999
0.33558944 0.021896163 0.12504971
-0.33059025 0.03514602 0.12583292
-0.22004656 0.034327801 0.12793475
-0.16463879 0.034327801 0.12209436
-0.13448411 0.034327801 0.12038164
-0.074890248 0.034327801 0.12251158
0.032560758 0.034327801 0.12645938
0.21144785 0.034327798 0.12059702
0.23034176 0.034327801 0.12894551
0.32358605 0.039569274 0.12435
0.38092047 0.039660558 0.12779821
-0.39391524 0.043118116 0.12022005
0.39482796 0.043977756 0.12293891
-0.25320646 -0.082227506 0.1306126
-0.24280131 -0.089298017 0.13335609
-0.23555654 -0.082114339 0.13338099
0.21387361 -0.08829499 0.13338099
-0.21562423 -0.076498874 0.13338099
0.20983215 -0.075875796 0.13338099
-0.26300716 -0.055886067 0.132651
-0.25517899 -0.046630476 0.13338099
0.19519886 -0.048433051 0.13104177
0.24039467 -0.042863775 0.13276847
0.26032034 -0.044865116 0.13012736
-0.21812731 -0.034556445 0.13338099
-0.22506489 -0.027606286 0.13338099
-0.21243036 -0.027390759 0.13100399
-0.29473251 0.018095251 0.13338099
-0.28313944 0.016114855 0.13338099
-0.25623694 0.017387947 0.13338099
-0.21709716 0.019477095 0.13338099
-0.16291881 0.017128965 0.13338099
-0.12982807 0.014355871 0.13338099
-0.096152462 0.019252263 0.13338099
-0.062283948 0.014324125 0.13338099
0.10615501 0.018514879 0.13338099
0.23695838 0.013815376 0.13338099
0.2943269 0.013742346 0.13132051
-0.31969166 0.026015192 0.13338099
-0.072954573 0.02911716 0.13338099
-0.026775077 0.02231805 0.13338099
0.05601161 0.023516282 0.13338099
0.14857863 0.024338996 0.13338101
0.15577009 0.020461351 0.13338099
0.19874807 0.028357789 0.13338099
0.24394485 0.024917655 0.13338099
-0.35347652 0.031071041 0.13247567
-0.22585361 0.03155876 0.13338099
-0.18902999 0.034327801 0.13085669
-0.058080737 0.034327801 0.13326553
-0.032572746 0.031814698 0.13338099
0.11661528 0.030472763 0.13338099
0.23641707 0.03334707 0.13271978
0.32928681 0.038603015 0.13272156
0.35944736 0.038950004 0.13209644
0.34522831 0.044854701 0.13260496
0.37038332 0.048449427 0.13005702
