# .PCD v0.7 - Point Cloud Data file format
VERSION 0.7
FIELDS x y z
SIZE 4 4 4
TYPE F F F
COUNT 1 1 1
WIDTH 892
HEIGHT 1
VIEWPOINT 0 0 0 1 0 0 0
POINTS 892
DATA ascii
-0.28259832 -0.023352601 -0.120702
-0.15933569 -0.021205733 -0.12217905
-0.12261973 -0.021190409 -0.1221837
-0.062807657 -0.023537559 -0.120702
-0.016823269 -0.02156212 -0.120702
0.092482537 -0.021609487 -0.12202273
0.16698511 -0.02069463 -0.1223187
0.20404227 -0.022895183 -0.12148255
0.22401473 -0.020206485 -0.120702
0.23577857 -0.023830779 -0.12091178
-0.33901963 -0.010107083 -0.12027402
-0.31598878 -0.016693756 -0.12159286
-0.27858618 -0.015312153 -0.12136123
-0.26716137 -0.013451073 -0.120702
-0.25941995 -0.014767752 -0.120702
-0.23127097 -0.018591711 -0.120702
-0.21677271 -0.017267514 -0.120702
-0.065351531 -0.014429281 -0.12139177
-0.052840188 -0.018772028 -0.120702
0.0154431 -0.013452463 -0.12114183
0.047959022 -0.015616102 -0.12214538
0.056591701 -0.019738026 -0.12249947
0.079192124 -0.016126765 -0.120702
0.083581507 -0.016196234 -0.120702
0.17190997 -0.019357825 -0.120702
0.2036891 -0.016230602 -0.12231682
0.21463852 -0.015495343 -0.12115084
0.24623378 -0.018070519 -0.12075037
0.25341848 -0.018028015 -0.12262502
0.289976 -0.016724871 -0.12263287
-0.31662405 -0.0095253214 -0.1200823
0.33108407 -0.0076848003 -0.12114865
-0.27381468 -0.024123687 -0.11501091
-0.19956107 -0.024131484 -0.11021261
-0.12628548 -0.024465565 -0.11251084
-0.11651498 -0.024198536 -0.11835904
-0.096403256 -0.024490861 -0.11403584
0.069015831 -0.024199208 -0.11873339
0.085682407 -0.02468225 -0.11069755
0.20598277 -0.024124272 -0.1136885
0.24791041 -0.024125593 -0.11703257
0.30140868 -0.020210499 -0.11534733
-0.33632514 -0.014815982 -0.11396177
-0.28897154 -0.012664473 -0.11630674
-0.26175699 -0.012806201 -0.11045734
-0.23091725 -0.012806201 -0.11243466
-0.22430998 -0.012806199 -0.11175112
-0.20378307 -0.0128062 -0.11144818
-0.18624067 -0.012860621 -0.11360057
-0.1292429 -0.012806201 -0.1189931
0.08636681 -0.013157662 -0.11417281
0.12801345 -0.012959486 -0.11475791
0.13435565 -0.012806199 -0.11819282
0.17683768 -0.012845818 -0.11592747
0.19358276 -0.012806834 -0.11661286
0.20162283 -0.0128062 -0.11767848
-0.35058576 -0.0090783518 -0.11865219
-0.32970268 -0.0051155686 -0.11574075
0.32438385 -0.0039332579 -0.11132029
0.36856288 -0.0045412281 -0.11516988
0.38481009 -0.001258458 -0.11244824
0.37484515 0.002637258 -0.11381649
-0.11789727 -0.024853935 -0.10392748
-0.10764893 -0.024752026 -0.10755625
-0.068631351 -0.025542106 -0.10019561
0.18984528 -0.0241585 -0.10260133
0.19857764 -0.024120729 -0.10353599
0.2037804 -0.024121122 -0.10606093
0.22367862 -0.024124829 -0.10227937
0.23166297 -0.024125081 -0.10832849
0.25480986 -0.024125811 -0.10005511
-0.29425165 -0.012282347 -0.10856003
-0.25593176 -0.012806199 -0.10597657
-0.23723209 -0.012806201 -0.10982756
-0.22666478 -0.0128062 -0.10883561
-0.11792216 -0.013705825 -0.10100066
-0.0042344788 -0.014606982 -0.10450827
0.012081394 -0.014748922 -0.10112993
0.024337932 -0.014297834 -0.10462466
0.10623045 -0.013351269 -0.10945871
0.14401731 -0.013281482 -0.10215901
0.21599735 -0.0128062 -0.10207766
0.25892812 -0.012806201 -0.104012
-0.3898699 -0.0024289731 -0.10895435
-0.33975142 -0.0027908918 -0.10870682
0.30740798 -0.007544016 -0.10525861
0.36633688 -0.0064015272 -0.10336472
-0.40862781 0.0019106342 -0.10015031
-0.39293575 0.0089879278 -0.10836631
0.37954053 0.0077973879 -0.10444538
0.39478463 0.0028007424 -0.1086959
-0.28733313 -0.024039118 -0.097073339
-0.27848494 -0.024123089 -0.099136442
-0.23642594 -0.024122905 -0.094232999
-0.17189717 -0.024441231 -0.098851413
-0.14510556 -0.024903763 -0.093962379
-0.079892471 -0.025646469 -0.096603952
0.12922624 -0.024813201 -0.099529773
0.14045994 -0.024885362 -0.091742441
0.156927 -0.024553413 -0.097361133
0.17658573 -0.024340713 -0.094395354
0.21641062 -0.024122287 -0.092156127
0.27727774 -0.024041133 -0.090327464
0.28294995 -0.023650002 -0.099021934
-0.2586329 -0.012806201 -0.098658562
-0.2166222 -0.0128062 -0.093911566
0.028616473 -0.01513524 -0.093857981
0.050815213 -0.014798282 -0.094085775
0.1023742 -0.013948847 -0.097096696
0.1462532 -0.013515947 -0.090220913
0.18346527 -0.012954001 -0.090994097
0.2037615 -0.0128062 -0.099310935
0.21310437 -0.012806199 -0.094728686
0.2944881 -0.010292056 -0.097056538
-0.32531965 -0.0061295452 -0.097099245
0.30500585 -0.0080549493 -0.091755852
0.35547817 -0.0087109581 -0.09008155
-0.36428457 0.0028845924 -0.095262982
0.37597495 0.0070390427 -0.093407914
0.38495982 0.0089502446 -0.092945896
0.43347877 0.016053231 -0.093600161
-0.30575451 -0.021802105 -0.081369951
-0.21069182 -0.0241204 -0.086298414
-0.076956943 -0.026346255 -0.083839506
-0.015555987 -0.027195601 -0.088138863
0.004094908 -0.027828081 -0.080116689
0.037648194 -0.026604785 -0.089707375
0.064279623 -0.026432354 -0.084538355
0.11586791 -0.025474327 -0.084644683
0.15943573 -0.024729436 -0.082645424
0.16669786 -0.02460862 -0.083679184
0.17282721 -0.024523422 -0.080141313
0.28264254 -0.023670137 -0.085015044
-0.31779009 -0.01910411 -0.082658254
-0.30356103 -0.011013834 -0.089199029
-0.25608999 -0.0128062 -0.081412353
-0.15635619 -0.01367294 -0.080101639
-0.12282083 -0.014106771 -0.086877346
-0.11103193 -0.014395596 -0.084401071
-0.065912083 -0.01496667 -0.089770779
-0.050859671 -0.015529467 -0.083764374
0.056280114 -0.01531354 -0.083127365
0.23400596 -0.0128062 -0.089186132
0.24274206 -0.0128062 -0.085864753
0.31041846 -0.018294126 -0.083005227
-0.35153729 -6.4350897e-05 -0.084332146
0.33740607 -0.0011634362 -0.087050952
0.35964566 -0.0078246109 -0.084316634
0.3721253 -0.005170749 -0.082569525
0.38185033 -0.0031024769 -0.082940362
-0.41283852 0.0028847866 -0.086174831
-0.38489905 0.007653743 -0.084265009
0.43914226 0.0090826219 -0.087148473
-0.43840957 0.01068293 -0.088709794
-0.42645133 0.017266037 -0.081784129
0.44598967 0.010854401 -0.084393293
-0.31211269 -0.020417724 -0.074366719
-0.24041906 -0.024122372 -0.079993881
-0.21726398 -0.024120402 -0.073666498
-0.20625088 -0.024120402 -0.074252114
-0.18895102 -0.024406882 -0.070495211
-0.12707093 -0.025725488 -0.072529927
-0.11828461 -0.025729703 -0.079335809
-0.075101122 -0.026727378 -0.076064974
-0.049121432 -0.027394924 -0.074329346
-0.039496012 -0.027706979 -0.071829349
0.063900344 -0.026704386 -0.078862712
0.087510467 -0.026367445 -0.074908853
0.20514554 -0.024121227 -0.070111245
0.26713717 -0.024126198 -0.070495382
0.27274919 -0.024126377 -0.076253697
-0.32336357 -0.017814685 -0.071946591
-0.27113679 -0.012806201 -0.072998315
-0.22714901 -0.0128062 -0.078910656
-0.17532834 -0.013385102 -0.072944991
-0.14814469 -0.013967476 -0.073041894
-0.11814174 -0.014563706 -0.073845297
-0.10681906 -0.014822038 -0.074636258
-0.094524257 -0.015234379 -0.070394173
-0.0630996 -0.0157388 -0.075008214
-0.050748993 -0.015962996 -0.075652413
0.0042040292 -0.016662421 -0.07750012
0.10673864 -0.014564389 -0.076262891
0.19275165 -0.012829839 -0.073341288
0.22498542 -0.0128062 -0.074993007
0.27403119 -0.012787946 -0.076115578
0.28475481 -0.012066396 -0.077724628
0.29154572 -0.010932423 -0.077390119
-0.33799627 -0.0031969314 -0.079727359
-0.32192841 -0.0069140801 -0.070174359
0.32547772 -0.00370059 -0.078180254
-0.43903759 0.008945914 -0.077964514
-0.41592455 0.003599002 -0.076006666
0.3620519 0.0040777642 -0.07374087
-0.45218202 0.011986738 -0.074787676
-0.39858782 0.010820395 -0.076336719
0.41001767 0.014279625 -0.076787554
-0.45336235 0.02347138 -0.07479921
0.44524452 0.021771712 -0.071266338
0.45233658 0.022970337 -0.076906741
-0.30345181 -0.022285458 -0.061887287
-0.26288679 -0.02412189 -0.067181341
-0.25071612 -0.0241204 -0.060053859
-0.20150229 -0.024131453 -0.069889873
-0.18500274 -0.024528295 -0.062793002
0.0018093432 -0.028793719 -0.063755617
0.063279286 -0.027075665 -0.069542468
0.0848694 -0.02675318 -0.063899204
0.095035136 -0.026434168 -0.067047544
0.13722099 -0.025519898 -0.061178148
0.19003384 -0.024219057 -0.06385003
0.21305591 -0.024121827 -0.063928701
-0.20847332 -0.012806201 -0.064104289
-0.17621207 -0.013423235 -0.065618202
-0.14987387 -0.014044997 -0.065898441
-0.11595429 -0.014845733 -0.065465733
-0.054715119 -0.016313983 -0.064991966
-0.0064225812 -0.01741075 -0.066776887
0.010123963 -0.017242845 -0.064125136
0.033804514 -0.016663786 -0.064064361
0.14524971 -0.01395363 -0.06561967
0.16376281 -0.013485237 -0.068428218
0.18169598 -0.01310471 -0.062487498
0.22344138 -0.012806201 -0.066486523
0.27055633 -0.012806199 -0.064448319
0.28748465 -0.011630974 -0.06507083
0.33532995 -0.012996553 -0.067186221
-0.36796939 -0.0074957232 -0.060271073
-0.33149233 -0.0047015608 -0.066603296
-0.3192822 -0.007526252 -0.062002674
0.32981539 -0.002777969 -0.063969865
0.37571806 -0.0044066752 -0.067650452
0.38421735 -0.0025988836 -0.063027501
-0.40711197 0.001560197 -0.062411971
0.42917731 0.00696326 -0.069548428
-0.42140755 0.016099283 -0.068941139
0.41167158 0.01463154 -0.068150356
-0.46752167 0.020233179 -0.061634108
-0.44025612 0.020460045 -0.061889865
-0.2553162 -0.024121596 -0.059337571
-0.15023142 -0.025498705 -0.051221244
-0.11854638 -0.026239233 -0.058759011
-0.1089516 -0.026562713 -0.052508689
-0.082654931 -0.027237203 -0.054961644
-0.056565266 -0.027949087 -0.053046003
-0.013192926 -0.029078243 -0.054057997
0.065718479 -0.027374482 -0.058987223
0.19091795 -0.024206536 -0.054292396
0.2279309 -0.024122953 -0.059647091
0.2466909 -0.024124373 -0.053196803
-0.30180532 -0.011312748 -0.059616964
-0.27359939 -0.0128062 -0.050915182
-0.26346397 -0.0128062 -0.059792913
-0.15413527 -0.01410762 -0.050507184
-0.12431853 -0.014763946 -0.059203207
-0.068365879 -0.016394639 -0.050902203
-0.054483511 -0.016564898 -0.057610236
-0.018892433 -0.017555771 -0.056032028
0.016730351 -0.017298177 -0.058848094
0.025112137 -0.017208304 -0.054778609
0.072943151 -0.015877007 -0.058598142
0.11511521 -0.014864507 -0.053885277
0.12270942 -0.014613089 -0.058141112
0.26464552 -0.0128062 -0.054786749
0.34046406 -0.011904364 -0.056647625
-0.32296053 -0.0066753109 -0.057888005
-0.30861256 -0.0099543734 -0.058659967
0.29643774 -0.0098773744 -0.057849627
0.30829567 -0.0073552006 -0.058121741
-0.4060601 0.0013169444 -0.054991577
-0.3615396 0.0022495501 -0.053784676
0.4146232 0.0038679454 -0.057787601
0.42027944 0.0050708689 -0.056702677
-0.4698275 0.017447822 -0.057513624
-0.44525522 0.010384308 -0.053699546
-0.41881263 0.015499115 -0.056328751
-0.40463224 0.012218332 -0.051899474
-0.39604831 0.010232719 -0.054353602
0.44727135 0.01081161 -0.05187545
0.46526471 0.014638158 -0.059868313
-0.46690789 0.026625929 -0.055315297
-0.30296889 -0.022370376 -0.044698402
-0.2394924 -0.0241204 -0.045604233
-0.17451182 -0.024871493 -0.046423979
-0.094107039 -0.027069138 -0.046794243
-0.086874068 -0.02726683 -0.047727469
-0.022347761 -0.028967094 -0.049787063
-0.013781773 -0.029311974 -0.044605177
-0.001886843 -0.02940762 -0.049805187
0.03933515 -0.028353579 -0.046115521
0.13974464 -0.025609151 -0.040410843
0.18057311 -0.024493212 -0.043785468
0.22740665 -0.024122914 -0.04460888
-0.35532898 -0.010419895 -0.043666698
-0.30680901 -0.010338271 -0.047102623
-0.16252379 -0.013894839 -0.0456587
-0.14185113 -0.014459919 -0.044076197
-0.076096997 -0.016274892 -0.042731106
-0.033405751 -0.017416753 -0.047875434
0.19393332 -0.0128062 -0.047490299
-0.36968923 -0.0070976582 -0.047388699
0.29948276 -0.0092297019 -0.047676221
0.30687502 -0.0076573761 -0.043080688
0.37003666 -0.0056149866 -0.049688727
-0.40659332 0.0014403185 -0.041346915
0.4161813 0.015590479 -0.04455401
-0.26227728 -0.0241204 -0.030634554
-0.25081155 -0.0241204 -0.030196678
-0.17092049 -0.024969654 -0.039355151
-0.062277481 -0.028059088 -0.034238108
-0.058942497 -0.028150762 -0.034872666
0.024664603 -0.028904922 -0.034657154
0.068269953 -0.027660061 -0.038841456
0.11903774 -0.026235189 -0.038139906
0.13127434 -0.025890956 -0.035381332
0.16931629 -0.02481452 -0.037993953
0.18300685 -0.024435647 -0.033418439
0.2320181 -0.0241233 -0.034132063
0.25346497 -0.024124887 -0.039430059
0.26501057 -0.02412577 -0.030879887
-0.32462394 -0.017523129 -0.038480591
-0.29066354 -0.012568276 -0.036345318
-0.18682787 -0.013242772 -0.036062755
-0.07030905 -0.016510157 -0.039165851
-0.046875242 -0.017198341 -0.032825306
-0.027978094 -0.017700881 -0.039583065
0.0011911418 -0.018244356 -0.035016201
0.017159268 -0.017803399 -0.032409512
0.22313157 -0.012806199 -0.036354117
-0.33950108 -0.0028488114 -0.03225014
0.32098597 -0.0046559758 -0.033002071
0.38065264 -0.0033564721 -0.034258001
-0.3548848 0.0007100373 -0.038132358
0.36572936 0.0048602745 -0.037271813
0.4165948 0.0042873286 -0.033747632
-0.45906395 0.013578464 -0.039032318
0.43480068 0.019550167 -0.037774783
-0.45691907 0.024314811 -0.032359432
0.45100012 0.022995703 -0.032127075
0.47806856 0.02232923 -0.036100797
-0.31183726 -0.020481456 -0.028326757
-0.19568267 -0.024300685 -0.022304866
-0.12401349 -0.026345937 -0.025785971
0.033208892 -0.028719351 -0.022954505
0.052365199 -0.028173584 -0.022763886
0.10777145 -0.026585104 -0.026064333
0.11971715 -0.026247513 -0.02567563
0.18280236 -0.02444645 -0.022191212
0.254648 -0.024125436 -0.029412972
-0.33482945 -0.015162164 -0.025310496
-0.32422397 -0.017615689 -0.0227772
-0.2415497 -0.0128062 -0.024549212
-0.14243309 -0.014517961 -0.025335658
0.042002492 -0.017115846 -0.028662838
0.18717045 -0.012994209 -0.02922708
0.2950764 -0.010166921 -0.023959208
-0.33517307 -0.0038500538 -0.022169985
0.36178285 -0.0073703742 -0.023464147
-0.42552617 0.0058199894 -0.027013464
-0.36651465 0.0034007181 -0.025217839
-0.35332042 0.00034811976 -0.020636685
0.35152537 0.0018389735 -0.025654003
0.37502849 0.0068377955 -0.022417184
0.38037428 0.0079749189 -0.021181915
0.3974233 0.0002098109 -0.026796134
0.41567194 0.0040911431 -0.028078105
0.44324321 0.0099547468 -0.023686545
-0.47223875 0.016626857 -0.022196891
-0.42437589 0.016786151 -0.023757577
0.4004755 0.01225007 -0.023950072
0.41906345 0.016203078 -0.021479664
-0.21583247 -0.0241204 -0.01443724
-0.20626904 -0.0241204 -0.01006381
-0.15190183 -0.025551677 -0.014568174
-0.05898023 -0.028206822 -0.010419338
-0.035416976 -0.028880119 -0.018731115
-0.029833803 -0.029039655 -0.014548567
-0.012687188 -0.029529601 -0.013027701
0.12744865 -0.026028138 -0.016483288
0.14238033 -0.025601475 -0.01195067
0.24764214 -0.024123158 -0.018207487
-0.35372752 -0.010790445 -0.011929084
-0.30415648 -0.010902857 -0.013676975
-0.29697722 -0.011990884 -0.011100475
-0.252361 -0.0128062 -0.012670217
-0.24357226 -0.0128062 -0.012471176
-0.21977009 -0.012806199 -0.014319247
-0.19309008 -0.013070747 -0.017857324
-0.17992458 -0.01344687 -0.01894304
-0.15429071 -0.014179202 -0.017947551
-0.13241254 -0.014804238 -0.010887312
-0.10792579 -0.015503798 -0.015803427
-0.0081864474 -0.018353242 -0.018477727
0.029684594 -0.017496414 -0.012115392
0.087937832 -0.015832167 -0.015418462
0.13825244 -0.01439472 -0.012345625
0.22439413 -0.0128062 -0.015187146
0.24476518 -0.0128062 -0.013987124
0.25344262 -0.0128062 -0.019668045
0.28652939 -0.011795292 -0.018381558
0.30321243 -0.019826841 -0.013861842
-0.3134796 -0.0088686273 -0.017529406
-0.3097046 -0.0097219311 -0.014720608
0.31206542 -0.0065533766 -0.019613005
0.33357537 -0.0019788065 -0.011816129
0.35737541 -0.0083077187 -0.011299934
0.37399375 -0.0047728037 -0.018598482
-0.36887607 0.0039469004 -0.013571367
0.36008316 0.0036593967 -0.01493746
-0.42045546 0.015879439 -0.013508811
0.40399441 0.012998316 -0.016843041
0.42186669 0.016799325 -0.011841085
-0.48032022 0.027592901 -0.013847897
-0.46073774 0.025198128 -0.014538126
-0.45987299 0.024998203 -0.016390041
-0.31105256 -0.020663021 -0.0061106011
-0.22125247 -0.0241204 -0.004783967
-0.21957296 -0.0241204 -0.008624848
-0.2011413 -0.024144709 -0.0053588133
-0.16242051 -0.025251117 -0.0056484682
-0.11629207 -0.026569193 -0.00068123918
-0.065866433 -0.028010057 -0.0025748152
0.2268458 -0.024126399 -0.0021490315
0.25437558 -0.024124961 -0.0012052609
0.26453525 -0.024123337 -0.0059203263
-0.26762593 -0.0128062 -0.0090824626
-0.13389349 -0.014761928 -0.0069289296
-0.077365614 -0.016376868 -0.0063165938
-0.02200342 -0.017958505 -0.0067313863
0.1108338 -0.015178048 -0.0025038654
0.14827408 -0.01410841 -0.0082125533
0.16624884 -0.013594886 -0.0074809445
0.19753036 -0.012806201 -0.0048677884
0.27480704 -0.01277284 -0.007613312
0.2863282 -0.011829905 -0.0039982237
0.33020699 -0.014085744 -0.0061445413
-0.37415421 -0.0060646026 -0.0031919703
0.30361497 -0.0083507877 -0.0044625066
0.32814983 -0.0031326362 -0.003538413
-0.41440558 0.0032469444 -0.0047902614
0.35574448 0.002736561 -0.0034792516
0.42766309 0.0066413991 -4.9638096e-05
-0.47545224 0.017370135 -0.0034157685
-0.4597919 0.013747334 -0.0048444485
-0.42293563 0.016453145 -0.0007747151
0.40070057 0.012297584 -0.00071950816
0.46916637 0.015468724 -0.0098374616
-0.47394443 0.02825371 -0.00012307079
0.45328301 0.023481157 -0.0054051569
-0.29866049 -0.023043718 0.000151949
-0.28958142 -0.023926958 0.0046590008
-0.25997403 -0.0241204 0.0050999075
-0.23286884 -0.0241204 0.0021649799
-0.17798814 -0.024806287 0.0042853141
-0.15582994 -0.025439436 0.0082743363
-0.04268939 -0.028672315 0.0033183349
0.0017920465 -0.029618669 0.0010165619
0.092666402 -0.027022008 0.002397459
0.1171862 -0.026321378 0.0081598395
0.23214978 -0.024126399 0.0018893089
-0.32587481 -0.0172338 0.0063464493
-0.26539165 -0.0128062 0.0067454628
-0.24223708 -0.0128062 0.0066737905
-0.214265 -0.0128062 0.0089015942
-0.16107887 -0.013985271 0.0098425467
-0.15574366 -0.014137693 0.0092860619
-0.10506004 -0.015585669 0.0019619102
-0.077607587 -0.016369956 0.0059893313
-0.026837479 -0.017820403 0.0061909319
-0.0039273812 -0.018456683 0.0067446614
0.20283936 -0.0128062 0.0022867513
0.21681172 -0.012806201 0.0037161242
0.26487982 -0.0128062 0.00032265019
0.31452835 -0.017420411 0.0069484711
-0.33468646 -0.0039626281 0.00031941757
0.30592605 -0.0078592207 0.0055996608
0.33794093 -0.0010502602 0.0025671693
0.36674076 -0.0063156215 0.003359586
-0.42244262 0.0051063709 0.0028781854
-0.41865563 0.0042302758 0.00604707
-0.36686051 0.0034804824 0.0011743605
0.36706555 0.0051443446 0.003757061
0.38800094 0.0095968107 0.0014975653
0.40022573 0.00080574327 0.0054562897
0.41080719 0.0030561341 0.0010740738
-0.4826144 0.019590013 0.0055160439
-0.40414068 0.012105192 0.0070246607
0.46423554 0.014419816 0.0055981386
-0.46844244 0.026980704 0.0026364131
0.45578015 0.024012141 0.0028565442
-0.27997699 -0.0241204 0.0195785
-0.20942703 -0.024120402 0.014461641
-0.11823162 -0.02651377 0.017659266
-0.051396042 -0.028423533 0.017002374
0.035481527 -0.028656021 0.012966413
0.11839371 -0.026286874 0.019006284
0.20497155 -0.024124639 0.01449275
0.27197894 -0.024125425 0.013549695
-0.34236807 -0.013418402 0.013134189
-0.33951288 -0.014078883 0.014228605
-0.32703972 -0.016964339 0.017106356
-0.30624679 -0.010457939 0.018759489
-0.26606035 -0.0128062 0.014735221
-0.25157371 -0.0128062 0.019814212
-0.23766357 -0.012806199 0.012498418
-0.19783032 -0.012935324 0.019542644
-0.16662426 -0.013826846 0.015097985
-0.13950291 -0.014601674 0.011420519
-0.062556304 -0.016799955 0.017050024
-0.053760339 -0.017051246 0.019270698
0.12954685 -0.014643432 0.015003808
0.13967554 -0.014354063 0.016150966
0.18508735 -0.013056685 0.014254542
0.21040031 -0.0128062 0.010092096
0.24778308 -0.0128062 0.017299952
0.26017749 -0.0128062 0.010934467
0.31582502 -0.017144706 0.010793142
0.34267518 -0.011434158 0.017339487
-0.34355474 -0.0019110618 0.01789118
0.2994203 -0.0092429873 0.017598215
0.32496393 -0.0038103473 0.019018628
0.37878191 -0.0037546975 0.017790787
0.38184345 -0.0031035868 0.013141163
-0.43674746 0.0084160585 0.014236305
-0.44512069 0.010353151 0.017577313
0.45325106 0.012083596 0.012796877
0.46476668 0.014532589 0.012263533
-0.48221505 0.02005755 0.019135211
-0.47785866 0.029158942 0.016413556
0.45731121 0.02433772 0.013591111
-0.1471608 -0.025687149 0.020315245
-0.051369533 -0.028424289 0.027765775
-0.0030431561 -0.029733811 0.029952116
0.044905663 -0.028386734 0.022531185
0.057062577 -0.02803936 0.028833851
0.1689311 -0.02484281 0.024356155
0.28238955 -0.023688605 0.029081084
-0.25336772 -0.0128062 0.023644622
-0.24162896 -0.0128062 0.020791972
-0.20202932 -0.012815362 0.021427857
-0.19256851 -0.013085647 0.029346902
-0.17592412 -0.013561159 0.028296879
-0.15844893 -0.014060407 0.024316024
-0.11698157 -0.015245084 0.024114572
0.033387803 -0.017390616 0.027354334
0.041407693 -0.017161496 0.023847183
0.066706009 -0.016438745 0.022418708
0.089722529 -0.015781181 0.029108714
0.093330219 -0.015678111 0.022988312
0.1607272 -0.013752635 0.024583323
0.28173763 -0.012399306 0.02818564
0.30758235 -0.018897554 0.029594412
0.33474833 -0.013120039 0.021269754
-0.37325799 -0.0062721297 0.026555125
-0.36775681 -0.0075445063 0.026786927
-0.3490347 -0.00064319558 0.028047845
-0.3303569 -0.004964231 0.022622079
-0.31500518 -0.0085157044 0.026712103
0.32161263 -0.004523105 0.029743034
0.35091892 -0.0096804965 0.022394668
0.36699402 -0.0062618721 0.025074571
0.39229414 -0.00088119227 0.022572216
0.37351665 0.0065159895 0.025650086
0.41510606 0.0039709276 0.020263677
0.43516296 0.0082366168 0.020839725
-0.40770423 0.012929221 0.021491759
0.41366112 0.015054187 0.021351524
0.43137595 0.018821556 0.029318487
-0.45899877 0.024796197 0.026683958
0.45742601 0.024361925 0.02388371
0.46927196 0.026881577 0.025269995
-0.27644157 -0.0241204 0.030235196
-0.25214344 -0.0241204 0.039063577
-0.24670897 -0.0241204 0.03562618
-0.2335953 -0.0241204 0.031511035
-0.18429261 -0.024626143 0.033605631
-0.14996746 -0.025606949 0.034135923
-0.067416698 -0.027965758 0.031413991
0.068672881 -0.027707607 0.030610455
0.14285854 -0.025587812 0.031626906
0.15501326 -0.0252405 0.036559373
0.17722064 -0.024605943 0.0361984
0.20802391 -0.024125209 0.034434784
0.26282272 -0.024122005 0.038518399
0.28377682 -0.023540609 0.039248914
-0.334297 -0.015285573 0.037503541
-0.18705738 -0.013243094 0.033055723
-0.17641231 -0.013547212 0.036083527
-0.1669654 -0.013817101 0.030001055
-0.14121406 -0.014552787 0.038272597
-0.12580866 -0.014992904 0.033283286
-0.097177498 -0.015810866 0.034948703
0.069804236 -0.01635023 0.03051573
0.071380064 -0.016305208 0.031721983
0.15650994 -0.013873119 0.038048282
0.18954182 -0.012929425 0.031075072
0.24634919 -0.012806199 0.030422028
-0.38016289 0.0065580923 0.036519736
0.35958111 0.0035523644 0.033444136
0.36734957 0.0052043516 0.03660132
0.3727085 0.0063441717 0.038991228
0.4052901 0.0018832795 0.037502166
-0.44442362 0.010191887 0.036896888
0.47739387 0.017734949 0.036159627
-0.47682106 0.028790494 0.031922575
-0.29096571 -0.023839729 0.040280562
-0.27272934 -0.0241204 0.04759486
-0.22280176 -0.024120402 0.046942707
-0.12389165 -0.026306339 0.041514672
-0.061757963 -0.027976032 0.046027519
-0.019165073 -0.029080212 0.048672829
0.01070118 -0.029248651 0.040199146
0.043275651 -0.028329352 0.041604195
0.097200729 -0.026815707 0.044484485
0.15812576 -0.025123019 0.044624049
0.22541681 -0.024125602 0.040057492
0.27712598 -0.024047777 0.041796692
-0.34410128 -0.013017302 0.041856915
-0.33142561 -0.015949825 0.041420721
-0.32872558 -0.016574455 0.049481694
-0.30687046 -0.010325188 0.045651898
-0.095581271 -0.015799105 0.040535342
0.072983503 -0.016171025 0.042511288
0.17111899 -0.013454743 0.041509412
0.20524426 -0.0128062 0.044235539
-0.37687171 -0.0054362351 0.044582568
-0.43046483 0.0069622109 0.041563168
0.34757635 0.0009991203 0.047493227
0.35324576 0.0022049185 0.041598335
0.36774376 0.0052882535 0.044089738
-0.46623671 0.015238093 0.048866123
0.4619863 0.013941414 0.042671286
-0.3032915 -0.022313651 0.053635512
-0.22839868 -0.024120398 0.055927105
-0.18082958 -0.024687268 0.052294187
-0.17259607 -0.024888836 0.055590853
-0.13264801 -0.025955174 0.054079935
-0.11633606 -0.026414828 0.052540042
-0.075090833 -0.027437717 0.055560697
-0.058361694 -0.027811045 0.057534561
-0.048077092 -0.028143881 0.055040471
0.0022263783 -0.029032884 0.057721421
0.1291388 -0.025863525 0.051599398
0.20341614 -0.024121098 0.054700539
0.29743218 -0.0210563 0.050703749
-0.32726341 -0.016912702 0.051632412
-0.25502723 -0.0128062 0.059237275
-0.16635041 -0.013770322 0.05186335
-0.14895523 -0.014201961 0.054881271
-0.1145473 -0.015036111 0.058892526
-0.10945994 -0.015298946 0.050804541
-0.089562505 -0.015754508 0.05512378
-0.075421125 -0.016083825 0.057340339
0.16876552 -0.013443399 0.059386007
0.23501301 -0.012806201 0.059351522
0.31203806 -0.017949982 0.054787822
0.34676135 -0.010564979 0.052664511
-0.39460415 -0.0013335557 0.050977163
0.3075299 -0.007518074 0.05240339
0.332899 -0.0021225421 0.05495524
-0.38686484 0.0081083626 0.051737264
-0.35650504 0.0010850043 0.054667346
0.34721693 0.00092264812 0.052900389
0.3605119 0.0037501815 0.05530984
0.39633816 0.011369623 0.056966208
0.40443748 0.013092188 0.055203225
-0.45070443 0.022876721 0.053997725
0.44320196 0.021336958 0.050655309
0.46824107 0.020625653 0.05873736
0.4733966 0.021100877 0.053392757
-0.30017138 -0.022827897 0.069273844
-0.27027941 -0.0241204 0.060177624
-0.20309255 -0.0241204 0.066628188
-0.19416665 -0.02431256 0.065434493
-0.18296143 -0.024603669 0.061567869
-0.17652723 -0.024721544 0.067722395
0.05888183 -0.02720961 0.069658719
0.11401439 -0.02608976 0.063450783
0.2291325 -0.024125231 0.064393081
0.23698136 -0.024126187 0.069953576
0.27273056 -0.024123007 0.067928232
-0.34281343 -0.013315166 0.061294921
-0.3370434 -0.014650156 0.061593812
-0.27093166 -0.0128062 0.06121181
-0.10972147 -0.014977823 0.068862393
-0.0077477023 -0.017559413 0.063259102
0.051366638 -0.016293749 0.063967064
0.076198295 -0.015708838 0.062317267
0.098497115 -0.015059593 0.06646698
0.10993926 -0.014787206 0.06855385
0.25161147 -0.0128062 0.066916347
0.26974148 -0.012806199 0.062753916
0.29202849 -0.010839968 0.062312309
0.3433978 -0.011280362 0.066690989
-0.35017383 -0.0003798143 0.067046873
-0.32872331 -0.0053421198 0.068675958
0.33515176 -0.0016434016 0.060187835
0.35026658 -0.0098195327 0.066368774
-0.40498763 0.0010682447 0.069981158
-0.36739078 0.0036031171 0.06395191
0.34720656 0.00092032424 0.061734051
-0.45000893 0.011483582 0.062778257
-0.44560039 0.010463673 0.066707253
-0.42447656 0.016809342 0.067500107
0.39110538 0.010256875 0.06553901
0.45014188 0.011421856 0.066766724
-0.46476954 0.022769609 0.064546973
0.4667668 0.024384746 0.0617579
-0.30065888 -0.02275214 0.076169536
-0.28270838 -0.024097215 0.072591364
-0.27883279 -0.0241204 0.070999697
-0.2100313 -0.0241204 0.075940527
-0.19638664 -0.024246916 0.071392655
-0.1619612 -0.02497779 0.077242434
-0.05702626 -0.027376099 0.071639158
-0.022460107 -0.02781135 0.077034555
-0.017630279 -0.028224278 0.071590044
0.070427634 -0.026855107 0.072776042
0.082675941 -0.026444038 0.076918274
0.13888535 -0.025310041 0.074077554
0.15109086 -0.025093697 0.072146624
0.17286673 -0.024577718 0.076324396
0.29075155 -0.022445947 0.076159276
-0.33422911 -0.015301237 0.071735874
-0.28278559 -0.0128062 0.076311372
-0.25244701 -0.0128062 0.07940042
-0.24385455 -0.012806201 0.070095703
-0.14851715 -0.013959497 0.07707417
0.059781499 -0.015714474 0.07368274
0.11500429 -0.014397571 0.078699209
0.12165545 -0.014263337 0.07851176
0.22976355 -0.0128062 0.075382292
-0.38084435 -0.0045169056 0.075998671
-0.31494716 -0.0085291294 0.078403369
0.33587033 -0.0014907238 0.079245999
0.4216013 0.0053518633 0.072346807
0.40738726 0.013719765 0.079731867
0.45394352 0.015061086 0.079250284
-0.45809144 0.022017922 0.072430432
-0.4403407 0.020479286 0.075980924
0.44956869 0.022691451 0.079184771
0.45923501 0.021125007 0.073127694
-0.27104682 -0.024120402 0.084523723
-0.24983966 -0.0241204 0.086998768
-0.18963128 -0.0243531 0.083952278
-0.10667846 -0.025857195 0.084755711
-0.075829983 -0.026619446 0.080171876
-0.00443382 -0.02790837 0.081039637
0.13161492 -0.025383756 0.080483124
0.14102113 -0.025122818 0.082036257
0.15862772 -0.02483166 0.081306316
0.22367489 -0.024122629 0.088527232
-0.27529585 -0.0128062 0.082437038
-0.23338784 -0.0128062 0.082670785
-0.10924058 -0.01456082 0.083132163
-0.015342747 -0.016419491 0.080783576
0.11552521 -0.014143638 0.088583976
0.1299535 -0.013846459 0.089443021
0.23545049 -0.0128062 0.085878335
0.26149574 -0.0128062 0.087404728
-0.38896632 -0.002638109 0.080629937
0.37918484 -0.0036692726 0.089934021
-0.4131813 0.014196351 0.084659189
0.44240397 0.021167709 0.085002676
-0.27040178 -0.0241204 0.099545099
-0.26914304 -0.0241204 0.090246938
-0.25809807 -0.0241204 0.093564332
-0.17321178 -0.024529969 0.093616866
-0.1524003 -0.024907321 0.092249297
-0.087061852 -0.025755968 0.093603268
-0.050799832 -0.026519518 0.090240687
-0.037571486 -0.026511371 0.092993468
0.0094466573 -0.02633927 0.098710619
0.013690393 -0.026736945 0.093044169
0.059551794 -0.025812501 0.097363606
0.13510051 -0.024931382 0.095649652
0.29946905 -0.020623166 0.093797565
-0.28368536 -0.012797557 0.09563759
-0.23861834 -0.012806199 0.096019045
-0.21832129 -0.0128062 0.098628327
-0.15144011 -0.013442087 0.097785734
-0.12846775 -0.013978189 0.090705559
-0.10323593 -0.014283523 0.092871539
-0.097238749 -0.014220806 0.096409351
0.04109294 -0.014979425 0.093931891
0.062966615 -0.014668157 0.094928458
0.11090663 -0.013986185 0.095279142
0.24060982 -0.0128062 0.090656199
0.2615957 -0.0128062 0.094130181
0.29380336 -0.010450275 0.092245772
-0.39181489 -0.001978673 0.099704735
-0.35769582 -0.0098723695 0.095393464
-0.33283782 -0.004390358 0.098536842
0.31601387 -0.0057138084 0.091379739
-0.35440838 0.00059994753 0.093729079
0.42642936 0.0063788379 0.090795986
0.4294183 0.016839761 0.095238723
-0.24238455 -0.0241204 0.10581484
-0.20260817 -0.024120402 0.10947096
-0.19171609 -0.024210034 0.10833137
-0.1839658 -0.024345702 0.10040113
-0.1515384 -0.024560492 0.10529827
-0.037260395 -0.025936287 0.10071643
0.030133775 -0.025805607 0.10266286
0.15329306 -0.024469241 0.10833809
0.21168022 -0.024121722 0.10873625
0.23350358 -0.024123374 0.10405402
0.24996166 -0.02412462 0.10698918
0.2728301 -0.024125727 0.10954288
-0.30254209 -0.011190236 0.1051434
-0.2563456 -0.0128062 0.10044178
-0.24426474 -0.012806201 0.10569751
-0.16454607 -0.013209021 0.10344816
-0.13458753 -0.013528246 0.10182334
-0.062889859 -0.013809063 0.10851838
-0.034403168 -0.014454633 0.10347346
-0.017452532 -0.014113862 0.10852239
0.16607246 -0.012992051 0.10995875
0.32574078 -0.015035689 0.10878565
-0.34167805 -0.0023451098 0.1034772
-0.39930379 0.0015015217 0.10708188
-0.35823414 0.0014847759 0.10934984
0.40504333 0.0041127484 0.10570581
-0.39750734 0.010570226 0.10294643
0.4052577 0.011270165 0.10610965
-0.27456909 -0.0241204 0.11981618
-0.1539399 -0.024222188 0.11934966
-0.085061923 -0.024903249 0.11018799
-0.024625737 -0.024908269 0.11332233
-0.01337593 -0.024265837 0.11950809
0.032558072 -0.024557143 0.11630516
0.055490013 -0.024752876 0.11403053
0.092793509 -0.024799407 0.11034779
0.16895901 -0.024179334 0.11735632
-0.34022701 -0.013913616 0.11205015
-0.33345219 -0.014683055 0.11976054
-0.31717753 -0.019246051 0.11632151
-0.2361941 -0.0128062 0.11723486
-0.16653527 -0.012891259 0.1169036
-0.12394439 -0.013330689 0.11003686
-0.11604179 -0.013007132 0.1170422
-0.095554262 -0.01295682 0.11953373
-0.034943476 -0.013452177 0.11436526
0.058121681 -0.013594095 0.11151181
0.075110368 -0.013107929 0.1167051
0.080193736 -0.01290893 0.11993476
0.091101617 -0.013045421 0.11730641
0.15974481 -0.012885612 0.1199507
0.22644283 -0.0128062 0.11214929
0.30973274 -0.01844023 0.1162937
-0.38613525 -0.0024563619 0.11096092
-0.37573242 -0.0017626861 0.1130719
-0.36454347 -0.0051393206 0.11533903
-0.35991701 -0.0027078791 0.11592288
-0.32194763 -0.0069096405 0.11051894
-0.37379339 0.0022254225 0.11479242
0.3459498 0.00065322872 0.11476775
0.37595758 0.0056960545 0.11325683
0.38466871 0.0065118638 0.11129861
-0.27899724 -0.022208488 0.12070858
-0.26053479 -0.022504471 0.1216834
-0.22975267 -0.023627341 0.12069374
-0.20182621 -0.022571906 0.12164949
-0.19768921 -0.022307171 0.12070766
-0.13013326 -0.021505646 0.1220987
-0.054642156 -0.023656946 0.12102334
-0.039955907 -0.023057889 0.12069809
-0.020133486 -0.023377281 0.12069507
0.021320885 -0.022655303 0.12070447
0.08061935 -0.020946678 0.12227543
0.10162963 -0.021284856 0.12071624
0.11529686 -0.021576017 0.12071328
0.17984468 -0.022067787 0.12188064
0.19251715 -0.023872036 0.12069042
0.26276481 -0.023588628 0.12069347
-0.27523205 -0.014625527 0.12077826
-0.20849675 -0.01699445 0.12075564
-0.1504361 -0.015614759 0.12220697
-0.074020699 -0.018298909 0.12262534
-0.053447217 -0.019917915 0.12072778
-0.040619005 -0.016198274 0.12076293
0.047314674 -0.012883198 0.12015023
0.084900297 -0.01470853 0.1215202
0.098431349 -0.013000308 0.12079322
0.12151766 -0.015902005 0.12076654
0.1474563 -0.014303628 0.12078123
0.17754686 -0.012887349 0.1208513
0.18412444 -0.015239988 0.12077214
0.22830757 -0.013626478 0.121334
0.27103257 -0.019668477 0.12073022
0.29746822 -0.012680542 0.1222349
0.30530453 -0.0080065569 0.12049773
