# .PCD v0.7 - Point Cloud Data file format
VERSION 0.7
FIELDS x y z
SIZE 4 4 4
TYPE F F F
COUNT 1 1 1
WIDTH 902
HEIGHT 1
VIEWPOINT 0 0 0 1 0 0 0
POINTS 902
DATA ascii
-0.36775297 0.0086978525 -0.13563254
-0.34654549 0.0049674297 -0.13842449
-0.27569175 0.0045852428 -0.13871399
-0.26996133 0.0095865242 -0.13907056
-0.21471775 0.0011613464 -0.13363805
-0.19148335 0.0012020348 -0.13144279
-0.16531497 0.0010870732 -0.13566454
-0.13844129 0.0049531031 -0.13907473
-0.092544034 0.0010967967 -0.13368978
-0.011299223 0.0085343337 -0.13907659
0.019597471 0.0084142247 -0.13907732
0.020609625 0.004715642 -0.13907625
0.091349155 0.0049444921 -0.13907757
0.12267523 0.0008891616 -0.13769138
0.13663843 0.0010018894 -0.13269684
0.21786119 0.00083182182 -0.13802516
0.24470408 0.0008792883 -0.13546984
0.27206919 0.00080848666 -0.13782723
0.29204082 0.005757967 -0.13908301
0.32136416 0.00079800625 -0.1372001
-0.28067267 0.010336923 -0.13849178
-0.23883839 0.010564392 -0.13275602
-0.18536887 0.01074358 -0.13076046
-0.036366507 0.011034662 -0.13516082
0.06542778 0.011232777 -0.13820264
0.086540088 0.011285512 -0.13827653
0.12314692 0.011410456 -0.13680185
0.36234763 0.011468602 -0.13631393
0.37694541 0.015215533 -0.13436592
-0.36914232 0.0065465746 -0.12517764
-0.26106256 0.0014395246 -0.12305623
-0.25027746 0.0013956664 -0.12464953
-0.22004257 0.0012724784 -0.12912607
-0.19689795 0.0013053939 -0.12725635
-0.18434201 0.0013839176 -0.12371621
-0.17554419 0.0013173292 -0.12629876
0.079982728 0.0012421083 -0.12391786
0.097056903 0.0010990719 -0.12950467
0.23518166 0.0011273373 -0.125348
0.38222894 0.0069093327 -0.12190879
-0.39683127 0.011772568 -0.12156249
-0.15223332 0.011008315 -0.12217234
-0.10855323 0.011120393 -0.12218291
-0.093687132 0.011177294 -0.12128939
-0.068184048 0.011241693 -0.12134527
-0.049803659 0.011156769 -0.12766768
-0.020205468 0.011320876 -0.12345786
0.022337914 0.011483686 -0.120902
0.15412381 0.011692217 -0.12713394
0.22420123 0.011969791 -0.12247461
0.2828128 0.012007128 -0.12789649
0.33123541 0.012187677 -0.12520762
0.36703578 0.016326964 -0.12639138
0.39869866 0.021446005 -0.1247386
-0.36576408 0.0060724211 -0.11892805
-0.26874226 0.0016521176 -0.11437082
-0.22109833 0.0015396323 -0.11802617
-0.21206754 0.0015213465 -0.11859265
-0.19697855 0.0015787043 -0.11587909
-0.17165649 0.0016473526 -0.1124747
-0.069010973 0.0015307359 -0.11511548
-0.0092607737 0.0014585603 -0.11683141
0.015485913 0.0015082338 -0.11422943
0.023444563 0.0013742279 -0.11963692
0.18952394 0.0013320716 -0.11780912
0.38866928 0.0079429299 -0.11587965
-0.33403176 0.010754109 -0.11139821
-0.22590379 0.010954348 -0.11569403
-0.17387682 0.011153488 -0.11256665
-0.1671291 0.011129151 -0.11456059
-0.095548488 0.011384565 -0.11114608
-0.063382462 0.011417091 -0.11354597
0.032676265 0.011572352 -0.1179323
0.26112169 0.012202246 -0.11589597
0.36724308 0.016526869 -0.11850968
0.40912607 0.010788523 -0.11998684
0.41888481 0.023047417 -0.11364383
-0.27261141 0.0018091205 -0.10791763
-0.23873022 0.0018720176 -0.10456803
-0.17381693 0.0019366663 -0.10047603
-0.11450949 0.001828157 -0.10371422
-0.087613434 0.0017731932 -0.10542233
-0.033311531 0.0017357254 -0.10581078
-0.01150474 0.0016989249 -0.10687248
-0.0045139343 0.0016732523 -0.10779051
0.013558939 0.001626013 -0.10936739
0.10646754 0.0017415285 -0.10255364
0.14333788 0.0015492794 -0.10976229
0.24971037 0.0016593271 -0.10288574
0.25960755 0.001565021 -0.10652123
0.37284648 0.0059263585 -0.10290422
-0.40741467 0.014134938 -0.10524457
-0.24222635 0.011210879 -0.10141621
-0.22003691 0.011103438 -0.10928414
-0.004429847 0.011714661 -0.10656212
0.024987966 0.01175241 -0.10837419
0.14988539 0.012197936 -0.10242282
0.20462997 0.012314345 -0.10358691
0.25351885 0.012459779 -0.10264255
0.2625615 0.012522235 -0.10076719
0.30662459 0.012446877 -0.10979047
0.3489871 0.013822544 -0.10777085
0.42503461 0.013269978 -0.10889735
0.41168281 0.023991706 -0.10294205
0.42503232 0.021526366 -0.10891144
-0.35537887 0.0048081726 -0.091799714
-0.34083614 0.0020361291 -0.099938206
-0.22645652 0.0021329615 -0.09343911
-0.063168056 0.0020914765 -0.091643572
-0.052158929 0.0019373499 -0.097822964
-0.0035233498 0.0019875392 -0.094684139
0.0080094859 0.0019844112 -0.09456557
0.048192825 0.001915006 -0.096588269
0.088646904 0.0018647404 -0.097808279
0.10237897 0.0020182724 -0.091119893
0.11030974 0.0020095429 -0.091312245
0.17595017 0.0019011309 -0.094409764
0.200205 0.0018142716 -0.097502783
0.21661393 0.001893428 -0.093853183
0.24107973 0.0017980039 -0.097031176
0.31954217 0.0016709823 -0.092385076
0.3274385 0.0016374519 -0.093032047
-0.39045289 0.01868014 -0.098075137
-0.37473509 0.016225096 -0.097435236
-0.35996479 0.013860218 -0.099632919
-0.34874469 0.012173709 -0.095984727
-0.31932077 0.011042357 -0.099255815
-0.11027882 0.011788605 -0.090008393
-0.014778338 0.011884576 -0.097162113
0.027282096 0.012076121 -0.093172342
0.091935746 0.012191068 -0.095624954
0.11124779 0.012244904 -0.095424742
0.16969657 0.012303627 -0.099803612
0.23536202 0.012630801 -0.092229307
0.29509634 0.012723577 -0.095137417
0.34656382 0.013640441 -0.097978629
0.35925996 0.015720516 -0.096016586
0.42989284 0.01428363 -0.091905944
0.44125736 0.01847297 -0.094950639
-0.20575576 0.0023331414 -0.084658235
-0.17713836 0.0022827219 -0.086140022
-0.1483939 0.0022711523 -0.08600159
-0.13536426 0.0023335074 -0.083124399
-0.077588886 0.0022050422 -0.08722648
-0.050889708 0.002234024 -0.085443854
-0.013383925 0.002306923 -0.081599645
0.0026450083 0.0021790916 -0.086575978
0.068116874 0.0022099449 -0.083878957
0.11814444 0.0020513982 -0.089400619
0.14418423 0.0020765217 -0.087792851
0.18819152 0.002061893 -0.087452509
0.19813433 0.0021445255 -0.083797686
0.20102398 0.0020662181 -0.086995602
0.24665867 0.0019286505 -0.089197189
0.28659597 0.0019025896 -0.084759079
0.31820351 0.0018910588 -0.080758058
-0.3892777 0.011207819 -0.087305389
-0.25013742 0.011514131 -0.085482158
-0.2354307 0.011477673 -0.089267969
-0.16491741 0.011765713 -0.084384188
-0.03186883 0.012152107 -0.082263626
-0.028967112 0.012059998 -0.087026298
0.11329823 0.012561698 -0.080523878
0.13566956 0.012557162 -0.083491944
0.16145088 0.012603912 -0.084426209
0.21161947 0.012819034 -0.080305889
0.28974661 0.012859556 -0.088015482
0.3678143 0.017356936 -0.083582081
0.42004988 0.02577804 -0.082000569
0.44673884 0.029982593 -0.085842595
-0.37469563 0.0088448394 -0.073276065
-0.35951415 0.0059067598 -0.078237593
-0.27417749 0.0026520302 -0.07285773
-0.22131689 0.0026578913 -0.071473315
-0.16465399 0.0026187266 -0.071881473
-0.040875867 0.0025002183 -0.074145101
0.16920361 0.0024832543 -0.070319191
0.22382265 0.0021929927 -0.078334704
0.27273479 0.0021732729 -0.072243989
0.29577422 0.0021217263 -0.071645156
0.30678454 0.0020940935 -0.071520105
0.37681931 0.0070341276 -0.074184939
-0.4276585 0.018618066 -0.075487047
-0.34136331 0.011474407 -0.075132072
-0.25214863 0.011816494 -0.070379272
-0.24670349 0.011712855 -0.076202005
-0.22834828 0.01180849 -0.074004814
-0.034827016 0.012300456 -0.074803963
0.16654518 0.012810633 -0.075164706
0.17086184 0.012750172 -0.078587502
0.23845951 0.012976761 -0.076062068
0.25111312 0.013115012 -0.071005225
0.26191863 0.012972621 -0.079144917
0.28372464 0.013137801 -0.073915154
0.29101437 0.013221292 -0.070792653
0.32941198 0.013300352 -0.071685567
-0.45145822 0.028692421 -0.077162772
0.43729892 0.028639279 -0.077674545
0.45060959 0.030780219 -0.077519409
-0.34543043 0.0036812813 -0.062365606
-0.25524595 0.0028186629 -0.065511748
-0.2357043 0.0028118733 -0.065372832
-0.22742403 0.0027760617 -0.06668517
-0.16958274 0.0028869887 -0.060818993
-0.08590661 0.0027747648 -0.063686125
0.039516166 0.0027445264 -0.06223923
0.083401412 0.0026921579 -0.063472785
0.13902476 0.0026472427 -0.064142779
0.14745405 0.0025443654 -0.068244115
0.16151091 0.0026541373 -0.062670499
0.18104631 0.0025727949 -0.064184546
0.25429091 0.0023648187 -0.064650141
0.28231806 0.0023736639 -0.060077891
-0.38428691 0.014632521 -0.062954411
-0.36821753 0.015898168 -0.063742921
-0.34148064 0.011643985 -0.066811301
-0.23591545 0.011983184 -0.064408906
-0.20836481 0.012112553 -0.061806362
-0.15043876 0.012133034 -0.068594724
-0.10769708 0.012350043 -0.06347084
-0.098011002 0.012338711 -0.065204009
-0.057654299 0.012393462 -0.067547962
0.003420949 0.012514414 -0.06927333
0.012732998 0.012625132 -0.065122515
0.18843856 0.013151977 -0.061529621
0.19497617 0.013112849 -0.064205252
0.22674251 0.013217407 -0.063110359
0.24479513 0.013317693 -0.060533501
0.34895307 0.014681942 -0.066858627
0.36407107 0.017165778 -0.064192459
0.37194011 0.018400621 -0.065548919
0.38018188 0.019698333 -0.066764325
0.42510855 0.014162656 -0.061991397
0.43267331 0.028209522 -0.062870719
-0.33541188 0.0031549034 -0.053242177
-0.29982045 0.0031047924 -0.054560665
-0.18515684 0.0031116854 -0.051799968
-0.15192479 0.0030740374 -0.05265047
-0.068019748 0.0030578668 -0.051513568
0.17178917 0.0028386293 -0.051256906
0.32159597 0.0023594946 -0.055097334
-0.4045352 0.01475996 -0.057785735
-0.38848472 0.019170443 -0.059412193
-0.35135826 0.013395185 -0.056753784
-0.33062008 0.011988658 -0.051398352
-0.3054364 0.011917045 -0.058313087
-0.27406839 0.01200982 -0.057919897
-0.26547042 0.01204274 -0.057473235
-0.21178778 0.01220718 -0.056700327
-0.01878693 0.012798544 -0.052951623
0.0050721783 0.012831941 -0.054288201
0.032155842 0.012985203 -0.050287902
0.062911302 0.012979379 -0.054348674
0.081888482 0.013095891 -0.051109336
0.10495418 0.013101898 -0.0536585
0.18779477 0.013275835 -0.055526018
0.21864659 0.013337349 -0.056377679
0.26206788 0.01357506 -0.050352134
0.33566761 0.013764939 -0.050193213
0.41666761 0.013054619 -0.056785524
-0.34181881 0.0033310894 -0.049268261
-0.23381032 0.0033972985 -0.04095839
-0.22921893 0.0033575252 -0.042515252
-0.039565817 0.0031794165 -0.045839123
0.0094900876 0.003117963 -0.047339369
0.023976207 0.0031457315 -0.045870721
0.03643842 0.0031856026 -0.043941896
0.13768175 0.0030529913 -0.044727087
0.15168144 0.0030628315 -0.042151973
0.18469262 0.0029468662 -0.043556079
0.37611482 0.0074105021 -0.048825637
-0.42425847 0.018697085 -0.04642776
-0.31794441 0.012196177 -0.042947546
-0.2929672 0.012219932 -0.045140363
-0.28542361 0.012266147 -0.043873779
-0.26071936 0.012263335 -0.047299333
-0.24731109 0.012436287 -0.040638126
-0.18500249 0.012566881 -0.042696953
0.05478967 0.013181549 -0.043679595
0.10535144 0.013261881 -0.046055004
0.13235995 0.013420453 -0.041791432
0.14367808 0.013467737 -0.040921599
0.22624351 0.013672695 -0.041271467
0.26700556 0.013659252 -0.046886977
0.32401896 0.013762482 -0.048891168
0.33646423 0.013799105 -0.048653729
0.34967685 0.015297673 -0.043228883
0.37744632 0.019813171 -0.040552385
0.45005304 0.018083047 -0.043025453
-0.46838599 0.026919784 -0.048898309
-0.44500342 0.028298721 -0.047179382
-0.4139607 0.023485377 -0.044204075
0.38413975 0.020775709 -0.045863453
0.39250985 0.022094935 -0.047036074
0.45753542 0.032609399 -0.043614339
0.46972114 0.033637263 -0.046240136
-0.25249436 -0.0044505047 -0.032697581
-0.24172856 -0.0044002957 -0.030008791
0.25381744 -0.006013561 -0.037211418
-0.30982816 0.0036843931 -0.03064549
-0.21110094 0.0034941551 -0.036435947
-0.1941624 0.00090041826 -0.037340149
-0.18506953 0.0021898884 -0.037067249
-0.16838901 0.0035878231 -0.031614725
-0.09601336 0.0034196887 -0.037053429
-0.013303351 0.0033678056 -0.037429158
0.012861535 0.0034702697 -0.0325987
0.034399584 0.0034357393 -0.033571687
0.083207272 0.0033369272 -0.036632668
0.2086301 0.0030000685 -0.037198745
-0.41035154 0.016290447 -0.039312895
-0.32137802 0.012352778 -0.034814402
-0.28265473 0.01238556 -0.038398817
-0.17581594 0.012705993 -0.037122071
-0.086637974 0.013039453 -0.0328811
-0.078529514 0.012951823 -0.038265377
-0.069318257 0.012966253 -0.038715512
0.11240783 0.013525439 -0.034316089
0.15242168 0.01359922 -0.035707667
0.17306848 0.013582837 -0.039030321
0.21163583 0.013707738 -0.037798882
0.26269585 0.013884583 -0.035567816
0.29254866 0.01397844 -0.034710418
0.36246717 0.01742271 -0.039855767
0.44952273 0.018093547 -0.038441103
-0.45576081 0.024748847 -0.037972346
-0.44662979 0.028759789 -0.037229817
-0.42003751 0.024530955 -0.039782036
-0.41772479 0.024336709 -0.031613555
0.40510654 0.024429215 -0.032295458
0.41810203 0.026397429 -0.037909791
0.47310561 0.025297254 -0.03786464
0.47074977 0.034988586 -0.03146378
0.24723876 -0.028647466 -0.021108683
0.2357931 -0.014187157 -0.02725702
0.24859375 -0.019594844 -0.027213454
0.25361097 -0.011832368 -0.029647339
0.26846775 -0.0073276283 -0.029930832
0.28485709 -0.0073282765 -0.029962055
-0.30232757 0.0037522279 -0.02765945
-0.2983647 0.0038055554 -0.025353711
-0.26030546 0.0038652853 -0.022045847
-0.18921971 0.003865018 -0.020523403
-0.052183837 0.0035812282 -0.029382316
0.17150851 0.0032361669 -0.029941868
0.18492617 0.0033830826 -0.020087998
0.27762893 0.0030575811 -0.024022719
0.28620809 0.001064617 -0.026880888
0.3262606 0.0029556029 -0.022391971
0.34427074 0.0032284632 -0.029296294
-0.42691457 0.019629663 -0.028426554
-0.4127481 0.017102934 -0.024255881
-0.2646665 0.012804139 -0.020298276
-0.2072283 0.012840518 -0.026257101
-0.053847317 0.013220028 -0.028466264
0.013225392 0.013446068 -0.025915563
0.19202331 0.013888599 -0.026735911
0.30240297 0.014236862 -0.023532528
0.31598064 0.014173683 -0.028213829
0.34113854 0.014266274 -0.027164511
0.42640123 0.015075842 -0.023253947
0.45033294 0.018447433 -0.025780912
-0.44251037 0.028316196 -0.027396567
-0.41184437 0.02362584 -0.021338496
-0.39328432 0.020536723 -0.029783364
0.46473706 0.020493016 -0.026407398
-0.46289662 0.031577047 -0.024503112
0.45411146 0.032352746 -0.029747022
-0.20600367 -0.0040796907 -0.012829123
-0.36186433 0.0079943305 -0.010631315
-0.31991801 0.0040139905 -0.01714072
-0.25392544 0.0039660656 -0.017712321
-0.24667789 0.0039357767 -0.018817028
-0.21562839 0.0076081483 -0.014375323
-0.18817276 0.007538558 -0.018100642
-0.1306117 0.0039776494 -0.014569709
-0.11102325 0.0038966327 -0.017520174
-0.098989509 0.0040060743 -0.012704076
-0.086203143 0.0040349448 -0.011226229
-0.014808699 0.0039534755 -0.013077874
0.023053542 0.0038179415 -0.017903864
0.094612867 0.0036318509 -0.019926131
0.10599472 0.0036729935 -0.016052105
0.20948493 0.0032495996 -0.012476838
0.27491564 0.0031998507 -0.016292945
0.30099791 0.0031431871 -0.01600774
0.33103719 0.0031628301 -0.010561287
0.37551582 0.0078961588 -0.018457603
-0.42100292 0.018948359 -0.01141407
-0.41423032 0.017518463 -0.018504731
-0.40653744 0.016194725 -0.014259417
-0.37906858 0.010961397 -0.019847523
-0.30842185 0.012763559 -0.016446875
-0.29713124 0.012849115 -0.013781972
-0.15555039 0.013181526 -0.016551962
-0.042512819 0.013568336 -0.012935489
-0.032189943 0.013545642 -0.0154486
0.012270112 0.013669498 -0.015110893
0.30245078 0.014463962 -0.012659663
0.31646061 0.01454389 -0.010538548
0.40223306 0.011686468 -0.01988595
0.42041093 0.014318014 -0.018045351
-0.46655586 0.027337685 -0.013980915
-0.39134496 0.02064115 -0.0100016
0.41390079 0.026304571 -0.010386711
0.4769159 0.028804939 -0.01359732
-0.45977652 0.031318694 -0.013300275
0.47638494 0.033986896 -0.016453063
-0.2500028 -0.003860947 -0.001125358
-0.24695505 -0.0039534578 -0.006079542
-0.22527498 -0.0038516875 -0.00064472016
0.207366 -0.0053814487 -0.0094715841
0.22564864 -0.0068999622 -0.007019497
0.23336597 -0.0068102423 -0.0022324456
0.28561962 -0.0019245138 -4.2723492e-05
-0.36867008 0.0094280839 -0.0036326051
-0.3217226 0.0042587994 -0.0069872886
-0.29288682 0.0042274711 -0.0076695331
-0.2120409 0.0078068301 -0.0037393491
-0.20937812 0.0077452967 -0.0070333658
-0.14815179 0.0041118837 -0.0093594026
-0.13117956 0.0041334713 -0.0080944821
-0.10431725 0.0040945592 -0.0091350172
0.02613616 0.0041228808 -0.0035576746
0.10385177 0.003855879 -0.0065405965
0.11752138 0.0038783883 -0.0033331141
0.13669094 0.0037486169 -0.0075023044
0.19607997 0.0036680312 -0.0031498168
0.27764714 0.0034674443 -0.0020018294
0.29293144 0.0033722329 -0.0048823655
-0.37027958 0.017423663 -0.0056173354
-0.31681752 0.012950521 -0.0061565489
-0.27256617 0.013138869 -0.0028889659
-0.24611095 0.013153126 -0.0056756698
-0.093893357 0.013681613 -0.0004002247
-0.088081017 0.013606573 -0.0048701875
0.10366879 0.014208754 -0.00055668689
0.23797926 0.014432779 -0.006295342
0.33498144 0.01470671 -0.0049964413
0.39356938 0.010805029 -0.00093731866
-0.42531943 0.026043605 -0.0067328177
0.46946439 0.021658242 -0.00036154731
0.47493732 0.024106946 -0.0063005514
-0.45515698 0.030785855 -0.0039884057
-0.233143 -0.012664172 0.0030292273
-0.25216252 -0.0037835981 0.0029992806
-0.23202711 -0.003758952 0.0043200278
0.21972471 -0.0066331653 0.0072831549
0.25073931 -0.0067477836 0.0011219789
-0.2646673 0.0044805626 0.0034764763
-0.25313163 0.0045353575 0.0060066693
-0.18836586 0.0079695918 0.0049736924
-0.052298516 0.0044945236 0.0086393245
0.060951822 0.0041249776 0.0016444102
0.10777754 0.0040489258 0.0044039264
0.2184625 0.0038461841 0.009692654
0.31364459 0.0035546266 0.0079438835
0.33284238 0.0035139672 0.0085659996
0.34031832 0.00350032 0.0089257061
0.36530447 0.0068969736 0.0059754355
0.37501359 0.0083033629 0.0070045963
-0.42390609 0.019970302 0.0083691673
-0.35646105 0.0153787 0.00042940676
-0.34572497 0.013785324 0.0049054176
-0.3110643 0.013187801 0.0046869181
-0.19166228 0.013572492 0.0075286361
-0.14336316 0.013656422 0.0050842101
-0.077030629 0.013884607 0.0072651077
-0.066038013 0.013856998 0.0044177976
-0.031229988 0.013882857 0.00095777214
0.088123187 0.014196401 0.00076417066
0.094429925 0.014336869 0.0067075752
0.12454201 0.014352811 0.003767061
0.21259913 0.014624503 0.0059442297
0.22537899 0.014675586 0.0068715401
0.23501842 0.014632758 0.0036450252
0.25391093 0.01461708 0.00059127435
-0.43764031 0.028280877 0.0078906715
0.39825433 0.024126388 0.0054252855
-0.22217311 -0.024083575 0.013920254
-0.20251589 -0.0034883693 0.018838726
-0.19574896 -0.0035698465 0.01446836
-0.35761026 0.0077811293 0.012953538
-0.3398335 0.0048950599 0.019112039
-0.29590541 0.004684885 0.011309333
-0.27812472 0.0048344536 0.017920051
-0.062675253 0.004629869 0.014050411
-0.046118401 0.0047202939 0.018172348
0.095984779 0.0042410786 0.013002675
0.11841431 0.0041402797 0.010866456
0.25765243 0.0037585623 0.010714404
0.28644463 0.0037903013 0.016628377
0.30541301 0.003641549 0.011410128
0.32057607 0.0036783321 0.015602704
0.36420402 0.0069972607 0.0196642
-0.41034377 0.017567389 0.013020728
-0.17456037 0.013674087 0.010188367
-0.047469757 0.014155583 0.016539833
0.074694268 0.014517919 0.017801551
0.097959451 0.01452071 0.015067119
0.15757802 0.014619114 0.012442436
0.25107944 0.014957756 0.017255653
0.29254866 0.014944473 0.011564963
0.30970976 0.015055723 0.014802381
0.40848041 0.013254795 0.016038358
-0.4384445 0.028532702 0.013963865
0.42625168 0.028764974 0.012170833
0.47653276 0.034391493 0.014555271
-0.22225155 -0.023938699 0.021678122
0.25836426 -0.026765225 0.027174918
-0.19900498 -0.003397973 0.023674956
0.2074765 -0.0062967991 0.025283018
-0.25650159 0.0049954997 0.025091512
-0.076832056 0.0049259569 0.026072316
-0.050006658 0.0049112751 0.027664851
-0.023964018 0.0048302156 0.027117245
0.025542811 0.0045750239 0.020645123
0.12701006 0.0044658813 0.029614627
0.17755057 0.0042697568 0.026466779
0.23366462 0.0039119176 0.022978775
-0.41228333 0.018135166 0.021531148
-0.39582896 0.015234374 0.027767114
-0.37535235 0.016316557 0.02231927
-0.35789365 0.016030552 0.021078054
-0.32789344 0.01348301 0.021417679
-0.28613031 0.013773088 0.029982671
-0.10519597 0.014135364 0.023389779
0.0075845458 0.014435582 0.022794038
0.01807538 0.014464482 0.022786416
0.020351164 0.01444074 0.021312887
0.034039013 0.014480546 0.021405824
0.082218856 0.014694518 0.025361031
0.22416516 0.01509964 0.027332705
0.44899464 0.019276801 0.028482288
-0.46544015 0.027998429 0.021541696
0.37411165 0.020645317 0.024141897
0.39383441 0.023757843 0.021564528
0.42953384 0.029457884 0.020015106
0.43591201 0.030651154 0.028012257
0.45256391 0.033240687 0.024000878
-0.21652494 -0.023413157 0.030775957
0.23602986 -0.013829457 0.0336296
-0.25630078 -0.0031385676 0.037563499
-0.19394758 -0.0031285775 0.038093876
0.26395938 -0.0060883337 0.036426339
0.28079396 -0.0061213933 0.034678143
-0.33595824 0.0051972503 0.031777024
-0.23548295 0.0051949965 0.03385083
-0.17451806 0.0051570968 0.033588149
-0.085827939 0.0051046442 0.033317693
-0.044382721 0.0050289147 0.03480668
0.00055700541 0.0049494514 0.037107237
0.010613941 0.0049643377 0.039377086
0.026684642 0.0048809759 0.037248075
0.035488054 0.004763979 0.032249793
0.15476765 0.00451905 0.036528546
0.16335183 0.0045186761 0.03776332
0.18759984 0.0043832157 0.034030892
0.21508092 0.0041130958 0.033748396
0.22324026 0.0043453914 0.037208971
0.23728096 0.0042949552 0.036551993
0.36273894 0.0071326117 0.037988078
-0.33310962 0.013845764 0.039887697
-0.29035965 0.013787137 0.031241987
-0.21096018 0.014022249 0.032197613
-0.20030719 0.014117962 0.03545605
-0.14098704 0.014277471 0.035221312
-0.13624947 0.014379606 0.039586995
-0.11336529 0.014269169 0.031062014
-0.028143018 0.014672136 0.039249282
-0.013445143 0.014722051 0.039700858
0.0083196759 0.014780527 0.039612405
0.035873242 0.014858678 0.03970246
0.085510343 0.014947487 0.037315495
0.09862487 0.014936551 0.03500307
0.21707791 0.015198346 0.032924838
0.27155066 0.015392003 0.035561979
0.28468561 0.015324181 0.030712176
0.3249287 0.015532259 0.035774644
0.3407293 0.015490336 0.03184054
0.3505286 0.017051809 0.033281058
-0.45180023 0.025840245 0.036790252
-0.43384004 0.028320407 0.038676258
-0.4242112 0.023688694 0.033243842
0.41666511 0.027686896 0.034000777
0.4741953 0.024065351 0.034892086
-0.44898176 0.030600663 0.033960123
0.45043638 0.033227775 0.039551247
-0.22769609 -0.018605124 0.041888934
-0.19340721 -0.0029723728 0.046457175
0.24147989 -0.005912045 0.045870353
0.27535018 -0.0059688315 0.042850077
-0.29037738 0.0056080949 0.049865477
-0.2839444 0.0054196762 0.04215965
-0.22687024 0.00552982 0.047976669
-0.19943434 0.0087286662 0.045608919
-0.05638279 0.0052295923 0.04383307
-0.04547976 0.0051541626 0.041374765
0.0043616854 0.0051419502 0.048004605
0.015183389 0.004968246 0.04025501
0.23997498 0.0044744899 0.046590555
0.37380186 0.008847598 0.045140292
-0.41318995 0.01887076 0.04475775
-0.39427018 0.015288832 0.041836493
-0.30810723 0.014031442 0.045603782
-0.19069999 0.0142637 0.041298848
0.02972807 0.014895293 0.042333037
0.086078249 0.015122963 0.045844715
0.19193777 0.0154502 0.048053399
0.21283978 0.015339015 0.040179674
0.27238297 0.015519788 0.041581716
0.44158679 0.018524738 0.04477128
-0.4674342 0.028860785 0.041700788
-0.44662842 0.025137173 0.047291648
-0.42884663 0.021747114 0.043577753
-0.41483968 0.025430864 0.043217689
-0.39433667 0.022147551 0.040137492
0.38982913 0.023560386 0.042648401
0.46273765 0.021505805 0.042612068
0.45714387 0.034381971 0.043189555
-0.23346473 -0.014908258 0.05406218
-0.21724117 -0.002845352 0.053259965
0.23966773 -0.0057148556 0.05643943
-0.31332487 0.0058532059 0.059575342
-0.26043537 0.005796236 0.058344495
-0.23384076 0.0056186435 0.051524334
-0.088886306 0.005454618 0.051170208
0.003849797 0.0052548954 0.053997293
0.053215712 0.0050717467 0.051374823
0.10378031 0.0050702458 0.058685869
0.22913931 0.0045447759 0.056857381
0.28320137 0.0026717079 0.05402036
0.34282887 0.0045653936 0.052740734
0.353811 0.0061412482 0.053100582
0.36381483 0.0076271379 0.056108817
-0.28495023 0.014252539 0.053303856
-0.20543267 0.014517676 0.055688512
-0.15650722 0.014550759 0.050733205
-0.08276125 0.014880003 0.0568702
-0.066022895 0.014839786 0.052617423
0.14452152 0.015555313 0.059110772
0.16572288 0.015467644 0.051957697
0.18894765 0.015672602 0.059071366
0.19265381 0.015660103 0.058020994
0.20022777 0.015666777 0.057417557
0.23012477 0.015699204 0.055326778
0.3248952 0.015965918 0.056552023
0.33287162 0.015888827 0.051886983
0.39489424 0.012014484 0.053297643
-0.44236687 0.029900135 0.050320115
-0.43432415 0.028683342 0.052555662
0.39601934 0.024782922 0.053458799
0.42028114 0.028681176 0.053562846
0.46703613 0.026277585 0.05270486
-0.46509165 0.030828293 0.056680635
0.45542532 0.03435158 0.054806154
0.22401325 -0.0054811379 0.068966396
0.28266594 -0.0055077616 0.067543365
-0.35312724 0.0082729086 0.067137375
-0.29548195 0.005973985 0.064988799
-0.10897523 0.0057993131 0.066750884
-0.080553733 0.0057244496 0.066883892
-0.071646556 0.0057266788 0.068305686
-0.055224434 0.0056429799 0.066209942
-0.019119836 0.0054661878 0.061990388
-0.00058297813 0.0054664379 0.06471356
0.018631943 0.0054206504 0.065062702
0.034248665 0.0053929891 0.065859608
0.046023011 0.0052999984 0.062585264
0.061944157 0.005266889 0.063133977
0.14106114 0.0051364759 0.067693576
0.17427102 0.0050179968 0.066183448
0.2080407 0.0047707069 0.068952069
0.21095172 0.0049410271 0.067410663
0.29224181 0.0046650884 0.064470172
0.31910846 0.0045905663 0.064394206
-0.37519383 0.019745352 0.069355778
-0.01689443 0.015289336 0.067995906
0.03488908 0.015318199 0.062373631
0.084719077 0.015517633 0.065388419
0.093113512 0.015565357 0.066567712
0.11607906 0.015648952 0.067569837
0.17366408 0.015736151 0.064028695
0.23455521 0.015973242 0.067913979
0.25608081 0.015933365 0.063380063
0.38500381 0.01086125 0.067110173
0.40433729 0.013579176 0.064756371
0.42628667 0.016713183 0.064671405
-0.37790811 0.020112526 0.066498548
0.4163729 0.028225107 0.061679356
0.45884424 0.021325491 0.062590234
0.43065909 0.030516526 0.061541568
0.27259484 -0.023716334 0.074370556
0.25870138 -0.019807542 0.075879045
0.27479839 -0.016214434 0.078084163
0.23037744 -0.0054487633 0.070701614
-0.24661204 0.0062277317 0.076607578
0.030322373 0.0056286654 0.07794641
0.080653377 0.0054780515 0.077212766
0.098069891 0.0054471232 0.078097276
0.25793284 0.0049306299 0.073719926
0.27578157 0.0031262953 0.07243263
0.29280403 0.004948481 0.079776466
0.32617891 0.0047710268 0.075122282
0.33378893 0.0047549647 0.075371884
0.36518997 0.0080908872 0.070319399
-0.36615852 0.010918953 0.076475345
-0.24428076 0.014775205 0.073395886
-0.1526946 0.015022706 0.073347233
0.0097258613 0.015604792 0.079850569
0.040730864 0.015555343 0.073217399
0.073743768 0.015730813 0.077340379
0.19577599 0.01604704 0.076269321
0.26812059 0.016212016 0.075260743
0.32678437 0.016348613 0.074653767
0.44216165 0.019157885 0.074071348
-0.45128304 0.026677791 0.075003691
-0.43487895 0.023712363 0.078208506
0.40587911 0.026864184 0.077017389
0.41923505 0.028909618 0.072315708
0.45318079 0.020815291 0.07848756
0.42869359 0.030434161 0.072576977
0.26186031 -0.034012947 0.081260175
0.24035941 -0.020539563 0.088647932
0.26899648 -0.026669513 0.084852092
0.26743418 -0.016668605 0.08501029
0.27555233 -0.013677918 0.083744973
0.26924652 -0.0010966751 0.083115034
-0.24072841 0.006496571 0.087927364
-0.10905508 0.0061717695 0.086747907
-0.086007074 0.0061427206 0.088556558
-0.043111637 0.0059560235 0.084797628
0.022935472 0.0058095381 0.086583197
0.046964783 0.0056303078 0.080467418
0.17444174 0.0054339035 0.088551328
0.21736245 0.0052630189 0.085645512
0.24539222 0.0051160492 0.081847601
0.31483904 0.0049647549 0.083871856
0.32728437 0.0049934057 0.087230273
-0.38171431 0.013937899 0.081903562
-0.33254009 0.014747391 0.083966948
-0.30606344 0.014932355 0.089448981
-0.19249332 0.015218731 0.088141821
0.015833056 0.01570656 0.084011644
0.10950022 0.016074594 0.089343674
0.22030015 0.016308112 0.08574193
0.24011642 0.016365891 0.086044967
0.25733095 0.01631386 0.081454366
0.40811852 0.014539661 0.087097697
-0.44500893 0.025638692 0.080121964
-0.40568742 0.024814622 0.082920842
-0.37817252 0.02043594 0.080134004
0.44711402 0.031301353 0.086267903
-0.19429165 0.0065189749 0.092939995
-0.18500689 0.0064933198 0.092919089
-0.11750946 0.0062882863 0.091771424
0.093422845 0.0057572327 0.094077311
0.18585663 0.005507377 0.094167039
0.20355025 0.0054779537 0.095172882
0.25465089 0.005258067 0.090830408
0.29731399 0.0052170092 0.094861351
-0.34583873 0.015652401 0.094351366
-0.23966137 0.015183638 0.092792071
-0.11694448 0.015610705 0.097137056
-0.064374238 0.015794896 0.099059187
-0.032276951 0.015890764 0.099396728
-0.023194805 0.015768591 0.092343383
0.00034327153 0.015786748 0.090046115
0.01352866 0.016008673 0.099118464
0.090288758 0.016082592 0.092343621
0.10394726 0.016167622 0.094658978
0.13174538 0.016342487 0.099459998
0.19320977 0.016390773 0.093484603
0.24715407 0.01660976 0.096890986
0.37711683 0.022536198 0.090763301
-0.34523591 0.0078167515 0.10840417
-0.27214164 0.0070377276 0.10978015
-0.26706156 0.006971587 0.10713606
-0.24032509 0.0068980469 0.10657483
-0.18401578 0.0066292887 0.10036831
-0.12344506 0.0064860703 0.10152885
-0.10971049 0.0065706372 0.10807964
-0.044265911 0.0064114756 0.10909615
0.012973219 0.0062547284 0.10904291
0.057607785 0.0059899585 0.10134403
0.074394912 0.006042059 0.10659692
0.17054662 0.0056927637 0.10188811
0.21985364 0.0056809299 0.1084602
0.22078538 0.0055384701 0.10094339
0.28485715 0.0054880846 0.10760277
-0.36525831 0.01512384 0.10442334
-0.3076742 0.015219604 0.10373428
-0.28798369 0.015360574 0.10798183
-0.27415055 0.015291728 0.10274245
-0.23962355 0.015462853 0.10646091
-0.20340389 0.015540684 0.10538195
-0.11315683 0.015842624 0.10798343
-0.10073319 0.01583581 0.10597217
-0.048396282 0.01593316 0.10367292
0.04224962 0.016241074 0.10650383
0.156588 0.016574422 0.10746055
0.20067953 0.016587494 0.10211678
0.33289298 0.017014187 0.10579181
0.34449673 0.017670402 0.10836028
0.42231697 0.016838761 0.1014961
-0.43213052 0.029111575 0.10240155
-0.41315961 0.023418184 0.10546432
-0.40625748 0.025280653 0.10113235
0.36239898 0.020404022 0.10169372
0.38381663 0.024008175 0.10950249
0.39834139 0.026179941 0.10190629
0.41825026 0.029437177 0.10475151
0.42115951 0.029931974 0.1060563
0.4309586 0.02478737 0.103807
-0.34602338 0.0080424352 0.11166171
-0.32587755 0.0071484083 0.11322895
-0.2320883 0.0070563527 0.11628322
-0.21837501 0.0070355418 0.11716986
-0.14513335 0.0068487339 0.11784103
-0.12151432 0.0067352573 0.11519766
-0.037721097 0.0065074731 0.11521
0.0076657962 0.0063878307 0.11541744
0.054306209 0.0061660251 0.11031985
0.092393875 0.0061209835 0.11346792
0.16907799 0.0060298736 0.11978329
0.19084033 0.005836287 0.11256494
0.20084053 0.005792723 0.11168647
-0.2208167 0.015744185 0.11769918
-0.15390199 0.015894867 0.11604343
-0.12177675 0.015945077 0.11416471
-0.11228858 0.01597574 0.11438519
-0.069644362 0.016097384 0.11458448
-0.052681088 0.016139518 0.11435741
0.055225734 0.016424365 0.11373723
0.21287723 0.016831592 0.11243011
0.25676009 0.016989801 0.11423121
0.31046796 0.017165475 0.1157722
0.34227881 0.017555257 0.11975979
-0.41291237 0.025546432 0.11637846
0.36664987 0.021401137 0.11657351
0.37422282 0.022627058 0.11704373
-0.34007916 0.0074102785 0.12382527
-0.29607973 0.0074753128 0.12943572
-0.28248292 0.0073615885 0.12531397
-0.22390616 0.007259964 0.12841748
-0.21153936 0.0071418071 0.12387781
-0.16278288 0.006960589 0.12126994
-0.12105551 0.0068392521 0.12085141
-0.11078494 0.0068562515 0.12326599
-0.10051361 0.0068802908 0.12605891
-0.059936449 0.0067642713 0.1257579
-0.012897289 0.0066879876 0.12853616
0.00096563902 0.0066146711 0.12662408
0.053720422 0.0063793217 0.12169271
0.090979338 0.0062697809 0.12125467
0.16094664 0.0061559114 0.1253655
-0.28875843 0.015761295 0.12771083
-0.18080632 0.016050017 0.1272743
-0.12884527 0.016245071 0.12981054
-0.061707754 0.016269639 0.1219487
0.056823283 0.016703002 0.12716715
0.20575008 0.017116664 0.12731667
0.25291276 0.017250175 0.12751932
0.26137626 0.017219078 0.12484697
0.28309759 0.01722436 0.1221576
0.33033526 0.017494142 0.12909462
-0.39670512 0.020081909 0.12571752
-0.38630268 0.022627154 0.12436444
0.375029 0.02287744 0.12276463
0.4011963 0.024539834 0.1238487
-0.30969727 0.0077089956 0.13905922
-0.26925912 0.0078384466 0.13906045
-0.23430698 0.0087544424 0.13906029
-0.15105291 0.0072134207 0.13656701
-0.12028066 0.0070669814 0.13319853
-0.081784323 0.0070683076 0.13889724
-0.044742748 0.0070997244 0.13906953
0.081045493 0.0066148359 0.13833921
0.11981936 0.0065099127 0.13837069
0.16344962 0.0063060527 0.13379711
0.21114233 0.006274295 0.13906287
0.27121973 0.0059674373 0.13136043
0.34771565 0.0068670367 0.13799447
-0.31673279 0.013105443 0.13907619
-0.2776944 0.013515567 0.13907613
-0.24497028 0.016094038 0.13809378
-0.19841477 0.015640093 0.13908064
-0.10588133 0.016441496 0.13632944
-0.052671716 0.016522938 0.13313334
-0.030686438 0.016607074 0.13428521
-0.029370472 0.016598672 0.133696
-0.015014932 0.013856947 0.13597079
0.029382024 0.016811831 0.13620204
0.053652305 0.016935844 0.13899815
0.087175444 0.012370218 0.13906617
0.12052494 0.016977128 0.13199061
0.19306844 0.017137963 0.13007215
0.2249022 0.016234171 0.13630426
0.25493482 0.017480645 0.13850078
0.29351014 0.015668167 0.13906845
0.31557336 0.017514911 0.13199624
0.32648188 0.017566679 0.13305233
