# .PCD v0.7 - Point Cloud Data file format
VERSION 0.7
FIELDS x y z
SIZE 4 4 4
TYPE F F F
COUNT 1 1 1
WIDTH 901
HEIGHT 1
VIEWPOINT 0 0 0 1 0 0 0
POINTS 901
DATA ascii
-0.22219516 -0.01572752 -0.14303108
-0.22216249 -0.015876984 -0.11735976
-0.33561733 0.048138045 -0.11366157
-0.31137216 0.04310178 -0.114757
-0.10624024 0.049635358 -0.114757
-0.088023543 0.040454 -0.11101799
-0.068756208 0.047408674 -0.114757
-0.057176009 0.043789066 -0.114757
-0.032349449 0.044953808 -0.114757
-0.008287875 0.044351555 -0.114757
0.020783074 0.041333377 -0.114757
0.11490233 0.044136673 -0.114757
0.12268107 0.040454 -0.11446526
0.14954789 0.040454 -0.11471584
0.15406427 0.043673269 -0.114757
0.28498104 0.0430094 -0.114757
0.30386192 0.046776697 -0.114757
-0.30004844 0.057388 -0.11042376
-0.030364506 0.057388 -0.1107589
0.027139772 0.056479454 -0.11341262
0.057383917 0.052198984 -0.114757
0.061883952 0.054146886 -0.114757
0.14297009 0.055803858 -0.114757
0.20576359 0.050325111 -0.114757
0.22294214 0.057388 -0.11182605
0.24363397 0.053659189 -0.114757
0.31164211 0.051380813 -0.114757
-0.2287226 -0.017314298 -0.10671709
-0.37042597 0.048727579 -0.10345973
-0.3607527 0.042094953 -0.10720801
-0.31715113 0.040454 -0.1010569
-0.26705056 0.048187178 -0.10470393
-0.15377216 0.040454 -0.10095973
-0.09530744 0.040454 -0.10480803
-0.04867544 0.040454 -0.10616441
0.083226167 0.040454 -0.10831057
0.10268496 0.040454 -0.10390652
0.27230266 0.040454 -0.10572958
0.32889915 0.049133252 -0.10642819
-0.36782947 0.054430515 -0.10410804
-0.35724217 0.057388 -0.10804494
-0.31128752 0.057388 -0.10378043
-0.2641876 0.057303451 -0.10134513
-0.12545818 0.057388 -0.1084453
-0.10182038 0.057388 -0.10784677
-0.07188753 0.057388 -0.10109354
-0.043629702 0.057388 -0.10137245
0.019118212 0.057388004 -0.10698657
0.15510185 0.057388 -0.10194349
0.17491657 0.057388 -0.10069598
0.25196847 0.057388 -0.10715415
0.26936892 0.057388 -0.10357922
0.28163344 0.057388 -0.10866657
0.29429305 0.057388 -0.10334163
0.28495902 -0.014318996 -0.093061067
-0.37502104 0.040454 -0.092410132
-0.059032053 0.040454 -0.099725492
-0.047566049 0.040454 -0.096643642
-0.0079470556 0.040454 -0.09745533
0.008219975 0.040454 -0.099279344
0.068530142 0.040454 -0.091349155
0.071985781 0.040454 -0.091884457
0.099693775 0.040454 -0.091230422
0.16229057 0.040454 -0.095401324
-0.31524658 0.057388 -0.092847101
-0.25938895 0.052240174 -0.09597262
-0.14527626 0.057388 -0.09322612
-0.12150471 0.057388 -0.097016126
-0.065928563 0.057388 -0.099973612
-0.053617157 0.057388 -0.094814479
-0.044236034 0.057388 -0.097635031
0.00054824725 0.057388 -0.095422454
0.010258324 0.057388 -0.095665731
0.027724527 0.057388 -0.099694915
0.061179254 0.057388 -0.091446564
0.15806754 0.057388 -0.094076335
0.27516147 0.057388 -0.095775336
0.28796265 0.057388 -0.093985222
0.29087582 0.057388 -0.098339193
-0.40441132 0.042953342 -0.084843941
-0.3611103 0.040454 -0.086489692
0.10245505 0.040454 -0.083431289
0.12394484 0.040454 -0.088449046
0.13730106 0.040454 -0.086386263
0.16226181 0.040454 -0.088017367
0.23376632 0.040454 -0.083452567
0.2403999 0.040454 -0.088259012
0.28773129 0.040454 -0.084252119
-0.29773235 0.057388 -0.089397334
-0.2893075 0.057388 -0.089954734
-0.24280797 0.053042382 -0.084544286
-0.16515639 0.057388 -0.084607109
-0.15900478 0.057388 -0.08751452
-0.12377132 0.057388 -0.084758088
-0.053309988 0.057388 -0.088734195
-0.039874122 0.057388 -0.088240251
0.0057754777 0.057388 -0.083285846
0.095416896 0.057388 -0.087765448
0.23412833 0.057388 -0.083112262
0.25876305 0.057388 -0.088946834
0.26438323 0.057388 -0.087287188
0.34639069 0.057388 -0.080023304
0.29713887 0.070769258 -0.081739455
0.28521097 -0.014051385 -0.076145567
-0.42231494 0.049870808 -0.071740091
-0.31492734 0.040454 -0.072727084
-0.24666059 0.040454 -0.07984446
-0.23653583 0.040454 -0.078638487
-0.21658815 0.040454 -0.077663019
-0.16589254 0.040454 -0.074985646
-0.14490165 0.040454 -0.078593612
0.13553214 0.040454 -0.070081972
0.20371154 0.040454 -0.075107902
-0.4059397 0.057388 -0.071548134
-0.36823583 0.057388 -0.075767018
-0.3352949 0.057388 -0.077969164
-0.31864029 0.057388 -0.071812049
-0.24150822 0.057388 -0.074378297
-0.18685403 0.057388 -0.07085108
-0.12453035 0.057388 -0.076412112
-0.089498758 0.057388 -0.078972667
-0.016831376 0.057388 -0.073493369
0.020299815 0.057388 -0.076745816
0.11348191 0.057388 -0.074236184
0.20768991 0.057388 -0.075990006
0.26331776 0.057387996 -0.075345524
0.27982178 0.057200082 -0.079876579
0.32508588 0.057388 -0.075842023
0.35058945 0.052390803 -0.076414615
0.256944 0.071027517 -0.073395044
0.27468258 0.070913441 -0.079119667
0.30424577 0.070723414 -0.074593037
0.28763545 -0.016297853 -0.063667387
-0.22758244 0.040454 -0.061406948
-0.21830821 0.040454 -0.063881025
-0.16146435 0.040454 -0.060944729
-0.1027588 0.040454 -0.06066763
-0.0556321 0.040454 -0.068483651
-0.023871318 0.040454 -0.065947562
0.066436507 0.040454 -0.06305106
0.080211453 0.040454 -0.065839455
0.11563098 0.040454 -0.064909846
0.13579255 0.040454 -0.065851144
0.18771985 0.040454 -0.063004926
0.2060245 0.040454 -0.065349959
0.33445686 0.040454 -0.063438065
-0.24133462 0.056455996 -0.061540112
-0.1671658 0.057388 -0.061607853
-0.10517378 0.057388 -0.066716097
-0.096856967 0.057388 -0.065560043
-0.086926937 0.057388 -0.067708664
-0.063437454 0.057388 -0.063049674
0.21746415 0.057388 -0.065375336
0.23026475 0.057388 -0.066120923
0.25556496 0.057388 -0.060114842
0.26583949 0.057388 -0.065482147
0.30459249 0.057388 -0.062428832
0.3407844 0.056808483 -0.061299916
-0.24454428 0.066970319 -0.060609791
0.24320778 0.067857772 -0.069771662
-0.24635532 -0.019689262 -0.054552887
-0.22930463 -0.01688708 -0.057579372
-0.20638739 -0.011664436 -0.057612818
0.27071989 -0.011560795 -0.051117703
0.30659756 -0.019602984 -0.0511177
-0.20626602 -0.0041241376 -0.057661109
-0.19626698 -0.0097059105 -0.051849656
-0.19892785 0.007758372 -0.057737209
0.27579033 0.0049213301 -0.0511177
-0.23232034 0.0195667 -0.057816837
-0.25015351 0.027478419 -0.057867751
0.26220539 0.024875278 -0.051114202
-0.25332487 0.037426006 -0.057931755
-0.19689378 0.038624652 -0.054539289
-0.43787503 0.044580929 -0.056670927
-0.42822698 0.040454 -0.055127557
-0.40660405 0.040454 -0.055608094
-0.38483715 0.040454 -0.053765677
-0.33973315 0.040454 -0.053399734
-0.28693247 0.040454 -0.055416971
-0.27189505 0.040454 -0.054831795
-0.26139843 0.040454 -0.054887969
-0.253842 0.040050972 -0.057942029
-0.23825109 0.040454 -0.055803068
-0.2283238 0.046395384 -0.05388495
-0.21824664 0.042312525 -0.0579632
-0.19257703 0.040454 -0.058894999
-0.027389308 0.040454 -0.057098076
0.023672216 0.040454 -0.050086252
0.17616138 0.040454 -0.052949905
0.18892868 0.040454 -0.059122548
0.25735003 0.040454 -0.057020169
0.28803885 0.043024875 -0.051114202
0.30493364 0.040454 -0.050517872
0.35947478 0.040454 -0.051236026
-0.43803298 0.057388 -0.054053701
-0.36417353 0.057388 -0.053575236
-0.22630203 0.056908865 -0.057117619
-0.21737136 0.057388 -0.051100649
-0.1928224 0.057388 -0.056476854
-0.097133428 0.057388 -0.055051357
-0.043648303 0.057387996 -0.054786082
-0.024619237 0.057388 -0.051503193
-0.0016881675 0.057388 -0.055633247
0.094148099 0.057388 -0.055995256
0.13245547 0.057388 -0.056334496
0.14376238 0.057388 -0.051744916
0.15475351 0.057388 -0.056129739
0.20638844 0.057388 -0.056202762
0.27588302 0.057315297 -0.055986501
0.34918296 0.057388 -0.050316829
-0.24829793 0.065507576 -0.05943298
0.34808713 0.060486138 -0.05556282
-0.25385541 0.070787475 -0.054219626
-0.21837123 0.07075724 -0.05892995
0.26422825 0.070980564 -0.055660289
0.27962542 0.070881695 -0.058749072
0.28020975 0.070877858 -0.054843679
0.29911134 0.070756346 -0.051599305
0.28399816 -0.014866054 -0.043100838
0.29113415 -0.018307123 -0.045114413
0.315099 -0.012945313 -0.048934348
-0.19626699 -0.008198604 -0.047071017
0.25766537 0.00913582 -0.041256178
0.31520289 0.00323364 -0.046049472
-0.253842 0.016596586 -0.049267896
-0.24600859 0.013425412 -0.042969063
-0.23008963 0.013521976 -0.049921095
-0.22890395 0.013528573 -0.048894756
-0.253842 0.029194416 -0.041380785
0.25783488 0.03562282 -0.04084757
0.31543753 0.039818242 -0.043111902
-0.44329888 0.040454 -0.0422538
-0.32660177 0.040454 -0.043699831
-0.30774128 0.040454 -0.047052708
-0.28210008 0.040454 -0.044011451
-0.1600492 0.040454 -0.043693393
-0.15940547 0.040454 -0.042527214
-0.03778144 0.040454 -0.04539831
0.037770893 0.040454 -0.042788312
0.18993525 0.040454 -0.040745776
0.26783311 0.040454 -0.049523443
0.29246363 0.046426408 -0.045694668
0.37405753 0.040454 -0.044947103
0.38082671 0.040454 -0.042646144
-0.42106676 0.057388 -0.046368733
-0.38365138 0.057388 -0.049516242
-0.28919846 0.057388 -0.047115386
-0.27082101 0.056548718 -0.040266067
-0.24677244 0.056534275 -0.042481348
-0.15894215 0.057388 -0.048442118
-0.13727674 0.057388 -0.041344412
-0.071684614 0.057388 -0.047413439
-0.041742571 0.057388 -0.04844258
-0.015064581 0.057388 -0.043782629
-0.0031630946 0.057388 -0.044448901
0.017129183 0.057388 -0.041586358
0.065328076 0.057388 -0.043074049
0.19886282 0.057388 -0.049942981
0.25238043 0.057388 -0.044344451
0.27769226 0.057213679 -0.0442052
0.29131347 0.057126172 -0.04197026
0.31263852 0.057388 -0.047677997
0.32396433 0.05691636 -0.040281244
-0.1857869 0.070847251 -0.044907961
0.26901469 0.070949741 -0.047461785
0.30517411 0.070717305 -0.042301144
0.32537961 0.070587456 -0.043819457
0.33713526 0.0705119 -0.042572372
-0.22800474 -0.017816285 -0.035041109
0.27424937 -0.019536432 -0.033949994
0.2953364 -0.01967217 -0.030649103
0.31509131 -0.014145613 -0.036014527
0.25756001 -0.007275152 -0.032487787
0.31523818 0.0087324884 -0.03730201
-0.253842 0.018126069 -0.030842565
-0.22507262 0.013333678 -0.035264064
0.25770095 0.014850548 -0.030474478
0.26546144 0.013418071 -0.031175053
0.30443934 0.013451092 -0.034653828
0.31525755 0.011748752 -0.033147596
-0.40586254 0.040454 -0.034112263
-0.36163139 0.040454 -0.03434439
-0.33513659 0.040454 -0.039467741
-0.31549034 0.040454 -0.033671875
-0.30619043 0.040454 -0.038816925
-0.25111669 0.040454 -0.03491753
-0.21618778 0.046512328 -0.035691183
-0.19674313 0.040454 -0.036180601
-0.17654827 0.040454 -0.039889954
-0.15420239 0.040454 -0.030825581
-0.092566639 0.040454 -0.034025546
0.088390559 0.040454 -0.031178717
0.10738321 0.040454 -0.038997225
0.14048989 0.040454 -0.03278112
0.20209968 0.040454 -0.039991558
0.26949623 0.040454 -0.034453519
0.32774734 0.040454 -0.03246627
0.33905309 0.040454 -0.039406069
0.38655809 0.040454 -0.032273721
-0.43080816 0.057388 -0.030023448
-0.41730329 0.057388 -0.036758639
-0.34130192 0.057388 -0.037553072
-0.32634637 0.057388 -0.031683724
-0.25540408 0.056591392 -0.033643275
-0.24508494 0.056975864 -0.035836585
-0.18277213 0.057388 -0.032789558
-0.1411145 0.057388 -0.03705135
-0.13229056 0.057388 -0.03300551
-0.123483 0.057388 -0.039417606
-0.094256282 0.057388 -0.033184536
-0.083670273 0.057388 -0.037144713
0.038615897 0.057388 -0.031090856
0.054188266 0.057388 -0.034925684
0.10419792 0.057388 -0.035630733
0.11512572 0.057388 -0.032472096
0.21932179 0.057588808 -0.03524112
0.26359031 0.057329122 -0.032537308
0.27219415 0.057249144 -0.032262493
0.30540317 0.057035688 -0.038406115
0.33489934 0.056846246 -0.032233059
0.35954362 0.05739646 -0.037909739
0.37732899 0.057388 -0.039459273
0.39223063 0.057388 -0.0366285
-0.21947531 0.070881091 -0.039660417
-0.18604398 0.070894971 -0.03749657
0.2367003 0.071157373 -0.038887747
0.25545856 0.071036771 -0.030001953
0.2989682 0.07075718 -0.038888104
0.34452397 0.070464365 -0.036059968
-0.2085021 -0.019481102 -0.02216813
0.2881664 -0.019791055 -0.023497738
0.29061526 -0.019641781 -0.027360275
-0.253842 0.0032605161 -0.029097455
0.31523812 0.0087219179 -0.023548029
-0.24119008 0.013415099 -0.022595445
0.26996985 0.013672614 -0.020346858
-0.19626701 0.038777955 -0.022981048
-0.42182791 0.040454 -0.020683402
-0.30348095 0.040454 -0.020453606
-0.21191248 0.046559285 -0.028386204
-0.13468315 0.040454 -0.023056937
-0.046633076 0.040454 -0.027654648
-0.019832071 0.040454 -0.021526359
0.050048627 0.040454 -0.027892245
0.097331688 0.040454 -0.026783699
0.13899711 0.040454 -0.023441777
0.1571307 0.040454 -0.024347946
0.16847207 0.040454 -0.025083218
0.20752925 0.040454 -0.02951552
0.21406221 0.040454 -0.028425768
0.2502926 0.040454 -0.029727384
0.28384274 0.046481814 -0.028098941
0.32076639 0.040454 -0.02805059
0.38380644 0.040454 -0.025942225
0.45927584 0.040454 -0.027079297
0.4641307 0.040454 -0.026785575
-0.35469395 0.057388 -0.021064626
-0.33540261 0.057388 -0.024917852
-0.29332337 0.057388 -0.020168247
-0.25221407 0.057388 -0.020933283
-0.24386567 0.056648191 -0.024802601
-0.23912576 0.05665867 -0.023169331
-0.21868362 0.057388 -0.021824853
-0.20266354 0.057388 -0.026632614
-0.18650304 0.057135701 -0.026471488
-0.1791123 0.057388 -0.029237065
-0.14551552 0.057388 -0.020850072
-0.13267606 0.057388 -0.023846008
-0.11362046 0.057388 -0.022112228
-0.08369638 0.057388 -0.023501348
0.22105068 0.057388 -0.022723809
0.31570995 0.057388 -0.021450676
0.33182436 0.057388 -0.025956294
0.34158796 0.057388 -0.025347903
0.37753099 0.057388 -0.024649944
0.46866217 0.057388 -0.029139128
-0.21928334 0.070950821 -0.028841387
0.24034482 0.071133874 -0.021890819
0.32863671 0.070566423 -0.027819192
0.33670315 0.070514582 -0.027536299
0.34602255 0.070454679 -0.027342893
0.25751954 -0.01357918 -0.017153785
-0.19626698 -0.0067638243 -0.01475005
0.2575767 -0.0046746484 -0.012223337
0.3151834 0.00019977568 -0.010190371
-0.22304761 0.013718781 -0.019303283
-0.46689752 0.048500441 -0.014368162
-0.43490121 0.040454 -0.017286979
-0.41261369 0.040454 -0.01702841
-0.40350792 0.040454 -0.016764466
-0.36657542 0.040454 -0.016091142
-0.33748293 0.040454 -0.017997105
-0.19911061 0.046619043 -0.019089291
-0.17759377 0.040454 -0.01844082
-0.16881758 0.040454 -0.01708176
-0.15338974 0.040454 -0.017610028
0.0017866492 0.040454 -0.015817184
0.15871057 0.040454 -0.012009356
0.21830259 0.040454 -0.011595897
0.28234944 0.043465726 -0.016951576
0.29264015 0.040454 -0.01150851
0.32346499 0.040454 -0.017814491
0.34610912 0.040454 -0.012390232
0.41168964 0.040454 -0.014441468
0.44542909 0.040454 -0.019442907
-0.43062621 0.057388 -0.014449979
-0.37227929 0.057388 -0.01772397
-0.31997979 0.057388004 -0.011987037
-0.24272618 0.056706049 -0.015789526
-0.17629449 0.056698874 -0.016878283
-0.13183481 0.057388 -0.01190493
-0.05417851 0.057388 -0.013137921
-0.042325974 0.057388 -0.011095461
0.071140803 0.057388 -0.017301129
0.20937477 0.057388 -0.019865904
0.22298685 0.057565134 -0.016442588
0.32588735 0.057388 -0.010684829
0.36571714 0.059252761 -0.019908819
0.20897493 0.064718738 -0.014580403
-0.18194003 0.071025707 -0.017191822
0.25204462 0.071059003 -0.015778422
0.2774637 0.070895292 -0.018899705
0.29278594 0.070796788 -0.014168038
0.34127927 0.07048548 -0.012198683
-0.22272934 -0.01435771 -0.0091462201
-0.20622167 -0.019387435 -0.0075959554
0.25748253 -0.01934077 -0.0095255971
-0.253842 0.0086214701 -0.0018856581
-0.24389219 0.01351006 -0.0078197783
-0.22849637 0.013834004 -0.0013775248
-0.19680318 0.013697136 -0.00067292526
0.26580983 0.013415831 -0.0096975164
0.30502003 0.013163846 -0.0033995109
0.31536373 0.028323319 -0.0054902565
0.2578088 0.031578369 -0.0027327817
-0.47016865 0.042073693 -0.0072939526
-0.39784536 0.040454 -0.0089090243
-0.26716298 0.040454 -0.0050201272
-0.24146932 0.040454 -0.00042757764
-0.18109198 0.040454 -0.002991261
-0.045915782 0.040454 -0.0044417456
-0.006010592 0.040454 -0.004122531
0.034175351 0.040454 -0.0038236678
0.15615188 0.040454 -0.0035635456
0.18710837 0.040454 -0.007218603
0.2441327 0.040454 -0.001788022
0.25788361 0.043175273 -0.0069835763
0.26245257 0.040454 -0.00059821177
0.29361266 0.041073583 -0.00081583054
0.38625973 0.040454 -0.0026045572
0.43281126 0.040454 -0.0035389045
0.46286538 0.040454 -0.0066432566
-0.45949852 0.057388 -0.007088175
-0.36638394 0.057388 -0.0033581331
-0.27364802 0.057088621 -0.0053359591
-0.23192392 0.056768145 -0.0060484214
-0.21081197 0.057388 -0.0061139055
-0.17679536 0.056761079 -0.0071864766
-0.12652025 0.057388 -0.0017459318
-0.013590153 0.057388 -0.003916942
0.042776734 0.057388 -0.0052427789
0.078462586 0.057388 -0.0081733484
0.11244568 0.057388 -0.0084896581
0.13815565 0.057388 -0.0097805094
0.2092758 0.057388 -0.0041354024
0.21878228 0.057592124 -0.0085228756
0.22293063 0.057388 -0.0093205487
0.25351554 0.057368815 -0.0055634975
0.26788577 0.057276431 -0.0014704997
0.29402372 0.05770959 -0.0023310685
0.35336348 0.057388 -0.0059287362
0.37954742 0.057388 -0.0028695986
-0.17043687 0.071074389 -0.0096147982
0.28623983 -0.013201101 0.0041735061
0.30544889 -0.019737266 0.00067551062
0.31523389 0.0080685094 0.0043657888
0.2997576 0.013197665 0.00083855074
0.3045724 0.013166723 0.0087945666
-0.46532497 0.040454 0.0019206514
-0.37904698 0.040454 0.0018646773
-0.36606967 0.040454 0.0032496303
-0.25553986 0.040454 0.0044368561
-0.21909766 0.040454 0.0092918677
-0.20742774 0.040454 0.0076318742
-0.19910538 0.046770521 0.0044771731
-0.1864076 0.040454 0.0045718327
-0.17296782 0.040454 0.0020514484
-0.11762851 0.040454 0.0084040202
-0.070612818 0.040454 0.0073323548
-0.027193304 0.040454 0.0026421063
-0.012513049 0.040454 0.0037397109
0.0026341677 0.040454 0.00028895214
0.089205019 0.040454 0.0077020638
0.15635031 0.040454 0.0064559015
0.17706543 0.040454 0.0041728485
0.31547457 0.045584254 0.0081794355
0.34617174 0.040454 0.0080257375
0.4654915 0.040454 0.0085071158
-0.45375216 0.057388 0.0019501488
-0.41543534 0.057388 0.0019723382
-0.26261288 0.056869738 0.0096916752
-0.25491366 0.056864962 0.0089521706
-0.23311146 0.057388 0.0034020476
-0.19296367 0.057388 0.0033736248
-0.11502963 0.057388 0.0025830083
-0.10719715 0.057388 0.0059367027
-0.091650814 0.057388 0.0034059621
0.026385471 0.057388 0.00010333117
0.034602039 0.057388 0.0078740567
0.045032486 0.057388 0.0066766604
0.21022382 0.057647139 0.0043241675
0.31669965 0.057388 0.0075737094
0.41985774 0.057388 0.0060396465
0.42946684 0.057388 0.0042180028
0.46145281 0.057388 0.0077441046
0.47134483 0.057388 0.0032119192
0.36649558 0.066040799 0.007294408
-0.25007463 0.071157381 0.0032756021
-0.17371716 0.071151569 0.0023773175
0.27262831 0.070926592 3.6583457e-05
0.30812782 0.070698321 0.0025259308
0.31869969 0.070630431 0.0072022937
0.36429378 0.070337705 0.0079697883
-0.23293929 -0.019254383 0.013103964
0.28921008 -0.018725153 0.018893249
0.3151173 -0.010097422 0.010370417
-0.24655016 0.013676473 0.018073659
0.25770348 0.015251065 0.013271296
-0.42526284 0.040454 0.018877601
-0.33801958 0.040454 0.018240012
-0.23904602 0.046840969 0.015436967
-0.19703412 0.043648761 0.01502666
-0.18289292 0.040454 0.013466544
-0.13964392 0.040454 0.010388356
-0.10658234 0.040454 0.017881755
-0.0205881 0.040454 0.010233723
-0.015014086 0.040454 0.015451623
0.013748214 0.040454 0.018908244
0.051858008 0.040454 0.014106348
0.063905574 0.040454 0.01340415
0.16291243 0.040454 0.011790716
0.19909285 0.040454 0.01846474
0.26761732 0.040454 0.015449513
0.3094393 0.040454 0.011485521
0.38542122 0.040454 0.016493831
0.40293121 0.040454 0.012680618
0.46238679 0.040454 0.014116185
-0.45203179 0.057388 0.019602697
-0.30450422 0.057388 0.019078536
-0.2163614 0.057388 0.01644405
-0.19219875 0.057388 0.018862668
-0.18728706 0.057388 0.017092898
-0.13140929 0.057388 0.013363602
-0.12271991 0.057388 0.011656096
-0.052444294 0.057388 0.01570351
-0.023482837 0.057388 0.011802981
0.0067763776 0.057388 0.011412831
0.058775917 0.057388 0.01188057
0.074932389 0.057388 0.01660453
0.10699667 0.057388 0.018461818
0.16297513 0.057388 0.010944857
0.21001014 0.059696645 0.014805844
0.22086181 0.057388 0.011572405
0.23579037 0.057388 0.014175106
0.26632077 0.057388 0.013127377
0.29883242 0.057236098 0.016910763
0.32776543 0.056892071 0.016156007
0.33369923 0.05685395 0.012919147
0.34368342 0.057388 0.013435286
0.36534858 0.06228248 0.015725438
0.35520136 0.070396058 0.01383387
-0.23880693 -0.019197339 0.021978552
-0.21776751 -0.019145815 0.029994559
-0.20990583 -0.019150265 0.029302033
0.25753805 -0.010695562 0.026164521
-0.253842 -0.008016374 0.026077792
-0.253842 0.0020954777 0.021065462
-0.22578232 0.013720252 0.024904985
-0.212869 0.013694705 0.020944411
0.31519529 0.013442259 0.02242757
0.31543541 0.039485745 0.028812597
-0.33987969 0.040454 0.021380827
-0.32054681 0.040454 0.021868167
-0.27772328 0.040454 0.02930424
-0.2160538 0.040454 0.029105183
-0.14580163 0.040454 0.022446033
-0.053862233 0.040454 0.022940401
-0.03651901 0.040454 0.02551939
0.0014742874 0.040454 0.026813416
0.026642539 0.040454 0.027236402
0.060882747 0.040454 0.024762809
0.094337314 0.040454 0.027880833
0.14423792 0.040454 0.029753856
0.20819303 0.040454 0.023927122
0.21181376 0.040454 0.020606844
0.2568908 0.040454 0.025837965
0.31028301 0.046311893 0.027306158
0.32756445 0.040454 0.021381237
0.34190151 0.040454 0.024717534
0.35118553 0.040454 0.025783325
0.37892774 0.040454 0.0268301
0.43365335 0.044361316 0.024328198
0.45357826 0.040454 0.023913326
-0.45424911 0.057388 0.021770356
-0.4083268 0.057388 0.025624473
-0.33510146 0.057388 0.026155142
-0.21021244 0.057388 0.028515264
-0.19560853 0.056958359 0.023462527
-0.16888918 0.057388 0.020616885
-0.1353936 0.057388 0.026119534
-0.11172625 0.057388 0.026628328
-0.043905891 0.057388 0.021110062
-0.03312543 0.057388 0.021930868
-0.023589402 0.057388 0.025113396
-0.017050164 0.057388 0.02659522
0.037450731 0.057388 0.024571378
0.046550665 0.057388 0.022745842
0.067490742 0.057388 0.024789013
0.1533083 0.057388 0.022055995
0.17713408 0.057388 0.025528776
0.2947672 0.057104021 0.028048031
0.45548901 0.05273807 0.025527885
-0.25292534 0.071327716 0.029778384
-0.21417412 0.071301274 0.025650701
-0.2000038 0.071325287 0.029400408
-0.17200419 0.071282491 0.022724507
0.22471151 0.071234547 0.025752332
0.28117967 0.070871696 0.023082197
0.35956478 0.070367932 0.021284219
-0.22078912 -0.019138532 0.031127326
-0.19626699 -0.012808954 0.036120299
0.25753894 -0.010559025 0.032146268
0.26135761 -0.019453449 0.030333526
0.28340653 -0.016897418 0.037244517
0.29296675 -0.019656917 0.03016834
-0.19626701 0.0064159445 0.038010158
0.31522703 0.0069985036 0.03093476
0.28583688 0.013570642 0.037408866
0.29873559 0.013487747 0.034406412
-0.40351897 0.040454 0.033251867
-0.34682724 0.040454 0.03279081
-0.29500186 0.040454 0.03149163
-0.28052002 0.040454 0.034703195
-0.22845536 0.04370752 0.032170199
-0.20284142 0.046982583 0.037468433
-0.13589779 0.040454 0.03589002
-0.0023403093 0.040454 0.036328081
0.1127457 0.040454 0.034678102
0.18320221 0.040454 0.036621641
0.26691723 0.046590589 0.039562184
0.34966037 0.040454 0.035852879
0.37877029 0.040454 0.035179138
0.39591256 0.040454 0.03595205
0.41661179 0.047563192 0.031409483
-0.45137712 0.056031507 0.035289701
-0.28090701 0.057388 0.032126382
-0.26954103 0.057051633 0.037998199
-0.22337896 0.057388 0.036361396
-0.19864993 0.057021596 0.033300579
-0.13187996 0.057388 0.037700098
0.11185762 0.057388 0.039283343
0.21053293 0.057388 0.037237424
0.22765896 0.057388 0.037742041
0.2303012 0.057388 0.034964528
0.24969065 0.057393499 0.037131399
0.25175902 0.057388 0.039893154
0.29228684 0.057119872 0.039795998
0.33339918 0.057388 0.031568144
0.34587812 0.057388 0.035236113
0.35733443 0.057880361 0.036015987
0.37443137 0.057388 0.035938628
0.40039024 0.057388004 0.036598321
0.41797161 0.053820238 0.031049907
-0.17497794 0.071353741 0.033850797
0.26886147 -0.019501751 0.047897231
0.25762522 0.0028812983 0.040179145
0.2777288 0.013622751 0.043326877
-0.253842 0.029848563 0.049178272
-0.253842 0.037711356 0.04428798
-0.39376563 0.040454 0.044575576
-0.35770375 0.040454 0.048583604
-0.33749256 0.040454 0.0400564
-0.28625822 0.040454 0.041973598
-0.19474253 0.040454 0.04942013
-0.033092067 0.040454 0.047907878
-0.012552538 0.040454 0.049470186
0.14457226 0.040454 0.047966711
0.19154775 0.040454 0.040183954
0.22466196 0.040454 0.049100652
0.29528412 0.040454 0.041728862
0.3371498 0.040454 0.044678215
0.39062193 0.048443746 0.041771024
-0.38247609 0.057388 0.041040681
-0.34814471 0.057387996 0.046216365
-0.31205419 0.057388 0.049054746
-0.27006292 0.057078715 0.042220403
-0.24853601 0.057082679 0.042829797
-0.2090914 0.057388 0.049241137
-0.19448973 0.057388 0.043130923
-0.17017159 0.057388 0.040647209
-0.08086203 0.057388 0.04803367
-0.075487286 0.057388 0.047004811
-0.063900188 0.057388 0.048714392
-0.018197291 0.057388 0.045997676
0.022182204 0.057388 0.049449794
0.046317302 0.057388 0.042178348
0.073998824 0.057388 0.048941776
0.13673164 0.057388 0.042602085
0.15800354 0.057388 0.044830274
0.22199115 0.059153575 0.041317634
0.26032293 0.057388 0.040542588
0.30623198 0.057220042 0.046785019
0.34107453 0.057388 0.041308567
0.37943423 0.057388 0.042824633
0.26621479 0.070967615 0.044672888
0.30844253 -0.017097116 0.057257801
-0.2059857 -0.0077855159 0.050740458
0.27148411 -0.005028279 0.057257801
-0.22582832 0.0080413911 0.050638624
-0.21434222 0.004461383 0.050661661
0.25926086 0.0039022355 0.057257801
0.27927461 0.013612816 0.050764576
0.3078742 0.015129102 0.057261795
-0.22741708 0.02597818 0.050519854
0.26077577 0.026851445 0.057261799
0.27869111 0.021471411 0.057261799
-0.25125679 0.03427247 0.050466456
-0.43165049 0.048595123 0.058382776
-0.42576507 0.040454 0.053661801
-0.40365472 0.040454 0.051759236
-0.39826223 0.040454 0.05215425
-0.34992686 0.040454 0.059677977
-0.20543291 0.043198738 0.050408993
-0.17102288 0.040454 0.058025528
-0.033730634 0.040454 0.054461863
0.028885499 0.040454 0.056177583
0.081380755 0.040454 0.054535508
0.095024496 0.040454 0.051411975
0.17248997 0.040454 0.057390068
0.19986425 0.040454 0.051004108
0.24019268 0.040454 0.055397421
0.26806366 0.04658322 0.051691234
0.27531466 0.043540269 0.057261799
0.28103334 0.041548494 0.057261799
-0.43429506 0.05402337 0.05567801
-0.42109862 0.057388 0.052982159
-0.36576742 0.057388 0.052213423
-0.35339606 0.057388 0.050863363
-0.34700513 0.057388 0.052191
-0.25570697 0.057140268 0.051792018
-0.23977616 0.05718293 0.058427818
-0.2115922 0.057387996 0.058359329
-0.19463685 0.057388 0.051130567
-0.14500219 0.057388 0.059194259
-0.061925687 0.057388 0.055892974
-0.00058197975 0.057388 0.057390846
0.028961383 0.057388 0.055066854
0.063132182 0.057388 0.056181524
0.090609148 0.057388 0.052969031
0.16144946 0.057388 0.052188769
0.19614424 0.057388004 0.056261845
0.2267805 0.057388 0.05430289
0.24602115 0.05741705 0.055983849
0.34707385 0.057388 0.058936268
0.23191969 0.068344347 0.05375123
0.23015982 0.070059404 0.051713847
0.2895796 0.070817545 0.050774716
0.28412077 -0.01830844 0.060967661
-0.37687129 0.040454 0.060268797
-0.36641738 0.040454 0.067115806
-0.23502341 0.040454 0.069733828
-0.20930991 0.040454 0.061343022
-0.14578199 0.040454 0.063816793
-0.13207044 0.040454 0.06000755
-0.10406268 0.040454 0.060988136
-0.015265449 0.040454 0.065397032
0.095976591 0.040454 0.061188255
0.12062725 0.040454 0.066687457
0.17988434 0.040454 0.06481342
0.21054928 0.040454 0.066223152
0.27960575 0.040454 0.065659501
0.32690603 0.040454 0.068473019
0.3586911 0.046957083 0.063798457
-0.30897272 0.057388 0.060070418
-0.26902643 0.057388 0.06012436
-0.25493875 0.057388 0.068676606
-0.23940101 0.057388 0.064677969
-0.22001182 0.057388 0.069843486
-0.20255791 0.057388 0.06270422
-0.17633826 0.057388 0.063466117
0.069359802 0.057388 0.062277518
0.094369933 0.057388 0.06315881
0.19420373 0.057388 0.066888638
0.275006 0.05729837 0.067610487
-0.24595894 0.065133587 0.064155325
-0.2371936 0.069531769 0.066106886
0.32581323 0.068767726 0.066530652
-0.41874894 0.042340431 0.070093051
-0.34680718 0.040454 0.079737864
-0.30825976 0.040454 0.078837611
-0.2919063 0.040454 0.076761052
-0.19528374 0.040454 0.073016375
-0.15452181 0.040454 0.076209292
-0.10384407 0.040454 0.077558249
-0.067022435 0.040454 0.073482133
-0.038500287 0.040454 0.073932253
0.12536423 0.040454 0.07419537
0.23807104 0.040454 0.07670854
0.32398361 0.040453997 0.078404114
0.34855682 0.049051445 0.073927954
-0.41777706 0.057388 0.070471749
-0.25842625 0.057388 0.079377413
-0.23809688 0.057388 0.07561931
-0.20422831 0.057388 0.07071729
-0.18776445 0.05673141 0.078358993
-0.12603575 0.057388 0.0748991
-0.099975072 0.057388 0.077380963
-0.075129889 0.057388 0.075894773
-0.044545289 0.057388 0.077819273
0.0090517923 0.057388004 0.072563872
0.17303085 0.057388 0.076275155
0.19586924 0.057388 0.077156179
0.21447787 0.057388 0.078098223
0.29989058 0.067224316 0.074880503
0.29717052 0.070768788 0.07524024
0.2868591 -0.019376758 0.085153535
-0.40426004 0.04779391 0.080946818
-0.3764717 0.040454 0.080355048
-0.33504483 0.040454 0.084766507
-0.25422508 0.048277993 0.087003961
-0.15080351 0.040454 0.083065972
-0.09025149 0.040454 0.08078216
-0.023557603 0.040454 0.082240067
-0.015648652 0.040454 0.086340681
0.014544994 0.040454 0.087725744
0.092967987 0.040454 0.084006183
0.10826571 0.040454 0.083148256
0.23760706 0.040454 0.084015474
0.26620537 0.040454 0.085279383
-0.32892275 0.057388 0.083871953
-0.17853431 0.055410277 0.083098665
-0.13537505 0.057388 0.085500866
0.28951126 0.057388 0.085826285
-0.34262797 0.040454 0.099513285
-0.26601431 0.04125905 0.096709214
-0.15044135 0.040454 0.09503106
-0.034840748 0.040454 0.098628663
0.068433493 0.040454 0.094322391
0.08010108 0.040454 0.09878774
0.13626896 0.040454 0.093375683
0.22409832 0.040454 0.09524779
0.27358013 0.040454 0.099630818
-0.38449091 0.056694638 0.091327235
-0.35786194 0.057387996 0.092304297
-0.32551506 0.057388 0.092464671
-0.28604245 0.057388 0.095884338
-0.15184139 0.057388 0.094568133
-0.11567485 0.057388 0.091745943
-0.074525103 0.057388 0.092939757
-0.0066511407 0.057388 0.095798425
0.0461827 0.057388 0.094955124
0.2559543 0.057388 0.090297446
0.27762476 0.057388 0.098753586
0.29052165 0.057388 0.090324119
0.30326027 0.057388 0.096280016
0.31940344 0.057388 0.091857031
-0.35172945 0.049042806 0.10513053
-0.33448061 0.043263573 0.10917072
-0.31996572 0.040454 0.10090312
0.0029239729 0.040454 0.1029088
0.14001307 0.040454 0.10968585
0.16284102 0.040454 0.10919961
0.23920941 0.040454 0.10199343
0.2776258 0.040454 0.10945427
0.32368258 0.040454 0.10996067
-0.33157879 0.057388 0.10023402
-0.10545132 0.057388 0.10674037
0.15499762 0.057388 0.10117915
0.16768199 0.057388 0.10131159
0.26609474 0.057388 0.10305904
0.29245275 0.057388 0.10977087
0.30036199 0.057388 0.10440771
0.28571969 -0.012625795 0.11602274
-0.052813157 0.041951396 0.110036
-0.047521226 0.047589041 0.110036
0.014460327 0.042663768 0.110036
0.11534265 0.045653097 0.110036
0.15992798 0.040481284 0.11003601
0.24660282 0.040674556 0.110036
0.26689935 0.045574624 0.110036
0.28514305 0.041558471 0.110036
-0.30108401 0.05584535 0.110036
-0.044081338 0.054416388 0.110036
-0.0027833134 0.054526679 0.110036
0.075712144 0.052984454 0.110036
0.15886368 0.05117216 0.110036
0.19756755 0.050723728 0.110036
0.25238413 0.05189085 0.110036
0.26125491 0.0518158 0.110036
0.29625887 0.050322186 0.11003601
