# .PCD v0.7 - Point Cloud Data file format
VERSION 0.7
FIELDS x y z
SIZE 4 4 4
TYPE F F F
COUNT 1 1 1
WIDTH 930
HEIGHT 1
VIEWPOINT 0 0 0 1 0 0 0
POINTS 930
DATA ascii
0.18667482 0.03890007 -0.15240425
0.086295106 0.047113232 -0.15132755
0.092930906 0.041686337 -0.15172243
0.196505 0.049527645 -0.1555609
0.20609856 0.051319595 -0.15317467
0.24301776 0.050895948 -0.15103839
0.0012672259 0.038549449 -0.14548069
0.16874725 0.037109215 -0.14337161
0.2081012 0.037699532 -0.14634761
0.24231699 0.038280845 -0.14927952
-0.0034006299 0.048947692 -0.14120559
0.00192001 0.048747599 -0.14553005
0.027823592 0.04601413 -0.14526758
0.033801097 0.042028829 -0.14788063
0.048787296 0.049633157 -0.14466712
0.10229338 0.049260728 -0.14278618
0.19243765 0.049666468 -0.14483304
0.24339913 0.048881013 -0.14087039
0.27578917 0.040708251 -0.14711703
0.28390175 0.044679079 -0.14685966
0.29458889 0.049452767 -0.14481474
0.33143526 -0.054652791 -0.1309078
-0.21665026 -0.044807773 -0.13634601
0.37412584 -0.042398084 -0.13100715
-0.21549098 -0.026932586 -0.13636146
0.30795419 -0.017230716 -0.13376307
0.31059009 -0.016268829 -0.13584556
0.33122027 -0.012108624 -0.1355322
0.3595075 -0.011713376 -0.13626947
-0.26186848 0.038092982 -0.133154
-0.24785624 0.039320271 -0.133154
-0.21779115 0.035039037 -0.13143745
0.05463462 0.035638947 -0.13515665
0.068806469 0.036315367 -0.13934633
0.12961952 0.034970678 -0.13101742
0.21152154 0.036306355 -0.13928962
-0.27579021 0.042451493 -0.133156
-0.20752618 0.047287073 -0.13335402
-0.1758379 0.04102502 -0.13406341
-0.14738081 0.045863003 -0.13515313
-0.13050404 0.047737673 -0.13411355
-0.10735153 0.046387315 -0.13734005
-0.097743049 0.047189176 -0.13795769
-0.065651909 0.047826923 -0.13466854
-0.056631725 0.047539309 -0.13288407
-0.0084001534 0.047866344 -0.13491431
0.0041716807 0.048466094 -0.13862324
0.07714323 0.047804404 -0.13452531
0.10685866 0.047411598 -0.1320927
0.15647846 0.048427649 -0.13838653
0.2329687 0.047723118 -0.13402286
0.29587513 0.045576781 -0.13558617
0.30783531 0.048435107 -0.13843168
0.34626043 0.044973098 -0.13227835
-0.4149763 0.055579849 -0.13627416
-0.40568572 0.058141883 -0.13667448
-0.38754177 0.051113516 -0.13555807
-0.44269466 0.064744964 -0.13050413
-0.39978459 0.060582358 -0.13638431
-0.22604233 -0.066837147 -0.12016135
0.36544639 -0.060113303 -0.12054513
0.36896741 -0.055506457 -0.12935023
-0.24621654 -0.04915861 -0.12712745
0.37351635 -0.045151494 -0.12250497
0.3026886 -0.035199147 -0.12679571
0.30317375 -0.029956415 -0.12423949
0.33028004 -0.022281239 -0.12840293
0.37221426 -0.022905027 -0.12145811
-0.27259237 -0.013268229 -0.1262466
-0.24831538 0.034045018 -0.12528311
-0.19651623 0.034359258 -0.12722906
-0.18709414 0.03409959 -0.12562105
-0.14970414 0.0333995 -0.12128571
-0.12428506 0.034210764 -0.1263095
-0.1056235 0.034805685 -0.1299962
-0.095107414 0.034040589 -0.12525566
-0.058411255 0.033908248 -0.12443633
-0.039472803 0.033500295 -0.12190989
0.026294477 0.034353562 -0.12719186
0.11177699 0.033930074 -0.12457177
0.13406575 0.034087256 -0.12554556
0.1455403 0.033355221 -0.12101176
0.17496219 0.034622155 -0.12885863
0.25249669 0.034585431 -0.12862884
0.27279443 0.033677168 -0.1230064
0.33650559 0.035535611 -0.12642574
0.34966242 0.033604875 -0.1225569
0.35702762 0.033355594 -0.12101325
-0.36656779 0.045436352 -0.12575157
-0.33652538 0.045543872 -0.12941718
-0.28098646 0.045806393 -0.12215451
-0.22188659 0.045469478 -0.1200674
-0.089877941 0.045585148 -0.12078245
-0.047093183 0.046363208 -0.12560086
0.044907458 0.046062581 -0.12374169
0.094664626 0.046615593 -0.12716454
0.13051525 0.046233639 -0.12479831
0.33004144 0.046217076 -0.12469545
0.34632307 0.046342574 -0.12547264
0.35174397 0.045592342 -0.1208265
0.36567748 0.045590945 -0.12544492
-0.44613856 0.058507882 -0.12107331
0.34795475 -0.070822604 -0.11317131
0.31508669 -0.063233182 -0.11485649
0.36418813 -0.061448794 -0.11154222
-0.28254944 0.033092696 -0.1193858
-0.20322302 0.032745756 -0.11723734
-0.17489867 0.032324642 -0.11462958
-0.16316116 0.032479908 -0.11559108
-0.13965361 0.032112826 -0.1133179
-0.099050574 0.031913042 -0.11208072
0.13415617 0.031658974 -0.1102103
0.15821961 0.032175153 -0.11370386
0.20463029 0.032738745 -0.11719417
0.27346978 0.032912798 -0.1182732
0.31341469 0.032623474 -0.11051688
0.34320417 0.032975182 -0.11866055
0.36252695 0.032057874 -0.11297619
-0.14047132 0.044747617 -0.11559531
-0.13852 0.044306464 -0.11286315
-0.088803105 0.044343054 -0.11308974
-0.047993701 0.044486511 -0.11397824
0.016258495 0.045348998 -0.11932124
0.09914574 0.044940781 -0.11679226
0.23076884 0.04429628 -0.11280011
0.33382323 0.045125797 -0.11793736
-0.42046237 0.052750263 -0.11318776
-0.34677604 0.052616008 -0.11571556
-0.27604091 -0.053725179 -0.1095162
0.31024015 -0.058126178 -0.10937089
-0.24524835 -1.2843693e-05 -0.1074733
0.33357564 -0.00036998643 -0.10638501
-0.33205456 0.036427557 -0.10621305
-0.19417922 0.030409865 -0.10023357
-0.13021174 0.031449832 -0.10854109
-0.053552911 0.031618383 -0.10988702
-0.018096957 0.031100251 -0.10574822
0.12833042 0.030435745 -0.10043966
0.27080509 0.031196306 -0.10651401
0.30466458 0.031026652 -0.10515871
0.31725234 0.030852117 -0.10376454
0.36918461 0.030387405 -0.10005359
-0.3849315 0.045414571 -0.10456841
-0.31706896 0.045974493 -0.10525268
-0.15198612 0.043603342 -0.10763197
-0.0040312973 0.043177247 -0.10422887
0.089292943 0.043623134 -0.1077915
0.10801682 0.042922024 -0.10218964
0.20951645 0.043174267 -0.10420509
0.24556582 0.043737896 -0.10870849
0.26726678 0.043520465 -0.10697125
0.29299837 0.043167897 -0.10415416
-0.44610661 0.056703921 -0.10968518
-0.42577377 0.052053712 -0.10091745
-0.36589223 0.053893216 -0.1008151
-0.46447319 0.06967862 -0.10357232
-0.25706366 -0.064090505 -0.09157674
-0.2199406 -0.062194265 -0.094888151
0.34950152 -0.055441666 -0.095053293
-0.28028429 -0.041410781 -0.096775174
0.37363607 -0.040624332 -0.092354476
0.36005658 -0.039003812 -0.095668286
-0.22285107 -0.029795423 -0.094586357
-0.20935124 -0.029027663 -0.096036188
-0.27396923 -0.015067813 -0.097592935
-0.26949725 -0.011488326 -0.092244111
0.35210189 -0.013195308 -0.091996297
0.36746565 -0.014383251 -0.095291972
-0.2344176 -0.003340286 -0.092065714
-0.23838848 0.029254051 -0.091000192
-0.14360419 0.029191852 -0.090503305
-0.089530922 0.029558636 -0.093433425
-0.022770233 0.029713161 -0.094667852
0.040463462 0.02993229 -0.096418396
0.067628749 0.029463945 -0.092676952
0.10229057 0.029986762 -0.096853532
0.13318336 0.029796591 -0.095334366
0.20317563 0.029818626 -0.095510013
0.36770508 0.029318616 -0.091515288
-0.34453377 0.036854543 -0.092493579
-0.30518606 0.031356152 -0.099419139
-0.17435569 0.030039398 -0.09727405
-0.08170598 0.035474002 -0.093286403
0.12183809 0.030008662 -0.09702836
-0.39423186 0.04528759 -0.090839654
-0.29439744 0.042564545 -0.097514167
-0.11689651 0.041836467 -0.09351588
-0.10979287 0.041419312 -0.090186916
-0.0945687 0.04247541 -0.098620996
-0.062699929 0.042497341 -0.098797299
-0.015898066 0.041985214 -0.094704553
0.039194368 0.041730009 -0.092665464
0.069638357 0.042310435 -0.097303063
0.093144991 0.042478278 -0.098644093
0.10242404 0.041923147 -0.09420862
0.1198267 0.042590171 -0.099538125
0.16979709 0.042140216 -0.095943041
0.18493272 0.042591281 -0.099547043
0.3250384 0.041926622 -0.094236396
0.42361143 0.042171072 -0.096191518
-0.46145943 0.057775736 -0.097105674
-0.44108161 0.065693662 -0.090766542
-0.41325286 0.061796106 -0.098183364
-0.2148505 0.028803948 -0.087404482
-0.096039705 0.028781097 -0.08722192
-0.085897289 0.028557457 -0.085435346
-0.049978163 0.028122928 -0.081360951
0.20965464 0.028351327 -0.083788641
0.2381521 0.028728373 -0.086800724
0.27273247 0.028062342 -0.080681421
0.32409963 0.028046329 -0.080501825
0.41499016 0.028444828 -0.084535584
-0.34255779 0.035609219 -0.085396513
-0.097251318 0.03201117 -0.089121379
-0.077264778 0.039275289 -0.088408917
-0.33186257 0.04609834 -0.086039662
-0.025884073 0.041216079 -0.088559151
0.14334801 0.040397946 -0.081443012
0.16843951 0.040837854 -0.085537151
0.17272656 0.040615667 -0.083761841
0.24948043 0.0402974 -0.080315277
0.41407487 0.040486209 -0.082432978
-0.45879012 0.055382527 -0.081301056
-0.36824125 0.052430756 -0.086083129
-0.41132873 0.060071446 -0.087241799
-0.24111567 0.02786937 -0.078517057
-0.23366778 0.027843973 -0.078232199
-0.20082241 0.027654011 -0.076101601
-0.17519191 0.027380042 -0.073028781
-0.16393398 0.027664926 -0.076224014
-0.15764165 0.027445087 -0.073758304
-0.095636353 0.027506184 -0.074443601
-0.054919995 0.027245257 -0.071517013
0.13111313 0.027961629 -0.079551831
0.18182346 0.027425045 -0.073533542
0.28807202 0.027308691 -0.072228536
0.2913959 0.027538348 -0.074804336
0.39378148 0.02783351 -0.078114845
0.41675982 0.02777764 -0.077488221
-0.28491384 0.039566681 -0.072119579
-0.25731933 0.039915711 -0.076034285
-0.13166457 0.035010003 -0.074823841
-0.093328223 0.037486997 -0.074403852
-0.073403545 0.037959609 -0.077388398
0.15331383 0.039567202 -0.07212545
0.18126836 0.039772492 -0.074427962
0.27291626 0.039871201 -0.075535044
0.32500842 0.039554216 -0.071979791
0.38091576 0.039450146 -0.070812523
-0.42504835 0.048767205 -0.073047936
-0.38801169 0.042681426 -0.076976359
-0.23928782 0.040029541 -0.077311024
0.030302763 0.040236618 -0.079633564
0.27576214 0.040240686 -0.079679191
0.32202923 0.040183187 -0.079034299
-0.43593207 0.050765328 -0.074210666
-0.38827354 0.054558337 -0.072157219
-0.46593904 0.068611704 -0.078192644
-0.44241229 0.06408418 -0.073379003
-0.42788506 0.061740734 -0.07540147
-0.16357148 0.026220959 -0.060028534
0.0069651678 0.026861466 -0.067212448
0.024664521 0.027061149 -0.069452077
0.3741321 0.026742861 -0.065882176
0.38550329 0.026996532 -0.068727344
-0.25111663 0.039009228 -0.065867208
-0.080273092 0.038554285 -0.060768344
-0.055399507 0.0387698 -0.063189797
-0.026760485 0.038544774 -0.060657904
0.017301209 0.038980503 -0.065545008
0.044417705 0.039098017 -0.066863082
0.080771156 0.038937703 -0.065064989
0.2043106 0.038914002 -0.06479916
0.21253154 0.038556553 -0.060790047
0.28950459 0.03921368 -0.06816031
0.2991339 0.039067581 -0.066521697
0.3153241 0.039267212 -0.068760768
0.3841396 0.039341196 -0.069590531
0.39233881 0.038962871 -0.065347262
-0.34263811 0.045600057 -0.060873568
-0.38544384 0.053432494 -0.065162845
-0.22329439 0.025766335 -0.054693229
-0.16648883 0.025555786 -0.050750583
-0.023858754 0.026193481 -0.05972036
0.038025681 0.026119303 -0.058888372
0.042957678 0.025859335 -0.055972587
0.099130213 0.025833558 -0.055683482
0.13461444 0.026080107 -0.058448736
0.15642527 0.026031455 -0.057903096
0.16448505 0.025913253 -0.056577336
0.3144471 0.025796849 -0.055264629
0.34280381 0.026108313 -0.058765106
0.42366502 0.025582895 -0.051258359
-0.35116687 0.034168027 -0.052658416
-0.29900533 0.038828988 -0.058343127
-0.28793171 0.038084693 -0.055272929
-0.261094 0.037920229 -0.052565105
-0.19011311 0.038192973 -0.056712143
-0.13966101 0.037905961 -0.052299075
-0.1209428 0.034177609 -0.050152693
-0.099622801 0.036904868 -0.051411547
-0.052922595 0.037886284 -0.051928304
0.011320611 0.038143955 -0.056162324
0.090237848 0.038230758 -0.05713588
0.22586709 0.038191196 -0.056692205
0.29412219 0.038060222 -0.055183604
0.38877577 0.037785519 -0.050043505
0.391848 0.038071707 -0.055352047
-0.4689163 0.057991255 -0.057460431
-0.37284613 0.050585952 -0.057918068
-0.28530338 0.025475373 -0.049213085
-0.25516206 0.02516048 -0.043348338
-0.20737877 0.024997909 -0.040304132
-0.18106964 0.025092682 -0.042078771
-0.096001178 0.025212053 -0.044314049
-0.085054129 0.025322895 -0.046389647
-0.055252418 0.025397271 -0.047782376
0.020787165 0.025352124 -0.046936959
0.10481156 0.025389016 -0.047627788
0.11723822 0.025030408 -0.040915057
0.30745363 0.025142219 -0.043007471
0.32388932 0.025226045 -0.04457704
-0.35179546 0.034110378 -0.049579062
-0.25254762 0.03762836 -0.04710583
-0.2429885 0.037339482 -0.04170246
-0.11856934 0.036764894 -0.049570709
-0.1055599 0.031095199 -0.040079772
-0.090568855 0.032448802 -0.049869075
-0.059178192 0.037536677 -0.045392115
0.017682642 0.037533961 -0.045332167
0.076262288 0.037552733 -0.045683511
0.091427527 0.037677888 -0.048029508
0.13354638 0.037293877 -0.040837862
0.32771391 0.037534002 -0.045337208
0.39251706 0.037636206 -0.047249578
0.41904905 0.037377276 -0.042399086
-0.41384578 0.044666927 -0.045244277
-0.4086116 0.043587167 -0.042122453
-0.39351803 0.041058056 -0.043890666
-0.28905475 0.02496836 -0.038912509
-0.26521349 0.024612006 -0.033077903
-0.12802356 0.024501238 -0.031001015
-0.079906546 0.024785362 -0.036324106
-0.06803041 0.024743337 -0.035534538
-0.05580619 0.024924781 -0.038934767
0.096610077 0.024707947 -0.034877755
0.12343681 0.024638399 -0.033574976
0.18191819 0.024519322 -0.031344254
0.32133892 0.024933802 -0.039104268
0.36979079 0.02487278 -0.037964508
0.39575598 0.02446265 -0.030287163
0.44462609 0.02480685 -0.036730871
-0.33265066 0.030145984 -0.03787151
-0.30625147 0.038200103 -0.036315382
-0.23254016 0.037207633 -0.039235234
-0.22101265 0.03672934 -0.030283354
-0.21088749 0.036809366 -0.031782433
-0.15372491 0.036783542 -0.031286895
-0.12602277 0.036806621 -0.031720474
-0.06779249 0.036889531 -0.033273868
-0.054916691 0.036930773 -0.034050066
0.091534942 0.036845628 -0.032446768
0.15881367 0.036981463 -0.034989566
0.1631465 0.037135292 -0.037869185
0.19696485 0.036995418 -0.035250776
0.40350538 0.036980264 -0.034967162
0.45606506 0.037074238 -0.03672627
-0.41786486 0.044597849 -0.03108409
-0.34592369 0.044391338 -0.031784832
-0.4059839 0.054743126 -0.030065531
-0.39591494 0.053120859 -0.032440979
-0.38905174 0.052136581 -0.036300942
-0.46735072 0.060718711 -0.038883362
-0.33246702 0.029685436 -0.029967697
-0.30699435 0.025469597 -0.025435809
-0.28409845 0.026470793 -0.022257922
-0.26813415 0.024394263 -0.029000595
-0.061800815 0.024231251 -0.023771342
0.069861084 0.02434985 -0.028172094
0.087118 0.024280543 -0.026562221
0.09687563 0.024294756 -0.02714075
0.14625004 0.024212426 -0.022720288
0.19614515 0.024176568 -0.020705741
0.20531161 0.024377879 -0.028695107
0.29979053 0.025379151 -0.026454365
0.35075068 0.024192113 -0.021575397
0.43179786 0.02425235 -0.024968497
-0.29244697 0.036750995 -0.028055685
-0.26849741 0.036439195 -0.020484729
-0.24375436 0.036511093 -0.02453997
-0.17566656 0.036545496 -0.02642916
-0.1642784 0.03657091 -0.027304212
-0.13188034 0.036535308 -0.025864249
-0.10996425 0.036493223 -0.023490271
-0.052673087 0.03518378 -0.0243535
-0.01501158 0.036499258 -0.023818117
0.048470553 0.036457911 -0.021505481
0.082617514 0.036452334 -0.021192444
0.23848695 0.03653802 -0.02601061
0.30236822 0.036583483 -0.027552135
0.41783696 0.036469355 -0.022147238
-0.40454909 0.041944969 -0.020504968
-0.35155448 0.045077622 -0.02506892
-0.28221044 0.024123352 -0.01772975
-0.27527547 0.024139535 -0.018640101
-0.18537228 0.024078868 -0.015217483
0.14770076 0.024115842 -0.01728907
0.17203389 0.024069419 -0.014679361
0.20086908 0.024110658 -0.016999312
0.29023558 0.024070783 -0.014760245
0.33893085 0.024092935 -0.016007725
0.42238748 0.024057938 -0.01403152
0.44428372 0.02401863 -0.011827774
-0.28981572 0.036367383 -0.0130447
-0.27342105 0.036276788 -0.011340477
-0.25148991 0.03629867 -0.012566933
-0.22198647 0.036346812 -0.015303818
-0.21675186 0.036418024 -0.019299291
-0.15596351 0.036367103 -0.016418101
-0.090536565 0.0328613 -0.012279484
0.03327623 0.036403216 -0.018437995
0.24520701 0.036340732 -0.014940115
0.25525343 0.036260039 -0.010408225
0.33304036 0.036324978 -0.014066187
0.3712627 0.036292419 -0.012242161
-0.46417153 0.052273948 -0.01826914
-0.45778638 0.063285634 -0.010262595
-0.29965883 0.024491863 -0.008470309
-0.18365863 0.023922868 -0.0064516319
-0.14684246 0.023921091 -0.0063516591
-0.12593305 0.023817422 -0.0005198571
-0.11019231 0.02389608 -0.0049447455
-0.068533674 0.023894386 -0.0048494185
0.071515784 0.0238152 -0.0003947973
0.16041884 0.023837095 -0.0016265706
0.23314756 0.02384246 -0.0019282862
0.25557816 0.023905326 -0.0054526026
0.32389355 0.023930956 -0.0068983641
0.34496647 0.023882387 -0.0041679563
0.39023399 0.023827551 -0.0010896891
0.41845852 0.023852937 -0.0025145619
-0.39045259 0.039211027 -0.0048491908
-0.38787705 0.038819972 -0.0080009224
-0.31396398 0.03832151 -0.0085937874
-0.29334962 0.03628182 -0.0019226053
-0.28710508 0.036207188 -0.0066325902
-0.15833527 0.036179077 -0.0058680894
-0.11187272 0.032112174 -0.0062935427
-0.095319748 0.030861985 -0.0058889952
-0.04033839 0.03620534 -0.0073240753
-0.0042043151 0.036236245 -0.0090739513
0.017512649 0.036206435 -0.0074020028
0.035852704 0.036179502 -0.0058915722
0.044502869 0.036236048 -0.0090625845
0.073013447 0.036077015 -0.00014398363
0.11430851 0.036123022 -0.0027239646
0.14383066 0.036188599 -0.0064017083
0.17176996 0.036252547 -0.0099879755
0.23438713 0.036132954 -0.0032809095
0.33716303 0.036122862 -0.0027149543
0.34868053 0.036149215 -0.0041929488
0.46166414 0.036092654 -0.0010164345
-0.33358568 0.041563265 -0.003474467
-0.32760814 0.040599991 -0.0077057946
-0.41055614 0.055030271 -0.0079571288
-0.40409261 0.053835474 -0.0040495293
-0.29206961 0.02399632 0.0059134639
-0.14110184 0.023921547 0.0088757034
-0.11239126 0.023901258 0.0077339136
0.016126364 0.023817647 0.0030285711
0.18223381 0.023836467 0.004026534
0.23136541 0.023810728 0.0026391675
0.25531179 0.023858598 0.0053332341
0.30186328 0.023814091 0.0028285575
0.31245747 0.023849957 0.0048469296
0.34473208 0.023839362 0.0042506498
0.42834571 0.023786567 0.0012158849
0.44285432 0.023821302 0.0032327026
0.45134515 0.023834331 0.0039634095
-0.3525013 0.03256721 0.0049381056
-0.32435593 0.039940141 0.0049751792
-0.31602043 0.038557068 0.0068176328
-0.2906993 0.036185455 0.0042515369
-0.16684388 0.036077302 0.0026562219
-0.11081194 0.036206141 0.0098904204
-0.057995133 0.036184579 0.0086408146
-0.044013079 0.036180794 0.0084485868
0.012570828 0.036131147 0.0056770965
0.15036668 0.036099769 0.0039164065
0.16962087 0.036095638 0.0036847994
0.36970937 0.036119759 0.0050379685
0.4322522 0.036077432 0.0026634217
-0.38028356 0.049755376 0.0098864343
-0.33159414 0.041137975 0.00089792977
-0.28689846 0.024122257 0.019410897
-0.18416665 0.024012383 0.013987591
-0.17414887 0.024085779 0.018117992
-0.10113262 0.024082966 0.017924931
0.11763832 0.023946024 0.010253105
0.41918257 0.024106063 0.019236671
0.45591113 0.024016414 0.014203062
-0.34389579 0.031266611 0.015809534
-0.2761395 0.036292478 0.014714549
-0.23258609 0.03629582 0.014941531
-0.22711816 0.036356274 0.018332437
-0.18867218 0.036295522 0.014910057
-0.14605892 0.036256358 0.012697093
-0.13281672 0.036266014 0.013226297
-0.11404151 0.03446836 0.018555064
-0.096688211 0.030998144 0.015462962
-0.064868934 0.035956621 0.011808834
0.063137524 0.036218077 0.010557887
0.070598468 0.036318805 0.016207529
0.12301619 0.036276471 0.013839196
0.18036167 0.03632082 0.016306758
0.24604937 0.036291327 0.014663812
0.3387236 0.036296353 0.014956685
0.44619754 0.036233377 0.0114177
-0.45014042 0.049791936 0.018468708
-0.42644426 0.045567419 0.012730736
-0.41497335 0.043680694 0.018734377
-0.35736546 0.045875411 0.015755489
-0.34945649 0.044418663 0.011249457
-0.4639869 0.052076884 0.01162807
-0.45116407 0.062136561 0.01292623
-0.19677794 0.02414141 0.021220818
-0.18876311 0.024162229 0.022385463
-0.15169743 0.024250988 0.027375039
-0.13965458 0.024232749 0.026373163
-0.043076672 0.024189834 0.023945868
-0.036472723 0.024286695 0.029404148
0.0083066002 0.024126025 0.020358121
0.032193854 0.024198975 0.024447672
0.04311727 0.024260117 0.02789985
0.080514267 0.024280811 0.029070646
0.18181539 0.02426165 0.02799762
0.19361211 0.024166197 0.022604868
0.24696569 0.024127023 0.020424526
0.26317698 0.024125936 0.020363988
0.36956263 0.024228455 0.026128657
0.44694787 0.024285104 0.02931276
-0.38279223 0.038277909 0.029462066
-0.30787706 0.037731014 0.022327216
-0.28277215 0.033021834 0.026646629
-0.050001428 0.03645315 0.023730412
0.023431323 0.03644738 0.023412749
0.041518342 0.036425583 0.022192383
0.11971164 0.036521282 0.027568037
0.14630041 0.036571749 0.029814789
0.25125656 0.036421388 0.021945491
0.28115681 0.036540635 0.02866438
0.30292746 0.032075852 0.025181208
0.31173313 0.036500968 0.026416913
-0.37097093 0.048400939 0.024590442
-0.33716452 0.042568561 0.027200738
-0.29482001 0.024831824 0.035135619
-0.27998784 0.024525072 0.033950634
-0.24184829 0.024597803 0.035312265
-0.22983849 0.024582684 0.035029195
-0.17247838 0.024476113 0.033034109
-0.12671798 0.024414754 0.031885371
-0.10441133 0.027093146 0.030944586
-0.098989367 0.024433222 0.032231148
0.078903273 0.024409596 0.031788815
0.12419039 0.024320472 0.030120343
0.29511446 0.024568988 0.034772787
0.36901647 0.024555119 0.03451312
0.43056393 0.024576264 0.034909006
-0.36546925 0.035643093 0.036477812
-0.26394856 0.037092566 0.039564222
-0.24689618 0.036733106 0.032835215
-0.23133036 0.036887292 0.035721652
0.096515365 0.036821462 0.034489315
0.18154421 0.036638007 0.03105507
0.19835767 0.0368044 0.034169935
0.21348009 0.036876172 0.03551342
0.27522066 0.03667625 0.031770978
0.32019779 0.037069894 0.039139863
-0.43363139 0.047479801 0.036147714
-0.36663806 0.048040465 0.035141185
-0.33250883 0.042077653 0.03463532
-0.32859492 0.0412433 0.031800944
-0.46377972 0.052802142 0.037608862
-0.45772547 0.063896522 0.035414986
-0.4374696 0.060579848 0.039216913
-0.31330538 0.027081124 0.044162601
-0.30228525 0.025661917 0.041291982
-0.25673136 0.025105421 0.044815324
-0.24766356 0.0251946 0.04648488
-0.23799019 0.024905853 0.041079268
-0.15194735 0.025133476 0.045340557
-0.11793866 0.024986425 0.042587616
0.061681673 0.025292136 0.048310809
0.10475279 0.025114235 0.044980317
0.41827059 0.025185328 0.046311256
-0.34523949 0.032716438 0.047390185
-0.33851552 0.031662483 0.04951993
-0.3148126 0.039668813 0.045939017
-0.30517036 0.038249336 0.042223923
-0.24585253 0.037446886 0.04619699
-0.16823414 0.037545417 0.048041493
-0.12508145 0.037191421 0.041424602
-0.10291319 0.034842025 0.042452119
-0.066960767 0.037274998 0.04299397
-0.046021368 0.033878393 0.049550064
0.026063021 0.037210323 0.041768588
0.1577488 0.037293751 0.043330397
0.17066392 0.037250485 0.042520486
0.20034161 0.037122376 0.040122297
0.26008865 0.037256699 0.042636819
0.27109456 0.037505135 0.04728749
0.30235535 0.037349142 0.044367328
0.45113751 0.037190169 0.041391362
-0.42466682 0.046293005 0.043020073
-0.34301189 0.044374116 0.043300975
-0.44596171 0.050181724 0.046433154
-0.029503196 0.025599642 0.054067597
-0.013099179 0.025661619 0.055227898
0.01274766 0.025809571 0.057909325
0.27415413 0.025588382 0.053856838
0.34232342 0.025397949 0.050291721
-0.26214817 0.037822742 0.053232927
-0.13422564 0.03813342 0.058539078
-0.079803824 0.03529476 0.056344841
-0.060979646 0.031041775 0.059962362
-0.056624718 0.031897705 0.052344479
-0.047357511 0.035074461 0.056450784
-0.034958914 0.037857424 0.05388663
-0.0071947048 0.037826151 0.053296737
0.1261228 0.037703484 0.051000457
0.1667393 0.0378576 0.053885467
0.30684796 0.038197737 0.059260454
0.32232261 0.038091797 0.057943232
0.38171196 0.038007274 0.056687247
0.4405522 0.037830781 0.053383347
0.45396614 0.038060833 0.057689939
-0.41861397 0.045976214 0.056599017
-0.39924476 0.042568073 0.055868097
-0.44781709 0.0507266 0.050541259
-0.40609977 0.056117199 0.057529978
-0.39769569 0.054655772 0.057532202
-0.15993035 0.026358094 0.064061537
0.026041225 0.026404684 0.064584106
0.050985727 0.026660405 0.067452244
0.061138764 0.026080288 0.060945675
0.085076489 0.026103092 0.061201464
0.09499608 0.026626358 0.06707038
0.14958555 0.026456319 0.06516324
0.16932236 0.026743697 0.06838645
0.43601269 0.026650293 0.067338809
-0.28694135 0.038552824 0.063098542
-0.26274911 0.038612008 0.06390693
-0.23442277 0.038321465 0.060648203
-0.2245526 0.038709823 0.065003999
-0.21067695 0.038582593 0.063576981
-0.028424207 0.036899798 0.06416361
0.026354788 0.038469624 0.062309891
0.061873253 0.03844326 0.062014267
0.092857346 0.038348749 0.060954198
0.13562647 0.038427569 0.061838254
0.33089572 0.038702361 0.064920329
0.34125572 0.038304038 0.060452737
-0.39602023 0.054634809 0.06061976
-0.46917877 0.066415913 0.060911182
-0.24401724 0.026907792 0.070226938
-0.23836266 0.027357159 0.075267024
-0.21389915 0.027140593 0.072838023
-0.1688017 0.027519237 0.077084884
-0.11593909 0.02758237 0.077792957
-0.087133273 0.027167965 0.07314501
-0.07758113 0.026934966 0.070531741
-0.048774064 0.026989454 0.071142882
0.1211426 0.026962867 0.070844643
0.15862726 0.027028659 0.071582586
0.20239475 0.027687367 0.078970641
0.28383362 0.027544279 0.077365771
0.33793175 0.027390085 0.075636312
0.35081807 0.026909269 0.070243508
0.38011682 0.02730168 0.074644774
0.4250024 0.027559167 0.077532716
-0.34070706 0.033916906 0.073531687
-0.19695371 0.039535675 0.074266709
-0.12408105 0.039263334 0.071212158
-0.030211791 0.036869131 0.072244391
0.099732913 0.0391795 0.070271887
0.10358661 0.039184038 0.070322797
0.15255798 0.039413128 0.072892264
0.18136016 0.039209493 0.070608243
0.22928695 0.039582226 0.074788816
0.36220258 0.039540112 0.074316479
0.40902433 0.039550886 0.074437328
0.41234994 0.039541308 0.074329868
0.43177274 0.039632868 0.075356834
-0.41200635 0.04622674 0.072536424
-0.31316507 0.041754592 0.07657063
-0.21550056 0.040044039 0.079968527
-0.11347283 0.040008917 0.079577923
0.22271088 0.040019684 0.079695359
0.40702939 0.040036075 0.079879157
-0.42102405 0.059997447 0.071823329
-0.43430212 0.062438186 0.07327158
-0.29860845 0.028849885 0.086500682
-0.0065653175 0.028242594 0.085198015
0.1389809 0.028025992 0.082768634
0.20373017 0.028201794 0.084740415
0.21818656 0.02789868 0.081340723
0.32687065 0.028220313 0.084948123
0.39512828 0.028102783 0.083629914
-0.031158961 0.03869297 0.086344667
-0.022550948 0.035484444 0.085304499
-0.41164672 0.047255576 0.084593996
-0.32831043 0.0451153 0.085541829
-0.21292256 0.040315926 0.083017968
-0.036822334 0.040771481 0.087502912
0.15369214 0.041004106 0.089343503
0.16294888 0.040179968 0.081493057
0.26460099 0.040047083 0.080002613
0.40841699 0.040419146 0.084175713
-0.37888294 0.053439036 0.080332004
0.35272112 -0.065388158 0.09423095
-0.27235159 -0.059074987 0.098427661
-0.22827382 -0.055518139 0.094758168
-0.25995234 -0.04944009 0.099249825
-0.2259976 -0.044569224 0.099075302
-0.22074777 -0.039299034 0.095439553
-0.22842631 -0.024200641 0.099439293
0.31377888 -0.022560026 0.094171897
-0.27441934 -0.015712528 0.096575737
-0.25332189 -0.015303703 0.097266272
-0.23524693 -0.016782703 0.098309711
-0.22467387 -0.01786189 0.09447547
0.34368706 -0.015598717 0.098673001
-0.25154835 -0.00067037705 0.099083558
0.32246819 -0.0047405888 0.094839439
-0.27125996 0.029778639 0.097685881
-0.1700128 0.028965442 0.091189504
-0.15813896 0.029018391 0.091612503
0.014069915 0.028939199 0.090979882
0.040928513 0.029914865 0.098774135
0.064365759 0.029206233 0.093113109
0.13514224 0.029768255 0.097602867
0.22664517 0.029692862 0.097000353
0.23617257 0.029235661 0.093348198
0.28429091 0.029782496 0.097716123
0.2962313 0.029137867 0.092566848
0.36274439 0.029269798 0.093620464
0.38579404 0.029693782 0.097006842
0.40114242 0.02937535 0.094463319
-0.37340349 0.041432202 0.091499969
-0.1429019 0.04164917 0.09451393
-0.098516777 0.041797839 0.095701754
-0.059452906 0.041585561 0.094010808
-0.047077999 0.041268889 0.091480732
-0.022358743 0.041882321 0.096380532
0.045349158 0.041819289 0.095855504
0.053498592 0.041520037 0.093461469
0.13227272 0.041287161 0.091593958
0.24713384 0.041955881 0.096910581
0.30090597 0.04162772 0.094301552
0.33748534 0.041912518 0.09656585
0.34639877 0.041899342 0.096461065
0.37838662 0.042140022 0.098374605
0.38158274 0.041664675 0.094595358
-0.44617778 0.054013703 0.09090846
-0.42999333 0.051929269 0.096655965
-0.46454567 0.069443926 0.090663053
-0.43368524 0.064264365 0.09213385
-0.23915726 -0.071607701 0.10626015
-0.21230236 -0.051793139 0.10482445
0.36686581 -0.058432817 0.10581597
-0.28027725 -0.04145661 0.10342399
-0.23483345 -0.047115043 0.10264206
-0.28063166 -0.033958372 0.10760158
-0.2271643 -0.033359382 0.10110336
-0.20867316 -0.035274856 0.10201593
0.37350154 -0.026831329 0.10888387
-0.24218273 -0.018254958 0.10096352
-0.23443148 0.030815113 0.10596594
-0.14434721 0.031309936 0.10991877
-0.088192433 0.030313447 0.10195829
0.073240504 0.030541964 0.10378349
0.20498312 0.030261632 0.1015437
0.21461369 0.030620852 0.10441308
0.26311514 0.030085066 0.10013309
0.29505524 0.030966178 0.10717116
0.41489425 0.037592325 0.10556415
-0.3830047 0.044880703 0.10550019
-0.36033362 0.041192502 0.10750338
-0.15105516 0.04318722 0.10680227
-0.10306908 0.04296796 0.10505273
0.00066468306 0.043519679 0.10945809
0.013022767 0.043134738 0.10637784
0.10796393 0.04256041 0.10175411
0.3888208 0.043293901 0.10754848
0.41977823 0.042636827 0.10240667
-0.35850596 0.053148415 0.10755979
-0.40221694 0.060492679 0.10553069
-0.46278882 0.071166679 0.1066296
-0.23670284 -0.071145393 0.11679096
0.34013185 -0.072011344 0.11162528
-0.2577517 -0.069577627 0.11962607
0.37024537 -0.053350572 0.11744015
-0.21074101 -0.048081882 0.11640706
0.37346873 -0.026697502 0.11550743
-0.21307223 -0.018759714 0.11640156
0.31206793 -0.011744271 0.11972502
-0.25156695 -0.0006740797 0.11721154
-0.23897246 0.032463957 0.11798709
-0.22866085 0.031429362 0.11087295
-0.21419284 0.031544235 0.11179061
-0.15193073 0.031363223 0.11034445
-0.073968336 0.031768903 0.11358365
-0.049680993 0.032584284 0.11873218
0.1604287 0.032149006 0.11603685
0.17542309 0.031512156 0.11153284
0.18500781 0.031372327 0.11041586
0.2259931 0.031559169 0.11190678
0.28629854 0.03175737 0.11349107
0.31612539 0.035111297 0.11387799
0.33022383 0.033230316 0.11898348
0.36692095 0.032325726 0.11713278
0.37264168 0.031780511 0.11367817
-0.37066185 0.044437513 0.11780838
-0.10521813 0.043636605 0.1103938
0.0039530378 0.044536568 0.1167813
0.020520432 0.0438032 0.11171617
0.044734728 0.044434205 0.11613558
0.063190736 0.043744363 0.11123034
0.070733964 0.044263922 0.11507335
0.089026622 0.044656999 0.11750295
0.11073676 0.043673471 0.11064649
0.15630984 0.043898903 0.11243097
0.21738295 0.043893568 0.11236595
0.27529079 0.043636419 0.11029004
0.30890062 0.045015242 0.11966103
0.34365851 0.043663863 0.11048987
-0.45601583 0.071342409 0.11664894
-0.4489758 0.070470154 0.11869736
0.3176989 -0.065296061 0.12769148
0.37029627 -0.053257741 0.12613061
-0.23370899 -0.028359426 0.1296806
-0.27514878 -0.01681672 0.12809265
-0.2652334 -0.0064451839 0.12671345
0.32144952 -0.0044010631 0.12558797
-0.31669149 0.035895623 0.12290546
-0.26394045 0.033936661 0.12710638
-0.24206659 0.03397942 0.12737119
-0.19018158 0.033998106 0.12748687
-0.094791234 0.03405067 0.12781329
-0.084542505 0.033678304 0.12550661
-0.024466863 0.033526909 0.12456982
0.00064664707 0.033719055 0.12576135
0.065495819 0.033859864 0.12663181
0.070686221 0.033442289 0.12404741
0.14108101 0.032895848 0.12066272
0.15373917 0.034111023 0.12819129
0.22214413 0.033066139 0.12171953
0.26859209 0.033398375 0.1237748
0.27678144 0.034753948 0.12853703
-0.36154401 0.044005338 0.12484702
-0.31126732 0.048184365 0.12813169
-0.14866605 0.0450809 0.12015425
-0.023657063 0.045264501 0.12129253
-0.0026687363 0.04556134 0.12313229
0.015905915 0.046158597 0.12682594
0.020129336 0.046095826 0.12643692
0.14861213 0.045467839 0.12250911
0.27082485 0.046554375 0.12922987
0.28057581 0.046544794 0.12917016
0.31127727 0.040582649 0.12562159
0.32082865 0.045321297 0.12156352
-0.44779268 0.0582458 0.12021484
-0.39680079 0.050144084 0.1248901
-0.37028965 0.05828125 0.12782501
-0.32528651 0.050141744 0.12591428
-0.42427278 0.066875711 0.12298141
-0.23770267 -0.054645829 0.13332489
0.36960757 -0.054466277 0.13775882
0.32874531 -0.048688419 0.13089389
-0.2088432 -0.032433052 0.13022988
0.30933324 -0.037282735 0.13884091
-0.22521538 -0.022948002 0.13665441
0.3056829 -0.021588098 0.13140585
0.3240416 -0.020111684 0.13478602
-0.27036455 -0.016241409 0.13871366
-0.2535148 -0.019550893 0.13245718
-0.23643553 -0.00713355 0.13886157
0.31709412 -0.0071931183 0.13781744
-0.25947312 0.034696348 0.13181053
-0.23807369 0.039502464 0.133154
-0.16443592 0.039870866 0.13445123
-0.15562376 0.035150331 0.13462642
-0.14753446 0.039238252 0.13514537
-0.11063319 0.034512043 0.13067248
-0.099204078 0.034598514 0.13120759
-0.047719486 0.035221901 0.13506606
0.14739276 0.035127863 0.13444534
0.25622061 0.035121832 0.13435097
-0.23600663 0.047099009 0.13265558
-0.19003765 0.046587855 0.13368252
-0.1539602 0.045169052 0.13486408
-0.13674517 0.045006581 0.13566744
-0.066653438 0.048108097 0.13890514
-0.025112795 0.047232263 0.13347906
0.0122935 0.04734746 0.13418956
0.072167851 0.047659416 0.13610545
0.16026276 0.046829835 0.13094386
0.21181981 0.048142929 0.13910618
0.22758381 0.047621857 0.13586663
0.24334034 0.048080515 0.13871777
0.25515455 0.046896085 0.13135436
0.27903515 0.046733439 0.13034296
0.33304074 0.0467075 0.13018119
-0.43631637 0.070732221 0.13403837
0.0061205933 0.039505579 0.14584528
0.25702965 0.036660112 0.14360006
0.2669529 0.037037551 0.14550309
0.057775065 0.041566722 0.14952601
0.069930211 0.049746715 0.14773537
0.23911065 0.048831239 0.14311337
0.26724988 0.047338478 0.149764
0.28885996 0.043312483 0.14297786
0.30830479 0.048340954 0.14033636
0.096759841 0.050155729 0.14979833
0.12535951 0.038160477 0.15116858
0.084500402 0.048184983 0.15121908
0.15742953 0.048843306 0.15495709
0.20549314 0.048296124 0.1555066
0.22424012 0.047643296 0.15491667
0.18272114 0.0506065 0.15207195
