# .PCD v0.7 - Point Cloud Data file format
VERSION 0.7
FIELDS x y z
SIZE 4 4 4
TYPE F F F
COUNT 1 1 1
WIDTH 938
HEIGHT 1
VIEWPOINT 0 0 0 1 0 0 0
POINTS 938
DATA ascii
-0.2699098 0.059767969 -0.152988
-0.23586917 0.059198055 -0.152988
0.13471663 0.0590613 -0.15146008
0.19065118 0.059516035 -0.152988
0.23487088 0.0590613 -0.15265056
-0.31366199 0.065411627 -0.152988
-0.18538877 0.060369946 -0.152988
-0.17145067 0.061298173 -0.152988
-0.13250656 0.068133973 -0.152988
8.8743865e-05 0.069340304 -0.152988
0.044994652 0.064829417 -0.15298802
0.10795361 0.065708488 -0.152988
0.15725695 0.067697629 -0.152988
0.24025448 0.061688241 -0.152988
0.25628281 0.061472174 -0.152988
-0.10638065 0.071253866 -0.152988
-0.082241923 0.071397498 -0.15282319
0.22099039 0.071397498 -0.15087593
-0.33305323 0.0590613 -0.14554338
-0.31678286 0.0590613 -0.1480269
-0.16032436 0.059061296 -0.1437985
-0.15100083 0.059061304 -0.1491254
-0.1221077 0.059061304 -0.1456822
-0.057051167 0.059061304 -0.14449769
-0.0034502298 0.059061296 -0.14953145
0.05401583 0.059061296 -0.14480907
0.062643662 0.0590613 -0.14386228
0.12013384 0.0590613 -0.14335261
0.21441706 0.0590613 -0.14056633
0.35192087 0.059061304 -0.14431341
0.3434962 0.065370306 -0.14958483
-0.29962966 0.071397498 -0.14788862
-0.13153166 0.071397498 -0.1470497
-0.069552138 0.071397498 -0.14209615
-0.055351429 0.071397498 -0.1468588
-0.030643985 0.071397498 -0.14004904
-0.0002374053 0.071397498 -0.1403672
0.073955014 0.071397498 -0.14663813
0.080028154 0.071397498 -0.14424504
0.21312995 0.071397498 -0.14430951
0.31395519 0.071397498 -0.14519425
-0.27019599 0.0590613 -0.13315584
-0.26786369 0.0590613 -0.13441868
-0.24728569 0.0590613 -0.13726877
-0.096091576 0.059061296 -0.13155964
-0.054061279 0.059061296 -0.13544048
-0.037828848 0.059061296 -0.13468426
-0.010770723 0.0590613 -0.13776626
0.15155622 0.0590613 -0.13780083
0.17581072 0.059061296 -0.13224995
0.18784305 0.059061296 -0.13147557
0.3839283 0.062770858 -0.13672206
-0.31526756 0.071397498 -0.13126434
-0.26485378 0.071397498 -0.1313751
-0.24816211 0.071397498 -0.13530484
-0.23151127 0.071397498 -0.13193296
-0.15845013 0.071397498 -0.1358524
-0.1442001 0.071397498 -0.13788339
-0.017159283 0.071397498 -0.13934317
-0.0084104948 0.071397498 -0.13976544
0.022939101 0.071397498 -0.13986218
0.17185038 0.071397498 -0.13294506
0.25608569 0.071397498 -0.13861771
0.26678911 0.071397498 -0.13280115
0.373593 0.071397498 -0.13479233
-0.41773602 0.0590613 -0.12121306
-0.26894429 0.059061296 -0.12477842
-0.19245298 0.0590613 -0.12600616
-0.16936925 0.059061304 -0.12077451
0.054641142 0.059061296 -0.12741907
0.067644462 0.059061304 -0.12928075
0.07667464 0.0590613 -0.12798609
0.082202241 0.0590613 -0.12683228
0.094365105 0.0590613 -0.12939888
0.11482657 0.0590613 -0.12135728
0.16393536 0.059061296 -0.12000825
0.24841669 0.059061304 -0.12420418
0.28052518 0.0590613 -0.12897761
0.39265704 0.0590613 -0.12382163
0.40753737 0.065120801 -0.12221217
-0.38094708 0.071397498 -0.12567513
-0.36970344 0.071397498 -0.12115033
-0.29020444 0.071397498 -0.12727636
-0.24064037 0.071397498 -0.12701015
-0.11054333 0.071397498 -0.12302382
-0.075695917 0.071397498 -0.12759309
-0.013927817 0.071397498 -0.12900554
0.062428206 0.071397498 -0.12515213
0.075943291 0.071397498 -0.12602182
0.12360424 0.071397498 -0.1204178
0.16643402 0.071397498 -0.12684925
0.23295665 0.071397498 -0.12243416
0.2960026 0.071397498 -0.1293171
0.30080897 0.071397498 -0.12390375
0.32881984 0.071397498 -0.12335882
-0.23742349 -0.071367152 -0.11242698
-0.26575434 -0.063216895 -0.11623576
-0.21277946 -0.065304354 -0.11693569
0.20310983 -0.066505842 -0.11244538
-0.28009841 -0.052266397 -0.118332
-0.27450293 -0.057497218 -0.11827038
-0.25264585 -0.05641843 -0.118332
-0.2794579 -0.044756271 -0.118332
0.24522343 -0.044710457 -0.114618
-0.22835377 -0.03915859 -0.118332
-0.29403481 -0.022852169 -0.11009219
-0.26703256 -0.027463121 -0.118332
-0.25396657 -0.026990384 -0.11115803
0.24217685 -0.023406379 -0.114618
-0.25186339 -0.0020296122 -0.110108
-0.21431367 -0.0067821145 -0.118332
-0.23321313 0.0025207277 -0.110108
-0.22540364 0.0021046645 -0.11132833
-0.1863333 0.011419876 -0.11700092
0.22295901 0.013745653 -0.114618
-0.21133587 0.037049308 -0.1105323
-0.20652175 0.031138044 -0.118332
0.2531358 0.033619374 -0.11128662
-0.23825015 0.041344393 -0.118332
0.21272697 0.042623259 -0.11258696
-0.30233246 0.059061304 -0.11012131
-0.28221509 0.0590613 -0.11338521
-0.062175311 0.059061304 -0.11574522
0.10478245 0.0590613 -0.11307359
0.11334528 0.0590613 -0.11382261
0.14578015 0.059061304 -0.11488486
0.32360408 0.059061296 -0.11556199
0.42318237 0.062701695 -0.11020686
-0.40699911 0.071397498 -0.11440718
-0.37088767 0.071397498 -0.11919563
-0.29513046 0.071397498 -0.11202523
-0.20578268 0.071397498 -0.11091003
-0.17071153 0.071397498 -0.1180746
0.012971714 0.071397498 -0.1129544
0.04867287 0.071397498 -0.11645699
0.32269517 0.071397498 -0.1140312
0.38241306 0.071397498 -0.11595178
-0.18070269 -0.018519729 -0.10544734
0.17432696 0.018826429 -0.10467822
-0.41562289 0.0590613 -0.10577233
-0.35063827 0.0590613 -0.10789249
-0.2866824 0.059061296 -0.1068356
-0.27394897 0.0590613 -0.10600369
-0.24110542 0.059061296 -0.10459448
-0.14033157 0.059061296 -0.1011852
-0.11702368 0.059061304 -0.10326375
-0.098276228 0.0590613 -0.10830831
-0.030277953 0.059061296 -0.10558949
0.010073166 0.059061296 -0.10704952
0.10820394 0.059061304 -0.10177691
0.22817135 0.059061304 -0.10924105
0.24691279 0.0590613 -0.100628
0.31300884 0.059061304 -0.10956872
-0.32822436 0.071397498 -0.10605305
-0.27691662 0.071397498 -0.10663837
-0.1188622 0.071397498 -0.10103991
-0.096098818 0.071397498 -0.10922362
-0.064906955 0.071397498 -0.1034276
-0.027228117 0.071397498 -0.10787901
0.10614643 0.071397498 -0.10032415
0.14649919 0.071397498 -0.10503465
0.21334544 0.071397498 -0.10738465
0.34650895 0.071397498 -0.10738164
0.35327798 0.071397498 -0.10320292
0.25893009 -0.05683028 -0.09048117
-0.18111405 -0.021643631 -0.093413889
-0.27476707 0.029637441 -0.097903959
-0.23766287 0.043739233 -0.096726544
-0.39556891 0.0590613 -0.099575177
-0.37914571 0.0590613 -0.097389869
-0.27545375 0.0590613 -0.092265651
-0.26088142 0.059061304 -0.09651006
-0.24012758 0.059061304 -0.095592193
-0.046851054 0.059061304 -0.096877404
0.2911928 0.0590613 -0.094728827
0.30374947 0.059061304 -0.091072202
0.34537652 0.059061296 -0.093002968
0.36025065 0.059061296 -0.099004678
0.37843645 0.0590613 -0.097149268
0.40519959 0.059061304 -0.093512483
0.43750271 0.06990274 -0.092960462
-0.36274159 0.071397498 -0.09767361
-0.24495301 0.071397498 -0.093109943
-0.22809556 0.071397498 -0.090081833
-0.17617746 0.071397498 -0.094741516
0.20047647 0.071397498 -0.092438072
0.27723348 0.071397498 -0.09937121
0.3000294 0.071397498 -0.091187529
0.32322991 0.071397498 -0.095483348
0.34977633 0.071397498 -0.099547356
0.40482789 0.071397498 -0.091123372
-0.23559083 -0.07112588 -0.083946548
0.21143757 -0.070110552 -0.082569756
-0.2184642 -0.067659013 -0.086077794
-0.18390208 -0.033207383 -0.083753943
-0.18183739 -0.027137013 -0.089980796
-0.29301655 0.0016617174 -0.084604129
-0.18426901 0.0064361361 -0.089398749
0.16567658 0.0012419962 -0.081615716
-0.18859908 0.015834231 -0.083913036
0.26319942 0.025211584 -0.080254108
-0.20560426 0.033521973 -0.08969149
0.19847772 0.038533386 -0.089122593
-0.43247852 0.0590613 -0.087836452
-0.3155179 0.059061296 -0.089191757
-0.30653512 0.059061296 -0.082690299
-0.27336952 0.0590613 -0.085978098
-0.23029864 0.059061296 -0.087653235
-0.19435494 0.0590613 -0.085254699
-0.16080876 0.0590613 -0.089088716
-0.11923645 0.059061304 -0.081505038
-0.10947613 0.0590613 -0.089065246
-0.037712168 0.0590613 -0.086281627
0.11004088 0.059061296 -0.085636541
0.25155449 0.0590613 -0.086335972
0.31326514 0.059061304 -0.084801488
-0.44855782 0.071350671 -0.086024754
-0.42835394 0.071397498 -0.087629221
-0.38447285 0.071397498 -0.083506599
-0.24618863 0.071397498 -0.084043778
-0.21214017 0.071397498 -0.085899487
-0.16392197 0.071397498 -0.083881676
0.067114457 0.071397498 -0.084105551
0.10138043 0.071397498 -0.082383618
0.11230597 0.071397498 -0.086671941
0.24166478 0.071397498 -0.083417177
0.32329896 0.071397498 -0.086082578
0.19302127 -0.063930325 -0.076586157
-0.19346619 -0.035826638 -0.0730993
-0.27746147 -0.020906644 -0.0730993
0.27786249 -0.020815317 -0.071454659
-0.28999439 -0.019837938 -0.0730993
-0.2197659 -0.015594278 -0.0730993
-0.26252574 -0.0067638643 -0.0730993
-0.19391386 0.0041286768 -0.0730993
-0.20065397 0.024616061 -0.0730993
-0.26747677 0.030925699 -0.0730993
-0.25116113 0.03099383 -0.0730993
-0.20517917 0.033195786 -0.075333327
-0.4538945 0.059221473 -0.076376505
-0.35937336 0.0590613 -0.073307291
-0.30081892 0.0590613 -0.077767022
-0.19744775 0.059061304 -0.074275322
-0.042709336 0.059061304 -0.070501961
0.023240909 0.0590613 -0.078807719
0.28118286 0.059061296 -0.074265912
0.33236533 0.059061304 -0.074847378
-0.29533207 0.071397498 -0.073269054
-0.23443373 0.071397498 -0.076707959
-0.2088035 0.071397498 -0.078595273
0.0041896962 0.071397498 -0.072490938
0.050262764 0.071397498 -0.07748358
0.14702377 0.071397498 -0.075205907
0.27909434 0.071397498 -0.077380419
0.34607103 0.071397498 -0.07599479
0.40748382 0.071397498 -0.07351616
0.2382497 -0.034060948 -0.069385096
-0.24117458 -0.022739306 -0.066479452
0.24226233 -0.029413139 -0.069385096
-0.2484432 -0.0079620332 -0.060984846
0.24647632 0.0055842907 -0.069385096
0.22744425 0.036137495 -0.069385096
-0.42113525 0.059061296 -0.062568329
-0.29339075 0.059061296 -0.061765924
-0.26982531 0.0590613 -0.063169017
-0.25766197 0.059061304 -0.069218308
-0.24138729 0.059061304 -0.064522162
-0.10709077 0.059061304 -0.066996679
0.020991664 0.059061296 -0.064663574
0.090344869 0.059061296 -0.060357574
0.17699969 0.0590613 -0.068850443
0.21647874 0.0590613 -0.062864617
0.26535004 0.0590613 -0.064978756
0.27476999 0.059061296 -0.067303486
0.31408152 0.059061304 -0.061596852
0.33134484 0.059061296 -0.065797225
0.35131517 0.059061304 -0.062661305
-0.45823404 0.064889655 -0.065276027
-0.30385643 0.071397498 -0.063190266
-0.28073668 0.071397498 -0.060175054
-0.21637216 0.071397498 -0.06135064
-0.095217653 0.071397498 -0.064623564
-0.01673162 0.071397498 -0.066459455
0.070252769 0.071397498 -0.067643508
0.11246623 0.071397498 -0.061102353
0.30457503 0.071397498 -0.06810341
0.40540841 0.071397498 -0.069380403
-0.2489461 -0.011287718 -0.055821881
0.21030721 -0.014421243 -0.053690385
-0.40267977 0.059061296 -0.05037199
-0.35398042 0.059061304 -0.054052413
-0.26461923 0.0590613 -0.058239631
-0.17301787 0.059061304 -0.055650819
-0.15689334 0.059061296 -0.056335393
0.039100938 0.0590613 -0.053278252
0.052582011 0.0590613 -0.053103756
0.081359535 0.0590613 -0.054603141
0.11426044 0.0590613 -0.055236444
0.16914378 0.0590613 -0.059258468
0.24063078 0.0590613 -0.05752426
-0.41719884 0.071397498 -0.051548745
-0.38865042 0.071397498 -0.053118162
-0.34933308 0.071397498 -0.053367715
-0.30230486 0.071397498 -0.057566483
-0.29524231 0.071397498 -0.051274862
-0.15052824 0.071397498 -0.052163545
-0.13985541 0.071397498 -0.056085706
-0.10020737 0.071397498 -0.054120377
-0.051883243 0.071397498 -0.056719981
0.021753043 0.071397498 -0.050829545
0.19922209 0.071397498 -0.059986558
0.2124047 0.071397498 -0.053713612
0.25217184 0.071397498 -0.055558532
0.35388494 0.071397498 -0.056421079
0.42788315 0.071397498 -0.058218844
0.439412 0.071397498 -0.052839883
-0.24125163 -0.022707386 -0.045147646
-0.23293412 -0.023096681 -0.047692295
0.23433477 -0.0095218597 -0.044969391
-0.37935638 0.0590613 -0.040263873
-0.29186809 0.0590613 -0.048751522
-0.20600228 0.0590613 -0.049900502
0.04746585 0.0590613 -0.041150253
0.32671785 0.059061296 -0.04587033
0.41717762 0.059061296 -0.046940312
0.42233407 0.0590613 -0.040089875
0.43578362 0.059061296 -0.049708296
-0.4506436 0.071397498 -0.040271848
-0.44779348 0.071397498 -0.046733856
-0.37384662 0.071397498 -0.041110098
-0.14139104 0.071397498 -0.041073054
-0.093575701 0.071397498 -0.040262714
-0.048804507 0.071397498 -0.044720851
0.077182479 0.071397498 -0.040975846
0.11845646 0.071397498 -0.046939589
0.18097007 0.071397498 -0.04520518
0.20903404 0.071397498 -0.04435353
0.28236774 0.071397498 -0.04511553
0.37295943 0.071397498 -0.048933223
-0.45964783 0.059061304 -0.037150752
-0.42434517 0.0590613 -0.038273476
-0.40249625 0.059061296 -0.039936438
-0.39478347 0.0590613 -0.031591721
-0.31278491 0.0590613 -0.033424288
-0.29218882 0.059061304 -0.032904357
-0.25154382 0.0590613 -0.030121874
-0.22894356 0.059061304 -0.039680522
0.029276956 0.059061296 -0.030105434
0.041520182 0.0590613 -0.034399942
0.099646226 0.0590613 -0.032374397
0.11496935 0.059061304 -0.030235987
0.2505818 0.059061296 -0.032993734
0.37743574 0.059061296 -0.035347536
0.42548084 0.0590613 -0.030151296
0.43519256 0.059061296 -0.033681292
-0.45592767 0.071397498 -0.033948477
-0.39306718 0.071397498 -0.030059882
-0.37602085 0.071397498 -0.037584536
-0.32670373 0.071397498 -0.033553604
-0.30555445 0.071397498 -0.037678648
-0.22919039 0.071397498 -0.036898449
-0.14609933 0.071397498 -0.039398301
-0.11205184 0.071397498 -0.037798129
-0.08547575 0.071397498 -0.034441441
-0.06125034 0.071397498 -0.038676389
0.036410376 0.071397498 -0.034514949
0.15496725 0.071397498 -0.033039339
0.17632283 0.071397498 -0.039416235
0.21036112 0.071397498 -0.030212425
0.29782984 0.071397498 -0.034502804
0.40875584 0.071397498 -0.039590415
-0.23065946 -0.0108437 -0.023404244
0.2334322 -0.016334949 -0.027123429
-0.23501399 -0.0063145654 -0.0259024
0.21640652 -0.00056571059 -0.028523391
-0.21045932 0.036080945 -0.025902402
-0.23876083 0.046745408 -0.0259024
-0.33200815 0.059061296 -0.024731208
-0.29021382 0.0590613 -0.029036716
-0.2750935 0.0590613 -0.025556751
-0.23236965 0.055655181 -0.025902402
-0.19158569 0.0590613 -0.020720467
-0.11068324 0.059061304 -0.020151379
-0.03220965 0.0590613 -0.027872834
-0.023732975 0.0590613 -0.029799283
0.066482618 0.059061304 -0.02609957
0.10525499 0.0590613 -0.025449842
0.12522951 0.0590613 -0.028574619
0.16644648 0.059061296 -0.025811506
0.17924762 0.0590613 -0.020091113
0.18602139 0.0590613 -0.022054827
0.32216215 0.0590613 -0.02351046
0.43401331 0.0590613 -0.026887685
0.4512139 0.0590613 -0.027357016
-0.45153803 0.071397498 -0.026954073
-0.42521858 0.071397498 -0.020492122
-0.34504464 0.071397498 -0.024505939
-0.3228097 0.071397498 -0.025190003
-0.31216949 0.071397498 -0.022142179
-0.29191041 0.071397498 -0.020642472
-0.28643346 0.071397498 -0.024637362
-0.23718487 0.071397498 -0.022100843
-0.035768405 0.071397498 -0.020329736
-0.00090917945 0.071397498 -0.024049228
0.023684032 0.071397498 -0.02950955
0.034511168 0.071397498 -0.026119724
0.20126846 0.071397498 -0.021039976
0.27648783 0.071397498 -0.026125453
0.37882459 0.071397498 -0.027882848
0.41601288 0.071397498 -0.022142932
-0.198287 -0.0080036037 -0.017790083
0.18625903 -0.0081933904 -0.014532283
0.20247385 -0.0069316458 -0.016188096
-0.24643099 0.015039762 -0.015482679
0.19750687 0.013808005 -0.016477199
0.23875144 0.012871967 -0.016477199
0.18792884 0.029707821 -0.016477199
0.20995831 0.028958093 -0.016477199
0.239305 0.028878191 -0.010899724
-0.24643099 0.035583381 -0.018053047
0.21306384 0.041314773 -0.016477199
-0.37667203 0.0590613 -0.013916582
-0.31734762 0.059061296 -0.010232657
-0.17681322 0.059061296 -0.016782485
-0.13394091 0.0590613 -0.017854216
0.030478489 0.0590613 -0.018713132
0.13507195 0.0590613 -0.016863722
0.19562112 0.0590613 -0.016566796
0.34031862 0.059061296 -0.014581267
0.36487103 0.059061304 -0.011556797
0.4190774 0.0590613 -0.017161399
-0.30637434 0.071397498 -0.019886523
-0.21969354 0.071397498 -0.016834598
-0.19529837 0.071397498 -0.011031154
-0.047609717 0.071397498 -0.010737112
0.018083096 0.071397498 -0.015019458
0.22779071 0.071397498 -0.01508943
0.25403458 0.071397498 -0.010363647
0.26131666 0.071397498 -0.011012427
0.23024809 -0.020660754 -0.00029877201
-0.22544718 -0.016364856 -0.00019552559
0.1976656 -0.014808555 -0.0029769
0.20278198 -0.014718063 -0.001657467
0.21007565 -0.012664976 -0.0016700649
0.23421644 -0.014149854 -0.00033830665
-0.24870273 -0.0094379932 -0.0085961204
0.2149068 -0.0015995697 -0.0035737092
0.185849 0.010912163 -0.0068030562
-0.42755207 0.059061304 -0.00065038726
-0.25807643 0.0590613 -0.0074010203
-0.24754733 0.059061304 -0.0018199366
-0.18586633 0.059061304 -0.00088096783
-0.013622928 0.059061304 -0.0096091488
0.12798202 0.059061304 -0.0045618527
0.41796598 0.059061304 -0.0038346238
0.46253067 0.0590613 -0.003093007
-0.44423306 0.071397498 -0.002822442
-0.27406523 0.071397498 -0.0026259907
-0.25047466 0.071397498 -0.0069964966
-0.14502817 0.071397498 -0.0030436399
-0.11955325 0.071397498 -0.003904134
-0.014674418 0.071397498 -0.0092744194
-0.00018069148 0.071397498 -0.00031473441
0.064379513 0.071397498 -0.0026743507
0.11334081 0.071397498 -0.0016870787
0.1509216 0.071397498 -0.0031467918
0.16430031 0.071397498 -0.0094110789
0.29855266 0.071397498 -0.0056154504
0.32580009 0.071397498 -0.00015892833
0.40312016 0.071397498 -0.0065631829
-0.24347639 -0.021493815 0.0020695934
-0.23454675 -0.023448996 0.0077084526
-0.22491394 -0.0076939967 0.0019596238
0.21616656 -0.00066508818 0.0067282859
0.18584898 0.0022941076 0.0099155391
0.239305 0.017468866 0.0098107811
-0.198287 0.040608034 0.0083761895
-0.198287 0.051310584 0.0089022294
-0.11244506 0.059061296 0.0023778235
-0.026903072 0.0590613 0.0020462677
0.0095165744 0.059061304 0.003985181
0.044529848 0.059061296 0.0044799428
0.085361816 0.059061304 0.0033921553
0.12367836 0.059061296 0.0037984503
0.18044567 0.059061304 0.0019194037
-0.33011574 0.071397498 0.0085699633
-0.24521808 0.071397498 0.0041750432
-0.079131089 0.071397498 0.0084122438
0.039758511 0.071397498 0.0055605695
0.069951355 0.071397498 0.0052316301
0.10553534 0.071397498 0.0045631072
0.13990895 0.071397498 0.0017608299
0.44001165 0.071397498 0.0060632182
0.21772015 -0.022750977 0.010200344
-0.23872417 -0.0033949679 0.019330001
-0.22388124 -0.007507585 0.019330001
-0.23659664 0.013490109 0.019330001
0.23930502 0.01055732 0.011967784
-0.21158625 0.02778233 0.019330001
-0.198287 0.022836836 0.013557411
-0.21205361 0.031756535 0.019330001
0.23930499 0.040690009 0.012228083
-0.44391477 0.0590613 0.01624498
-0.36291933 0.0590613 0.014001195
-0.25310647 0.0590613 0.019850031
-0.21858901 0.051133044 0.019330001
-0.15606692 0.0590613 0.013802209
-0.11414272 0.059061304 0.01876382
0.038736511 0.059061296 0.017996229
0.069789745 0.059061296 0.01310433
0.081900865 0.0590613 0.013858538
0.25694853 0.0590613 0.013798207
0.26006761 0.0590613 0.018203514
0.28343186 0.0590613 0.01562257
0.30238813 0.059061296 0.017219219
0.31486022 0.059061296 0.011315353
0.42279461 0.059061304 0.018132869
-0.3480103 0.071397498 0.018401626
-0.24354254 0.071397498 0.018731792
-0.2075219 0.071397498 0.010839335
-0.19165696 0.071397498 0.015720785
-0.010754012 0.071397498 0.018535119
0.047642536 0.071397498 0.014130522
0.066141799 0.071397498 0.014772672
0.10426568 0.071397498 0.019026341
0.39404118 0.071397498 0.018778445
0.45661539 0.071397498 0.018456426
0.20232671 -0.0081933904 0.02246891
0.22567022 -0.0015816932 0.024643401
0.22784042 0.037044879 0.024643403
-0.37137079 0.059061304 0.025107019
-0.32367465 0.059061296 0.0267282
-0.26423526 0.059061296 0.027208354
-0.21942347 0.0590613 0.023613729
-0.20021783 0.0590613 0.02330994
-0.15314691 0.059061296 0.026657091
-0.13699624 0.0590613 0.025972607
-0.12686248 0.059061296 0.021086229
-0.11044685 0.0590613 0.028484715
0.022253802 0.0590613 0.025625933
0.19853398 0.059061304 0.027328802
0.2012734 0.053846911 0.024643401
0.23871619 0.053904768 0.024643401
0.40768495 0.059061296 0.02188627
0.45394814 0.0590613 0.025353808
-0.45892811 0.071397498 0.023647917
-0.40217364 0.071397498 0.021281391
-0.32615063 0.071397498 0.026750095
-0.21946628 0.071397498 0.026274875
-0.20560995 0.071397498 0.02791558
0.028114721 0.071397498 0.023059351
0.093116954 0.071397498 0.029687695
0.28584635 0.071397498 0.029995002
0.4120819 0.071397498 0.026174268
0.44621509 0.071397498 0.026660616
0.46220812 0.071397498 0.020378582
0.23166886 -0.0035779153 0.036001004
-0.41760004 0.059061304 0.036191549
-0.37122196 0.059061304 0.032514416
-0.24847862 0.059061296 0.030078497
-0.21844018 0.059061296 0.032365885
-0.17139886 0.059061304 0.030197078
-0.093720697 0.0590613 0.039668415
-0.066624679 0.0590613 0.031614959
-0.059148904 0.059061304 0.035220277
0.014167076 0.059061304 0.039783776
0.077350408 0.059061296 0.038506031
0.13331462 0.059061296 0.03134267
0.19159605 0.0590613 0.036213562
0.22458416 0.0590613 0.0381146
-0.42996994 0.071397498 0.034697097
-0.39039674 0.071397498 0.038290586
-0.33950922 0.071397498 0.038569599
-0.15509284 0.071397498 0.036112227
-0.028647214 0.071397498 0.030590033
-0.0022351127 0.071397498 0.037107565
0.051643882 0.071397498 0.034978181
0.25942686 0.071397498 0.03370944
0.33230293 0.071397498 0.030159473
0.41086578 0.071397498 0.037747413
0.43710768 0.071397498 0.033307396
0.21741454 -0.022624422 0.040587563
0.2331717 -0.016963538 0.048702665
-0.2250049 -0.0074744951 0.047109753
0.21012795 -0.0097103585 0.043606542
-0.23804042 0.00076346908 0.048524484
-0.31439096 0.0590613 0.041550297
-0.27454561 0.059061304 0.049216781
-0.25365031 0.059061296 0.043489613
-0.24716599 0.0590613 0.042603903
-0.13847873 0.0590613 0.04454292
0.022679031 0.059061296 0.043187696
0.10536049 0.0590613 0.043304484
0.12811595 0.0590613 0.049632147
0.26976624 0.059061296 0.049810894
-0.46154296 0.067162946 0.043837991
-0.44835487 0.071397498 0.045626424
-0.33399701 0.071397498 0.041295156
-0.32333529 0.071397498 0.046985783
-0.26913258 0.071397498 0.040750489
-0.16459927 0.071397498 0.040090367
-0.10243535 0.071397498 0.043354228
-0.059401214 0.071397498 0.047755487
0.009672381 0.071397498 0.044394396
0.040340595 0.071397498 0.046324261
0.058808923 0.071397498 0.048677627
0.14209862 0.071397498 0.048007403
0.15684286 0.071397498 0.045083649
0.19048773 0.071397498 0.042545497
0.25117168 0.071397498 0.040633582
0.26719457 0.071397498 0.04107016
0.22011268 0.00066935108 0.050559856
-0.42894047 0.0590613 0.054666601
-0.32392171 0.059061296 0.059333909
-0.28914008 0.0590613 0.054055549
-0.18383802 0.059061304 0.055673387
-0.13460198 0.0590613 0.055887409
0.0039207488 0.059061296 0.057108223
0.20521902 0.059061304 0.05089647
0.22697376 0.059061304 0.050510138
0.34757352 0.0590613 0.056522489
0.37277228 0.0590613 0.055235501
0.41544294 0.0590613 0.054433778
-0.27258271 0.071397498 0.054445233
-0.14307663 0.071397498 0.056409422
-0.13102163 0.071397498 0.058435719
-0.11220763 0.071397498 0.050496224
-0.030187622 0.071397498 0.05643414
0.10653859 0.071397498 0.050649188
0.21160221 0.071397498 0.052021272
0.32393429 0.071397498 0.053266279
0.41887665 0.071397498 0.054478988
0.42380962 0.071397498 0.058436774
-0.23440064 -0.023429777 0.060268175
0.22419858 -0.023465 0.065333836
-0.22638008 -0.018127697 0.062093236
0.21093452 -0.016043533 0.061278738
0.22087803 0.00077025051 0.067840129
-0.41588092 0.0590613 0.0619464
-0.39606124 0.059061296 0.067173213
-0.30294511 0.059061304 0.065678537
-0.29824293 0.0590613 0.062821276
-0.15633833 0.059061304 0.06333033
0.11911133 0.059061304 0.066571042
0.17118889 0.059061296 0.061276492
0.23540597 0.0590613 0.068386905
0.24795988 0.0590613 0.061257824
0.27946293 0.059061296 0.069027513
0.3307634 0.059061304 0.068670385
-0.42324615 0.071397498 0.069113337
-0.36078852 0.071397498 0.061702348
-0.35636321 0.071397498 0.060576029
-0.32062399 0.071397498 0.063661329
-0.2742359 0.071397498 0.067430109
-0.20749724 0.071397498 0.069297239
-0.086323515 0.071397498 0.066187084
0.027267843 0.071397498 0.066058069
0.044184327 0.071397498 0.063722447
0.15092246 0.071397498 0.064702481
-0.2292784 -0.063109167 0.074836403
-0.22597805 -0.054882493 0.074836403
0.22867541 -0.05968713 0.078551099
-0.20112133 -0.044778146 0.074836403
0.26023403 -0.042333383 0.078551099
-0.2562654 -0.035960611 0.074836403
-0.24141389 -0.036918148 0.074836403
0.22294098 -0.038078681 0.078551099
0.2503137 -0.038496833 0.078551099
-0.23822963 -0.029618187 0.074836403
-0.21223462 -0.027246628 0.074836403
-0.20457013 -0.028853411 0.074836403
-0.19666211 -0.026258595 0.074836403
0.2095692 -0.024144566 0.078551099
0.27847311 -0.02224746 0.078551099
-0.24888399 -0.010815664 0.075461052
-0.22590415 -0.012653355 0.076941803
0.23455699 -0.011560773 0.070652291
-0.21125063 -0.006562016 0.074836403
-0.24314827 0.0063326368 0.074836403
0.18637392 0.0035380726 0.078551099
0.21828203 0.0049847485 0.077624127
0.2516661 0.0094923377 0.078551099
-0.26183966 0.011456212 0.074836403
-0.2148326 0.010943441 0.074836403
0.21857566 0.012714281 0.078551099
0.23289466 0.018868743 0.078551099
0.26304588 0.010419717 0.078551099
-0.26184708 0.022220587 0.074836403
-0.20991947 0.026924947 0.074836403
0.18695998 0.025510514 0.078841582
0.22171625 0.027258687 0.078551099
-0.2466087 0.039681111 0.074836403
-0.23119976 0.039406348 0.074836403
0.23513958 0.032000337 0.078551099
-0.41424447 0.059061296 0.070199922
-0.3791852 0.0590613 0.079781406
-0.24320196 0.0590613 0.071047015
-0.12166527 0.059061296 0.073638335
-0.096301809 0.059061296 0.070168436
-0.035397526 0.0590613 0.075191192
0.073196664 0.059061304 0.071065992
0.31914949 0.059061296 0.074128523
0.3970288 0.0590613 0.077218428
0.4081904 0.059061296 0.079465941
-0.31315166 0.071397498 0.074946709
-0.16865191 0.071397498 0.071037121
-0.10343005 0.071397498 0.075289592
-0.0066662282 0.071397498 0.076642066
0.030359641 0.071397498 0.079164103
0.12941587 0.071397498 0.076627493
0.16664663 0.071397498 0.077187501
0.30246961 0.071397498 0.075393662
0.33518046 0.071397498 0.071793944
0.39416128 0.071397498 0.073020928
0.222848 -0.070624843 0.089892738
0.17298688 -0.027793782 0.08605478
-0.1726236 -0.014152329 0.088306651
-0.17316982 -0.009357024 0.082682505
-0.18839739 0.025517439 0.080227107
-0.39579347 0.059061304 0.083245099
-0.31318215 0.059061296 0.087567836
-0.29846093 0.0590613 0.085143581
-0.24761069 0.0590613 0.081550755
-0.21247929 0.0590613 0.087895654
-0.1376799 0.059061304 0.089368671
-0.032119092 0.059061296 0.08397378
0.1211156 0.0590613 0.089350067
0.18243679 0.0590613 0.084233865
0.33655119 0.059061304 0.08011546
0.36459202 0.0590613 0.08378464
-0.41301811 0.071397498 0.089831799
-0.27473539 0.071397498 0.084780604
-0.14847818 0.071397498 0.084548734
-0.13921213 0.071397498 0.080592334
-0.095304564 0.071397498 0.08048521
-0.05878941 0.071397498 0.081697255
0.0092773456 0.071397498 0.081694894
0.086104222 0.071397498 0.081441484
0.16610456 0.071397498 0.085116431
0.18535107 0.071397498 0.089752376
-0.22677393 -0.070953034 0.091841415
0.18134716 -0.045853045 0.090906844
-0.17590642 -0.032020353 0.098024502
-0.25869283 0.036128201 0.098488674
-0.22284654 0.042778943 0.093204401
-0.21393788 0.041235387 0.095596589
-0.41372925 0.0590613 0.093901701
-0.39728841 0.0590613 0.093955085
-0.36152261 0.059061296 0.09829919
-0.35424829 0.0590613 0.090552397
-0.30659953 0.0590613 0.095228575
-0.26548722 0.059061296 0.09916196
-0.18501361 0.0590613 0.091033816
-0.099100113 0.059061304 0.092223518
-0.0089914501 0.0590613 0.099062473
0.041308612 0.059061296 0.090976626
0.098893858 0.0590613 0.092530921
0.20970798 0.0590613 0.099564269
0.27407849 0.059061296 0.095147215
0.30574554 0.0590613 0.098104045
0.35838944 0.0590613 0.098306805
-0.43564463 0.064319074 0.092946611
-0.16469328 0.071397498 0.099637017
-0.080133803 0.071397498 0.092499338
-0.039140761 0.071397498 0.097612716
-0.016897827 0.071397498 0.092705593
0.13096663 0.071397498 0.093374699
0.14546593 0.071397498 0.093491659
0.15423435 0.071397498 0.099717788
0.18443362 0.071397498 0.091186732
0.20934756 0.071397498 0.090212986
0.25558504 0.071397498 0.098935694
0.26815051 0.071397498 0.097881891
-0.21422356 -0.069010735 0.10257502
-0.20209923 -0.063988708 0.10050125
0.27812198 -0.043200884 0.10239343
0.17576098 -0.035128877 0.10721864
-0.23657775 -0.0248174 0.10362099
0.28602925 -0.015779644 0.10303193
-0.28398222 0.0053564259 0.10571271
-0.22633663 0.0063317781 0.103621
-0.19135079 0.028343452 0.10525671
-0.25493121 0.037686229 0.1076924
-0.24937211 0.039988734 0.10545442
-0.41867045 0.0590613 0.10251753
-0.38197622 0.0590613 0.10881749
-0.31479171 0.0590613 0.10688388
-0.24978314 0.0590613 0.1037354
-0.1974903 0.0590613 0.10992845
-0.18221729 0.059061304 0.10896076
0.17911506 0.059061304 0.10524639
0.21342447 0.059061304 0.10735184
0.24664882 0.0590613 0.10601296
0.25022316 0.059061304 0.1047302
0.27849182 0.0590613 0.1069833
0.3185958 0.0590613 0.10883828
-0.4113102 0.071397498 0.10623529
-0.3900139 0.071397498 0.10496363
-0.30353352 0.071397498 0.10243475
-0.10583585 0.071397498 0.1035288
-0.078652203 0.071397498 0.10520964
0.0041375943 0.071397498 0.10190289
0.018769693 0.071397498 0.10139355
0.1761356 0.071397498 0.10614091
0.28987131 0.071397498 0.1058277
0.29627168 0.071397498 0.10161738
0.31581876 0.071397498 0.10420875
0.33959275 0.071397498 0.10836306
0.34795952 0.071397498 0.10850144
0.39878345 0.071397498 0.10541521
0.41560698 0.071397498 0.10564519
0.25403664 -0.065119989 0.11169401
-0.23425314 -0.035375327 0.11408175
0.17531171 -0.034044184 0.11932987
-0.20640245 -0.020427736 0.11854234
0.28596249 -0.011370609 0.11176695
-0.23061942 -0.00081024732 0.11875334
-0.17313179 -0.0096457936 0.11749959
0.24920128 -0.003889455 0.11310481
-0.2125508 0.0067148921 0.11737011
-0.20825654 0.0015799736 0.11345218
0.23352534 0.0060421885 0.11566694
0.20914373 0.039843153 0.11301483
-0.28368571 0.0590613 0.11563987
-0.027675234 0.0590613 0.1194071
0.19521254 0.059061304 0.11368225
0.2526024 0.059061296 0.11116882
0.27410409 0.0590613 0.11942302
-0.32891476 0.071397498 0.11395
-0.26016462 0.071397498 0.11847664
-0.23234263 0.071397498 0.11280923
-0.16564618 0.071397498 0.11953221
-0.0629711 0.071397498 0.1101464
-3.3229589e-06 0.071397498 0.1124701
0.078584075 0.071397498 0.11952798
0.21225207 0.071397498 0.11722451
0.22572672 0.071397498 0.11685034
0.33495644 0.071397498 0.11395635
0.3605262 0.071397498 0.11572495
0.23227833 -0.070928648 0.12199724
-0.25210729 -0.061172761 0.120069
0.21101959 -0.060534462 0.12378401
-0.21805799 -0.052721016 0.120069
0.20105742 -0.056910168 0.123784
0.21257778 -0.053582001 0.123784
-0.27882642 -0.040510371 0.120069
-0.26092947 -0.046732273 0.120069
-0.21251628 -0.032753348 0.120069
0.21897787 -0.030333277 0.12142974
0.23603937 -0.036655687 0.12378399
0.24472484 -0.036211759 0.12378401
-0.26067832 -0.027647518 0.120069
0.17833076 -0.023972932 0.12378401
-0.1842688 -0.010121079 0.120069
0.23524231 -0.011766313 0.12256579
0.2793617 -0.011017672 0.123784
-0.26473969 -0.0058801426 0.120069
-0.20038575 -0.0068098828 0.120069
0.2575331 -0.0075841318 0.12378399
-0.20549375 0.0030081253 0.120069
0.20168045 0.0055947523 0.12378401
0.27549815 0.0021921275 0.12378401
-0.27243176 0.019172411 0.120069
0.17738308 0.011387903 0.120822
0.2700808 0.017333878 0.123784
-0.26957235 0.024757074 0.120069
-0.24042317 0.025598653 0.120069
-0.2487525 0.037018139 0.120069
-0.23395032 0.031746924 0.120069
-0.23486254 0.041480254 0.120069
-0.40183565 0.059061304 0.1233235
0.19014961 0.0590613 0.1221549
0.24684161 0.0590613 0.12996452
0.25429305 0.0590613 0.1261211
0.32135913 0.0590613 0.1270424
0.35646749 0.0590613 0.12324986
0.37197691 0.059061296 0.12365738
-0.40056604 0.071397498 0.12415388
-0.15483171 0.071397498 0.12505916
0.078392722 0.071397498 0.12928806
0.10123013 0.071397498 0.1236752
0.19736177 0.071397498 0.12418143
0.2233305 0.071397498 0.1255617
0.30874932 0.071397498 0.12554191
-0.14336333 0.0590613 0.13263059
-0.12737422 0.0590613 0.13121453
0.0020059049 0.0590613 0.13361129
0.10325569 0.0590613 0.13492882
0.13651118 0.059061304 0.13528083
0.32840806 0.059061304 0.13814759
0.3331106 0.059061304 0.13797693
-0.3791759 0.069598041 0.1375642
-0.31996828 0.071397498 0.13126923
-0.2406026 0.071397498 0.13414964
-0.20778854 0.071397498 0.13081528
-0.050637767 0.071397498 0.13659564
0.021529097 0.071397498 0.13556892
0.045028858 0.071397498 0.13089979
0.15231058 0.071397498 0.13456598
0.18816505 0.071397498 0.13498813
-0.32700747 0.0590613 0.14558637
-0.24915023 0.0590613 0.14969282
-0.18688875 0.0590613 0.14428772
0.049711101 0.0590613 0.14657876
0.068036735 0.059061304 0.14372972
0.095776625 0.059061304 0.14839771
0.19223316 0.0590613 0.14690197
0.26665354 0.0590613 0.14128587
0.28969494 0.0590613 0.14306429
0.35007209 0.0590613 0.14080864
-0.2330633 0.071397498 0.14483263
-0.22223192 0.071397498 0.14179134
-0.11284146 0.071397498 0.1442793
-0.012634665 0.071397498 0.14527082
0.055821851 0.071397498 0.14160326
0.089727826 0.071397498 0.14495705
0.12827456 0.071397498 0.14002411
0.1400069 0.071397498 0.14067565
0.18026784 0.071397498 0.14066881
0.23680581 0.071397498 0.14838466
0.28959793 0.0590613 0.15279791
-0.33426839 0.065966994 0.15037391
-0.31220567 0.068864509 0.15290698
-0.30835876 0.06750942 0.152988
-0.076861009 0.06658639 0.152988
-0.010535866 0.06337028 0.152988
-0.0048122704 0.063690789 0.152988
0.14383247 0.061108038 0.15298799
0.18561657 0.061433822 0.152988
0.19833052 0.060872797 0.152988
0.31487769 0.061952367 0.15298799
0.32687369 0.0657022 0.15177327
-0.15400378 0.070351355 0.152988
-0.11002009 0.071073234 0.152988
-0.10553668 0.071397498 0.1513266
-0.055442467 0.071397498 0.15234871
0.16866478 0.070126154 0.152988
0.25922129 0.07052581 0.152988
