# .PCD v0.7 - Point Cloud Data file format
VERSION 0.7
FIELDS x y z
SIZE 4 4 4
TYPE F F F
COUNT 1 1 1
WIDTH 909
HEIGHT 1
VIEWPOINT 0 0 0 1 0 0 0
POINTS 909
DATA ascii
-0.2613236 0.038379602 -0.12242714
-0.15087274 0.03768101 -0.12024835
-0.13851707 0.038791142 -0.12371065
-0.081963137 0.037960436 -0.12111984
-0.064954028 0.039605375 -0.12625071
-0.023598475 0.038730152 -0.12352075
0.026496112 0.0386425 -0.12324674
0.10200284 0.038549274 -0.12295506
0.19460244 0.038912416 -0.12408718
0.20521502 0.038068529 -0.1214565
0.26470175 0.038456544 -0.12266766
-0.30464923 0.045886781 -0.1290257
-0.27267781 0.046934273 -0.12895526
-0.24971554 0.047176398 -0.12881398
-0.23870844 0.049202252 -0.12874097
-0.207037 0.044516478 -0.12852693
-0.1550177 0.040210955 -0.12813871
-0.14803649 0.043144125 -0.1281177
-0.13110361 0.040869512 -0.12799585
-0.081809297 0.045279682 -0.12763622
-0.075507753 0.04778035 -0.12758981
-0.047056466 0.04815688 -0.12411579
0.12399133 0.044299815 -0.12601283
0.22415206 0.04408934 -0.12498066
0.23334777 0.049745828 -0.12475964
0.2554206 0.049528655 -0.12407105
-0.35373351 0.053535771 -0.12559719
-0.34123766 0.051533569 -0.12861285
-0.32783103 0.055238895 -0.12897268
-0.31099889 0.053699493 -0.12087625
-0.28549492 0.050202891 -0.12900327
-0.26013935 0.051847205 -0.12710121
-0.252684 0.051857334 -0.12713273
-0.24265155 0.051326483 -0.1254776
-0.23623949 0.050788313 -0.12872458
-0.2174273 0.051114693 -0.12481757
-0.19303712 0.052066293 -0.12843075
-0.18191987 0.050004717 -0.12135473
-0.14728442 0.051290244 -0.1253632
-0.13550103 0.050706215 -0.12802754
-0.12979093 0.051168218 -0.12498359
-0.11982809 0.051234391 -0.12519026
-0.10729726 0.050615013 -0.12782398
-0.057150736 0.050582141 -0.12745214
0.022215094 0.051086307 -0.12683965
0.041177318 0.051491629 -0.12599222
0.09595713 0.050645169 -0.1262449
0.13473764 0.050503239 -0.12291056
0.19289182 0.050745197 -0.12366579
-0.40352601 0.065127924 -0.12224903
-0.37288254 0.068923458 -0.12714094
-0.4128744 0.07786046 -0.12005656
-0.11776691 0.03604164 -0.11491877
-0.08960323 0.036648922 -0.11702944
-0.025173873 0.03553012 -0.11334257
0.047592305 0.037423428 -0.11944499
0.060545184 0.035217736 -0.1121389
0.078746028 0.036380429 -0.11619206
0.19054574 0.035670724 -0.11388435
0.33416945 0.035659902 -0.1136218
0.35901916 0.03942864 -0.11765276
0.39119303 0.036411092 -0.11154528
-0.34540218 0.047432572 -0.11285824
-0.30651248 0.040176861 -0.11942231
-0.27518949 0.04764583 -0.11382681
-0.12457301 0.047401555 -0.11297125
-0.05668664 0.0479284 -0.11488257
-0.0093072057 0.048686311 -0.11724582
0.087149769 0.049002983 -0.11823038
0.141394 0.049007043 -0.11824502
0.20058216 0.048456993 -0.11653029
0.29379076 0.048428874 -0.11644341
0.32072231 0.047633879 -0.11386651
0.38762772 0.042524971 -0.11245082
-0.35977119 0.05162796 -0.11542155
-0.34372997 0.061236221 -0.11992885
-0.19328687 0.033456743 -0.10535349
-0.18702175 0.034488134 -0.10932763
-0.17371744 0.032842807 -0.10298789
-0.090150177 0.032789938 -0.10278417
-0.024064362 0.03230216 -0.10090469
0.038364768 0.032665305 -0.10230394
0.10022937 0.032757565 -0.10265943
0.12326366 0.032802869 -0.102834
0.13559723 0.032386206 -0.10122853
0.14445008 0.033546273 -0.10569845
0.21004413 0.032503571 -0.10168076
0.32747871 0.033002462 -0.10360307
0.36492082 0.03463741 -0.10990281
0.37367156 0.034339301 -0.10875414
-0.36075777 0.048945203 -0.10472745
-0.31042686 0.048575617 -0.10372414
-0.29547578 0.046061538 -0.10496881
-0.1345309 0.04587676 -0.10709596
-0.070253327 0.045035176 -0.10385235
-0.027437046 0.044097271 -0.10023893
-0.00058493018 0.045824077 -0.10689051
0.1770665 0.044689037 -0.10251833
0.20405494 0.045120522 -0.10418074
0.35546196 0.044196222 -0.10062055
0.37803912 0.045495138 -0.1056238
0.40665871 0.040345177 -0.10678443
-0.36638221 0.051441628 -0.10902739
-0.32620782 0.05403202 -0.10998935
-0.44167757 0.067959994 -0.10325991
-0.40707833 0.060186956 -0.10522665
-0.39236298 0.068653204 -0.10532545
-0.40557283 0.072005205 -0.1060154
-0.095447309 0.029973827 -0.091930136
-0.23693793 0.031541321 -0.097973034
-0.21370174 0.030795407 -0.09509889
-0.14336133 0.031438243 -0.097575858
-0.096404508 0.030757535 -0.094952971
-0.088183783 0.0312165 -0.096721441
0.065182 0.031889156 -0.099313304
0.20539387 0.030045321 -0.092208676
0.38185588 0.031697579 -0.0985751
0.40811411 0.030200267 -0.092805713
0.42733443 0.035774685 -0.098446086
0.43474996 0.036169767 -0.094431467
-0.27051231 0.043440625 -0.097709119
-0.26317608 0.042534452 -0.094217464
-0.2295431 0.042285584 -0.093258545
0.013994325 0.042589691 -0.094428949
0.064131282 0.043858789 -0.099320419
0.10748002 0.042182196 -0.092860073
0.1958978 0.04247136 -0.093974151
0.32083991 0.04322822 -0.096890144
-0.39577967 0.05383094 -0.091450885
-0.37482691 0.050937515 -0.099551126
-0.44182342 0.065856256 -0.095248036
-0.39643925 0.06580478 -0.090704456
-0.26599273 0.028613254 -0.085130602
-0.21671945 0.027806137 -0.081096977
-0.20210072 0.028113827 -0.082634687
-0.11815638 0.029347084 -0.088797964
-0.080288403 0.028603317 -0.085080944
-0.044232283 0.028655199 -0.085340217
-0.029157162 0.027944639 -0.081789151
0.030949082 0.028692607 -0.085527174
0.12601432 0.02878505 -0.085989162
0.16268186 0.02805068 -0.082319096
0.18723084 0.029260097 -0.088363245
0.20384003 0.029526688 -0.089695543
0.3236033 0.02921035 -0.088114619
0.42135096 0.028011233 -0.082121961
0.43899021 0.028145399 -0.082792461
0.44195336 0.028957274 -0.086849861
-0.33802682 0.039443802 -0.088841334
-0.3244037 0.036398854 -0.089921027
-0.29711109 0.030325746 -0.089123324
-0.14982481 0.039758392 -0.081016891
-0.006300672 0.039640851 -0.080428988
0.051355731 0.039723765 -0.080842741
-0.37284455 0.046862073 -0.084312931
-0.31138298 0.043429822 -0.081099376
-0.14371137 0.041388385 -0.089164689
-0.064478435 0.04065777 -0.085510314
-0.043474909 0.040474933 -0.084597632
0.16370174 0.041550644 -0.089973472
0.17566104 0.040143434 -0.082942225
0.18826434 0.040387753 -0.084163524
0.21696243 0.040652648 -0.085487589
0.3517727 0.040028404 -0.082366601
0.36927763 0.040532272 -0.08488524
0.38030529 0.040160112 -0.083024964
-0.41749284 0.057705391 -0.084973015
-0.34978563 0.053591363 -0.085724257
-0.46337238 0.068702333 -0.084943622
-0.44400746 0.063633934 -0.082881287
-0.38171589 0.061419822 -0.086554915
-0.31183484 0.029493503 -0.071008645
-0.30899701 0.029832359 -0.07595662
-0.29303434 0.026346531 -0.071563609
-0.25606793 0.025653156 -0.070337333
-0.22837532 0.026290748 -0.07352373
-0.20027345 0.027364716 -0.078890957
-0.18351832 0.027095541 -0.077545732
-0.16653229 0.026619669 -0.075167537
-0.14140308 0.026714319 -0.075640552
-0.13659911 0.025719354 -0.070668161
-0.10633592 0.025876436 -0.071453184
0.037872359 0.02605878 -0.072364464
0.050049759 0.026045289 -0.072297052
0.13879542 0.027572246 -0.079928085
0.19641188 0.02734085 -0.078771681
0.22114807 0.025766741 -0.070904985
0.29572481 0.027577695 -0.079955332
0.32751313 0.027020417 -0.077170305
0.34461865 0.026679037 -0.075464234
0.38786507 0.026870977 -0.076423466
0.39865139 0.026991174 -0.077024154
0.45211369 0.028229697 -0.079291776
-0.3209694 0.033045299 -0.07762447
-0.26700956 0.038641382 -0.075433344
-0.18237959 0.03914164 -0.07793396
-0.14643575 0.038486175 -0.074657522
-0.054087177 0.03862017 -0.075327851
-0.047980882 0.038963184 -0.077042595
0.010957021 0.038631026 -0.075381801
0.020625345 0.039356939 -0.079009935
0.068967588 0.038670011 -0.075575806
0.073075935 0.038265269 -0.073552832
0.1195971 0.038561583 -0.075034738
0.20395437 0.038332775 -0.073890738
0.26366264 0.039073203 -0.077591874
0.28592527 0.037569407 -0.070074908
0.36375967 0.037759256 -0.071023896
0.37412161 0.038222894 -0.073341459
0.41040409 0.037755076 -0.071003005
0.42624325 0.039312564 -0.07878837
0.44411719 0.038687151 -0.075661071
-0.37224454 0.044259425 -0.07236252
-0.3677204 0.043192573 -0.072450422
-0.42762688 0.057713691 -0.073200092
-0.46438849 0.07934843 -0.077331394
-0.44617662 0.074685238 -0.075895175
-0.43397141 0.07146439 -0.074466266
-0.27983013 0.024935687 -0.065744728
-0.22546905 0.024703769 -0.06411171
-0.1967095 0.025075294 -0.066727757
-0.17403466 0.02465542 -0.063771278
-0.13581522 0.024690665 -0.064019442
-0.074223235 0.024465162 -0.062431607
-0.058502063 0.025524344 -0.069693595
0.14516121 0.024702476 -0.064102598
0.16244698 0.025242167 -0.067902766
0.17269047 0.02494044 -0.065778196
0.23020102 0.02539978 -0.069012575
0.26775131 0.024884304 -0.065382928
0.28225595 0.024688624 -0.064005077
0.36546129 0.024359928 -0.061690606
0.41866803 0.024206854 -0.060612764
0.45278874 0.024587184 -0.06329079
-0.32342255 0.031313553 -0.065175295
-0.30291995 0.038724825 -0.066230111
-0.29039007 0.03753534 -0.068481103
-0.20213662 0.03747521 -0.069604039
-0.19908369 0.036345564 -0.06180992
-0.040009417 0.037073798 -0.066936575
-0.0059343167 0.036689125 -0.064227514
0.020000085 0.037492383 -0.069689944
0.043321893 0.037182834 -0.067704462
0.11348578 0.036922798 -0.065875202
0.13183607 0.037344676 -0.068844423
0.14016344 0.036480203 -0.062760159
0.152482 0.037397474 -0.069215484
0.2240812 0.037272707 -0.068337895
0.28092909 0.036754981 -0.064694107
0.29246834 0.03613973 -0.06035902
0.32411772 0.036345374 -0.061806984
-0.39626241 0.049438749 -0.069539346
-0.37827906 0.044980709 -0.068676256
-0.41731611 0.054298975 -0.068376489
-0.46607459 0.07726939 -0.063646562
-0.31593055 0.028335989 -0.057088934
-0.30981216 0.025981029 -0.050995663
-0.26833293 0.022774838 -0.050529405
-0.24600986 0.022709785 -0.050071348
-0.22499986 0.023292627 -0.054175362
-0.21819027 0.023469975 -0.05542412
-0.17733248 0.022998458 -0.052103996
-0.16250315 0.023837864 -0.05801456
-0.085347995 0.023196876 -0.053501144
-0.046817217 0.022915043 -0.051516641
-0.0052320734 0.022791073 -0.050643716
0.016028725 0.023400139 -0.054932389
0.044940472 0.023908295 -0.05851049
0.06946677 0.024049375 -0.059503891
0.17903593 0.023390092 -0.054861642
0.19973069 0.024109041 -0.059924021
0.28934488 0.022915857 -0.051522382
0.31624952 0.023125343 -0.052997433
0.33373567 0.023234963 -0.05376932
0.34275931 0.023572873 -0.056148659
0.36703494 0.022716509 -0.050118703
0.38223922 0.022805871 -0.050747927
0.44532651 0.023227997 -0.053720273
-0.36307457 0.039639682 -0.057071179
-0.343155 0.034400821 -0.053909671
-0.28714156 0.036085423 -0.059440251
-0.095105633 0.034929201 -0.051835842
-0.065494314 0.034889463 -0.051555857
-0.042607158 0.035266176 -0.054210026
-0.010909704 0.035361316 -0.054878049
0.021840047 0.035750512 -0.057617385
0.067142367 0.035139188 -0.053312164
0.087092414 0.03543476 -0.055393703
0.17208564 0.035609804 -0.056628831
0.19640444 0.034703333 -0.050242666
0.40150297 0.035960764 -0.059098065
0.46520191 0.035137158 -0.05329968
-0.38499469 0.044992507 -0.057727579
-0.37114662 0.04089909 -0.052441791
-0.44933286 0.059612632 -0.052186634
-0.39684659 0.059264924 -0.054046541
-0.23973827 0.021650614 -0.040149782
-0.22689486 0.021866221 -0.042691778
-0.092695661 0.022090998 -0.045341924
-0.065211818 0.021716923 -0.040931549
-0.05281204 0.022321809 -0.047339462
0.070653364 0.021884983 -0.042913008
0.088022023 0.021808736 -0.042014048
0.17883006 0.021663064 -0.040294643
0.20750223 0.022442622 -0.048190165
0.32260668 0.022538219 -0.048863288
0.33130607 0.022333341 -0.047061913
0.41785425 0.0216584 -0.040238999
0.42953101 0.021644024 -0.04007072
0.43147987 0.022676066 -0.04983392
0.45265913 0.021813605 -0.042071518
-0.34733778 0.034286231 -0.046251494
-0.32887578 0.030070508 -0.047706887
-0.27698189 0.034255907 -0.046602901
-0.22714493 0.034055918 -0.045290116
-0.17788982 0.034518708 -0.048942462
-0.011281289 0.03420518 -0.046734672
0.0035133343 0.033679258 -0.040851779
0.064661533 0.033955071 -0.044102214
0.072767243 0.034047987 -0.04519723
0.20953012 0.034299329 -0.04739752
0.38186476 0.033814359 -0.042442355
0.4155125 0.034002632 -0.0446623
0.46242073 0.034283027 -0.047282957
-0.35898489 0.048949033 -0.045125585
-0.4444077 0.057135642 -0.041318148
-0.44890398 0.070386983 -0.043676794
-0.32047778 0.026697956 -0.03310667
-0.27965006 0.021130623 -0.034011729
-0.25482619 0.02136023 -0.036726147
-0.23398712 0.021539206 -0.038836259
-0.20452175 0.021583125 -0.039354075
-0.14408885 0.021094926 -0.033593893
-0.13056931 0.021070722 -0.033306543
-0.12182809 0.021582924 -0.039351694
-0.11876739 0.021061119 -0.033192977
-0.10425485 0.020936199 -0.031720459
-0.054259375 0.021139011 -0.034111708
0.035734769 0.021162082 -0.034386478
0.053340249 0.021030128 -0.032828763
0.084222943 0.021367436 -0.036806703
0.16813152 0.020902792 -0.031324517
0.17643102 0.021217739 -0.035044439
0.19353986 0.021208744 -0.034938816
0.21977213 0.020881444 -0.031072505
0.34427321 0.021109093 -0.033761568
-0.33788955 0.03117796 -0.036595583
-0.20802754 0.032908041 -0.031763025
-0.15678883 0.0333184 -0.036593199
-0.069519289 0.03312118 -0.034270968
0.033841703 0.033498656 -0.038723424
0.088009171 0.032871407 -0.031331312
0.17327461 0.033064373 -0.033598199
0.27375948 0.033562366 -0.039470065
0.33451355 0.032901399 -0.031684808
0.35414466 0.032974541 -0.03254674
0.40469104 0.032850247 -0.031081971
-0.38939965 0.043248788 -0.033358268
-0.35794127 0.04769332 -0.033600882
-0.34760535 0.044954538 -0.030620292
-0.47101039 0.062932566 -0.034639765
-0.32502258 0.026915625 -0.02298319
-0.28539529 0.020432692 -0.025512423
-0.27291739 0.020291913 -0.024138201
-0.15493043 0.020269992 -0.023880405
-0.01381092 0.020323627 -0.024511155
0.02898927 0.020227842 -0.023384728
0.056442484 0.020130277 -0.020355936
0.093779065 0.02063367 -0.028157322
0.16341719 0.020254541 -0.023209646
0.36601371 0.020159833 -0.021404633
0.46252409 0.020649357 -0.028351592
-0.29094777 0.032430235 -0.02256823
-0.27046782 0.03233128 -0.024965951
-0.22398098 0.032507811 -0.027046397
-0.16945344 0.032126583 -0.021314096
-0.15774089 0.032314934 -0.024773318
-0.028686509 0.032584138 -0.02794075
0.010071326 0.032717869 -0.02952004
0.085242212 0.03244485 -0.026304388
0.10433587 0.03220696 -0.023500599
0.1144616 0.032102626 -0.020464063
0.19025066 0.032553282 -0.027582254
0.21723576 0.032365702 -0.025371656
0.23149326 0.032639403 -0.028597161
0.24361345 0.032495324 -0.026899211
0.26446193 0.032323457 -0.024684284
0.28250787 0.032102648 -0.020464864
0.30886987 0.032171763 -0.02291704
0.32410687 0.032148886 -0.022105236
0.39452252 0.032721967 -0.029570151
0.41202796 0.03209817 -0.020305989
0.42412299 0.032197621 -0.023390802
0.45622534 0.03256578 -0.027729519
0.4710353 0.032535154 -0.027368629
-0.45511612 0.058480985 -0.027311426
-0.39541173 0.055686221 -0.020280449
-0.28412092 0.019908309 -0.012091941
-0.18341368 0.019984923 -0.015199017
-0.1619463 0.019879717 -0.011466531
-0.028767012 0.019905914 -0.012395904
0.38971984 0.019935193 -0.013434647
0.41477764 0.019891821 -0.01189592
-0.083103612 0.020023281 -0.016559938
0.081113741 0.020105131 -0.019463759
0.19761142 0.020110998 -0.019671984
0.38112873 0.020111294 -0.01968254
0.40274584 0.020047134 -0.017406194
0.41200155 0.020071343 -0.018265093
0.43245417 0.020053683 -0.017638549
-0.35749793 0.034372076 -0.011556124
-0.31727168 0.036750741 -0.013547219
-0.24354881 0.031848025 -0.01143129
-0.21785335 0.032049134 -0.01856634
-0.20148087 0.03190713 -0.01352829
-0.18195143 0.031839781 -0.011138824
-0.17711738 0.032038298 -0.018181942
-0.16271792 0.031945031 -0.01487288
-0.14039826 0.031841718 -0.011207488
-0.051760789 0.031988934 -0.016430562
-0.022300761 0.031994976 -0.016644826
0.07907439 0.032069255 -0.019280206
0.24998413 0.031847652 -0.011418058
0.25674498 0.031850439 -0.011516931
0.30669522 0.031976022 -0.015972435
0.31216007 0.032069851 -0.019301178
0.34080499 0.031882547 -0.012656046
0.43298239 0.031848468 -0.011446946
0.44566253 0.032064393 -0.019107627
-0.41863245 0.049227439 -0.018249001
-0.45904753 0.058791995 -0.013852481
-0.39953575 0.056377217 -0.01001285
-0.4746165 0.062617831 -0.017016429
-0.4485527 0.068288796 -0.015379561
-0.17775327 0.019716874 -0.0056890505
-0.081982344 0.019657614 -0.0035866324
0.069043055 0.019828353 -0.0096442075
0.11553019 0.019767556 -0.0074872142
0.23695035 0.019659149 -0.0036410906
0.25400963 0.019779094 -0.0078965686
0.33488351 0.019703053 -0.0051987385
0.36820531 0.019742912 -0.0066128769
0.39068529 0.019606996 -0.0017908443
0.47336173 0.019615376 -0.0020880897
-0.33496097 0.02869093 -0.0020554136
-0.2974197 0.020512164 -0.0028963247
-0.22237423 0.031566419 -0.0014403694
-0.20709947 0.031708091 -0.0064667654
-0.17369109 0.031533111 -0.00025859266
-0.13095614 0.031773634 -0.0087921042
-0.10615855 0.031771563 -0.0087184962
-0.066257149 0.031733297 -0.0073608528
0.086924255 0.03177597 -0.0088748457
0.09023425 0.031563766 -0.0013462986
0.14658538 0.031696297 -0.0060483087
0.16473772 0.031693462 -0.0059476355
0.19812918 0.031734731 -0.0074118674
0.20865738 0.031603605 -0.0027596641
0.21685067 0.031696346 -0.006049878
0.2519598 0.031586546 -0.0021545293
0.26039523 0.03180217 -0.0098044034
0.28001347 0.031535096 -0.00032910125
0.30360466 0.031624213 -0.0034907518
-0.41514924 0.047981411 -0.0040868116
-0.40249598 0.044869039 -0.0014116378
-0.47591266 0.067121066 -0.0018806965
-0.47570974 0.074375734 -0.00073160994
-0.46787232 0.072675131 -0.00687641
-0.27993783 0.019641493 0.0030159501
-0.19536769 0.019676745 0.0042665601
-0.14299354 0.019625343 0.0024430326
-0.11399825 0.019775441 0.0077679027
-0.1092314 0.019782592 0.0080216024
0.0031004101 0.019728955 0.0061188098
0.037084311 0.019667884 0.0039522289
0.069600388 0.019831598 0.0097601786
0.094085857 0.019687887 0.0046618506
0.27072904 0.019634711 0.0027753776
0.30222845 0.019745626 0.0067102127
0.33958039 0.01973257 0.0062470594
0.37377116 0.019565385 0.00031593215
0.39961505 0.019558189 6.0711831e-05
0.42764553 0.019804178 0.0087874271
-0.3261213 0.026692761 0.0062484303
-0.36239934 0.035377331 0.0057000304
-0.31966451 0.037120201 0.0065051299
-0.060067646 0.03160223 0.002712318
-0.038840108 0.031778861 0.008978405
0.014971912 0.031613115 0.0030984411
0.20389242 0.031571522 0.0016228423
0.32340062 0.031670153 0.0051218267
0.34005052 0.031764701 0.0084760431
0.42727712 0.031674497 0.0052760257
-0.41453803 0.047912396 0.0067572026
-0.11352045 0.01996256 0.014406186
0.003779307 0.019957688 0.014233357
0.042608321 0.019927949 0.013178321
0.085771516 0.019994181 0.01552799
0.11929806 0.019842822 0.010158366
0.18147153 0.019856859 0.010656326
0.27259171 0.019853368 0.01053248
0.42447212 0.019839475 0.010039607
-0.3322998 0.028469544 0.016397376
-0.32193112 0.026003199 0.017097855
-0.31007227 0.023239138 0.01963882
-0.26488531 0.020115096 0.019817587
-0.17607468 0.02008529 0.018760111
-0.097144701 0.020022962 0.016549062
0.069159895 0.020003159 0.015846431
0.15638679 0.020051815 0.017572585
0.18779594 0.020119619 0.019978058
0.25611526 0.020052917 0.017611729
0.34698582 0.020063929 0.018002324
-0.34774786 0.032047715 0.012037981
-0.2813673 0.031926811 0.014227068
-0.27540547 0.031891629 0.012978944
-0.26115882 0.032070778 0.019334501
-0.19824767 0.031905197 0.013460255
-0.1624393 0.031995591 0.016667068
-0.082991637 0.0319934 0.016589493
-0.056665611 0.031911161 0.013671848
-0.014817128 0.032037094 0.018139403
0.12144223 0.031941008 0.014730697
0.13345639 0.031944349 0.014849165
0.14346719 0.031910453 0.013646767
0.24359775 0.031950701 0.01507462
0.26849765 0.03205657 0.018830486
0.27788001 0.031962752 0.015502036
0.29407138 0.032066043 0.019166511
0.30675462 0.031869307 0.012187096
0.40887049 0.03183613 0.011010059
-0.3602131 0.046957478 0.010387352
-0.35847279 0.046615794 0.012995095
-0.43389946 0.052668694 0.010657954
-0.38441524 0.052809089 0.012017388
-0.45545906 0.069849029 0.012089942
-0.44341722 0.067056127 0.015352669
-0.43314892 0.06456089 0.014234655
-0.26891661 0.020450432 0.026004024
-0.25494808 0.020724164 0.029218391
-0.24387424 0.020752829 0.029556474
0.08125364 0.020326559 0.024547197
0.12032568 0.020136155 0.020564668
0.15519033 0.020774618 0.029813906
0.2050831 0.020643221 0.028264113
0.30236003 0.020633802 0.028166909
0.31696382 0.020557158 0.027262107
0.40575439 0.020242698 0.023559613
0.43255481 0.02031037 0.024355361
0.44749236 0.020164866 0.021583252
0.47143555 0.020474037 0.026286267
-0.37602508 0.039336819 0.025285814
-0.35787943 0.035231441 0.02810451
-0.31781754 0.037600957 0.02821441
-0.30384266 0.034268945 0.024700252
-0.25269389 0.032362401 0.025332738
-0.15792857 0.032090768 0.020043556
-0.044497442 0.03217902 0.023171602
-0.032985199 0.0325411 0.027433403
0.14731857 0.032183748 0.023227293
0.16644973 0.032554206 0.027591409
0.17839962 0.032641776 0.028624406
0.21771425 0.032116875 0.020969667
0.25850439 0.032309912 0.024714168
0.28016976 0.032228522 0.023755006
0.45422977 0.032240108 0.023891518
-0.41480976 0.048604272 0.024895396
-0.33822232 0.04254286 0.028769605
-0.4419727 0.055157289 0.025340252
-0.44809735 0.068358161 0.021546273
-0.42331564 0.06255056 0.024185829
-0.27854788 0.021410052 0.037311524
-0.21014635 0.021592937 0.039470289
-0.19409505 0.020880701 0.031064473
-0.12191252 0.020982211 0.032262407
-0.097215161 0.021505885 0.038443994
-0.060567841 0.021548547 0.038946964
-0.05560571 0.021022454 0.032738209
-0.047636155 0.021539217 0.038836971
-0.037538625 0.021422686 0.037463166
-0.0079089999 0.021464147 0.037951946
0.0046749152 0.021253841 0.035470217
0.065408029 0.021157619 0.034333892
0.085881144 0.020837355 0.030555412
0.09779495 0.021148287 0.034224723
0.1342997 0.021521244 0.038620517
0.2356512 0.021373853 0.036886092
0.28965938 0.021344114 0.036531925
0.41988912 0.021403536 0.037235577
0.45826679 0.021252919 0.035464272
-0.29755577 0.034512617 0.039985362
-0.21425691 0.032898247 0.031647615
-0.14040962 0.033309527 0.036488533
-0.06460546 0.032929197 0.032007448
0.009246435 0.032834277 0.030892635
0.079673268 0.033369664 0.037203263
0.10041316 0.033331946 0.036752872
0.14844927 0.032771401 0.030147785
0.15004681 0.033239793 0.035666224
0.27621785 0.032985847 0.03267999
0.29916516 0.033377673 0.037295807
0.32502094 0.03346388 0.038312621
0.38140467 0.032772288 0.030163191
0.39638269 0.03285937 0.031189496
-0.39852208 0.045767032 0.037150852
-0.33778837 0.042896688 0.034018278
-0.44962105 0.057821564 0.034849931
-0.4178693 0.050543126 0.038713429
-0.46614301 0.061766304 0.034651633
-0.44061726 0.067659229 0.035179019
-0.30345011 0.023592943 0.041867752
-0.26307878 0.022082791 0.045245249
-0.21821314 0.022194222 0.046441082
-0.1703504 0.022611437 0.049379058
-0.15411681 0.022006484 0.044345647
-0.015769169 0.022139158 0.045909792
0.00083763897 0.021656075 0.040214621
0.018796444 0.022546776 0.048923716
0.036091283 0.022271069 0.046317451
0.092377976 0.021882836 0.04288796
0.11286314 0.021984415 0.044085465
0.12843262 0.022258803 0.046895862
0.1890544 0.022120802 0.045693368
0.22039813 0.022338241 0.047455244
0.30886737 0.022286 0.047087375
0.35687217 0.022076251 0.04516815
0.41702944 0.022665806 0.049761921
0.42772615 0.022005519 0.044334155
0.43633837 0.022318922 0.047319204
0.47030205 0.029702492 0.044708207
-0.35746872 0.036341228 0.041958317
-0.33333331 0.031080807 0.047305118
-0.1066524 0.034214441 0.046799928
-0.08127097 0.033823423 0.042550735
-0.023311595 0.033927195 0.043773688
-0.016517861 0.034622457 0.049674645
0.0070225019 0.034526933 0.049001615
0.021037243 0.034592509 0.049463641
0.051444829 0.03402546 0.044931728
0.15870774 0.033932388 0.043833412
0.19419327 0.03379922 0.042263057
0.21059693 0.033997238 0.044598114
0.37463433 0.033621363 0.040169474
0.39073026 0.034633718 0.04975266
-0.33870986 0.043996103 0.04408719
-0.42066002 0.051531527 0.042371385
-0.37224016 0.052602854 0.048835613
-0.36652356 0.051370174 0.04978301
-0.42265052 0.064489163 0.047444396
-0.23003164 0.023405673 0.054971945
-0.20443082 0.022770353 0.050498128
-0.16701242 0.023360468 0.054653622
-0.11475945 0.023648959 0.056685142
-0.10377014 0.022949219 0.051757663
-0.047366388 0.02361227 0.056426778
0.050308123 0.023009622 0.052183036
0.063682109 0.023540694 0.055922754
0.13225085 0.023939598 0.058731772
0.17577536 0.023299074 0.054221302
0.20726676 0.023420738 0.055078048
0.26502389 0.023238484 0.053794622
0.37462288 0.023723798 0.057212144
0.4143686 0.023367345 0.054702062
0.43941292 0.023141125 0.05310905
0.44955555 0.024065956 0.059621561
0.46625483 0.02325481 0.053909045
-0.35857758 0.038872484 0.059203878
-0.24323766 0.035792194 0.057911754
-0.23934384 0.03481755 0.051047374
-0.22767814 0.03561905 0.056692306
-0.2021717 0.034683608 0.050104041
-0.19491164 0.035723284 0.057426691
-0.18664859 0.035553101 0.056228101
-0.1570985 0.035747815 0.057601433
-0.14201537 0.035888068 0.058590345
-0.12777051 0.035328336 0.054647502
-0.1163668 0.036022108 0.059536029
-0.030806798 0.035786778 0.057874851
0.012180068 0.035244651 0.054056186
0.032963812 0.03500114 0.052340865
0.056567468 0.035401199 0.055157997
0.21788594 0.035979535 0.059233025
0.23662129 0.035634451 0.056801267
0.35731128 0.035091456 0.052976474
0.38002652 0.03485506 0.051311575
0.39341003 0.035727307 0.057454761
0.45967355 0.035126802 0.053230435
0.46460706 0.031790912 0.059107296
-0.34285682 0.046987362 0.058638111
-0.42962012 0.054637276 0.050491333
-0.46818188 0.064571954 0.055191558
-0.41032654 0.06212993 0.051528994
-0.45514527 0.072781458 0.050860919
-0.44004685 0.070360459 0.059078712
-0.29830047 0.026036853 0.066243939
-0.26289561 0.024750959 0.064445265
-0.22031219 0.025093006 0.066853918
-0.15356974 0.024482656 0.062555924
0.033170857 0.024840919 0.065060332
0.23032936 0.025256842 0.068007603
0.28818059 0.025118928 0.067036442
0.29593384 0.024435237 0.062221989
0.33592838 0.025041718 0.066492744
0.34405339 0.02482025 0.064933196
0.39392424 0.024120495 0.06000562
0.43960249 0.024454549 0.062357977
-0.20269637 0.037265152 0.068286203
-0.18980668 0.037012219 0.066505723
0.0015715873 0.037057891 0.066825964
0.051642362 0.036688283 0.064222835
0.084338211 0.036367536 0.061963845
0.11802177 0.036928341 0.065915272
0.12510265 0.03682851 0.065212533
0.22821978 0.036283284 0.061372899
0.30201906 0.036283214 0.061370604
0.32187721 0.037061639 0.06685359
0.34358689 0.036618616 0.063732713
0.35653287 0.037331153 0.068750784
0.40491471 0.036870684 0.065507486
0.45253053 0.036332283 0.061715569
-0.33700436 0.046100616 0.062177505
-0.40852481 0.052022073 0.067223892
-0.43713063 0.070561826 0.06524992
-0.27930129 0.026552796 0.074834548
-0.26808602 0.02616797 0.072911501
-0.22253975 0.026159734 0.072870336
-0.21232593 0.026278425 0.073463455
-0.14328851 0.027524073 0.079688206
-0.0722344 0.026072374 0.07243377
0.035416484 0.025972404 0.071934201
0.13801347 0.02631484 0.07364542
0.18355465 0.027451366 0.079324886
0.35398352 0.026068389 0.072413854
0.40615392 0.026787104 0.076005429
-0.35026819 0.039747491 0.076049671
-0.32307085 0.03395414 0.079593167
-0.29317537 0.039573178 0.077766396
-0.26068068 0.038118437 0.072820678
-0.23730299 0.038579892 0.075127155
-0.18312928 0.039356675 0.079009756
-0.051926862 0.039161295 0.078034237
-0.023641245 0.037563797 0.070048511
0.016737543 0.039041199 0.077432543
0.16175434 0.038727827 0.075866736
0.21232891 0.03817885 0.073122643
0.24787147 0.037855946 0.071508653
0.31990981 0.038300548 0.073730916
0.35680202 0.038785748 0.076156087
0.37179032 0.038321681 0.073836543
0.39609611 0.037810959 0.071283795
0.40833458 0.039029084 0.077372372
-0.46664977 0.067655735 0.076037221
-0.26888514 0.028128972 0.082711034
-0.25996315 0.029207947 0.088102877
-0.17804295 0.028100217 0.082567319
-0.16978362 0.028827133 0.086199872
-0.15944821 0.028361576 0.083873391
-0.13799056 0.029418007 0.089152589
-0.028382644 0.027995639 0.082044721
0.070576578 0.028966548 0.086896561
0.098070905 0.0288161 0.086144738
0.10506201 0.028408807 0.084109418
0.14626409 0.029161762 0.087872088
0.25536647 0.028370881 0.083919898
0.28900537 0.02866631 0.0853962
0.34675223 0.029543066 0.089777544
0.38654539 0.028575771 0.084943771
0.39717847 0.027963325 0.081883237
-0.14993823 0.039766427 0.081057832
0.18285136 0.039690055 0.080676645
0.45102736 0.037612468 0.080560632
-0.26127249 0.041014183 0.087294497
-0.24130315 0.04020289 0.083239391
-0.083246782 0.041494392 0.089693576
-0.0024521314 0.040592656 0.085187227
0.01167621 0.040901467 0.086730532
0.028993655 0.040452957 0.084488742
0.043861173 0.041019723 0.087321274
0.13322997 0.040569685 0.085074164
0.20581827 0.040196478 0.083208025
0.32418334 0.040511519 0.084782034
0.40324631 0.040362015 0.084034771
-0.40669775 0.054589204 0.08241073
-0.3567287 0.054094288 0.080078252
-0.43320629 0.060553804 0.080501527
0.28615731 0.029963691 0.091879494
0.2909742 0.029763538 0.090879284
-0.29075825 0.030165881 0.091503188
-0.27666867 0.030159425 0.092648342
-0.26350346 0.031545281 0.097988278
-0.22592735 0.031433977 0.097559422
-0.027030081 0.031554796 0.098024964
-0.0076365769 0.031099318 0.096269913
0.13622385 0.031391751 0.097396716
0.31296337 0.031593796 0.098175228
0.32205862 0.031534433 0.097946502
0.43519104 0.031436317 0.094162777
-0.36470771 0.047877118 0.097175881
-0.34090373 0.040573239 0.09097755
-0.26091808 0.042999983 0.096011221
-0.25307763 0.042204548 0.092946284
-0.17013437 0.043520637 0.098017409
-0.13809678 0.043070592 0.096283309
-0.026171383 0.042232107 0.093051314
0.0055798572 0.042990308 0.095972471
0.11945532 0.042633891 0.094600454
0.18443623 0.042472608 0.093979053
-0.4150539 0.059421062 0.095190495
-0.45396632 0.069333479 0.097365513
-0.39743662 0.067463547 0.096309423
-0.38341111 0.063255526 0.093144499
-0.41536349 0.072076604 0.097485684
-0.26305425 0.034478467 0.10929036
-0.19300666 0.032097001 0.10011417
-0.035474937 0.032597877 0.10204412
-0.023414969 0.034029804 0.1075616
0.12424967 0.034158707 0.10805827
0.15111557 0.032650847 0.10224824
0.27653557 0.033218507 0.10443553
0.32657725 0.032184433 0.10045104
0.33887649 0.034560297 0.10960566
0.36525229 0.034213804 0.10827058
0.3863 0.032792717 0.10279487
0.39449522 0.033654422 0.10611517
0.41307616 0.035039093 0.1044455
-0.35428616 0.047216624 0.1040659
-0.29447886 0.047059029 0.10920854
-0.25651735 0.046564505 0.10974596
-0.19341302 0.045323424 0.10496388
-0.16561894 0.04635369 0.10893366
-0.067562364 0.044778515 0.10286327
0.013733636 0.044667602 0.10243659
0.18663612 0.044456702 0.10162365
0.19133335 0.045291778 0.10484116
0.22834426 0.044433951 0.10153599
0.34750563 0.046062246 0.10781128
0.36690661 0.045522008 0.10572781
-0.35314155 0.060335685 0.10940521
-0.42271414 0.075237818 0.10272437
-0.12667468 0.0351693 0.11195227
-0.099608265 0.035025798 0.11139933
0.10060821 0.035925515 0.11477332
0.12139473 0.035392087 0.1128107
0.26400608 0.035819419 0.11423005
0.34642154 0.035172973 0.11196642
0.35349795 0.034690604 0.11010778
0.39135283 0.039546832 0.11150142
-0.32048935 0.041331973 0.11238612
-0.31981075 0.041030314 0.11186559
-0.26454976 0.048646752 0.11712259
-0.25785637 0.049389932 0.11944002
-0.18662527 0.046787869 0.11060663
-0.097660661 0.048880331 0.11785087
-0.060613517 0.047588207 0.11368994
0.002390109 0.047786698 0.11444073
0.038511943 0.047978431 0.11503858
0.15397786 0.047961682 0.11498608
0.18378088 0.049033366 0.11832813
0.21524984 0.047855824 0.11445601
0.22671735 0.049000435 0.11822537
0.2358858 0.049349844 0.11931491
0.27632433 0.049344461 0.11929804
0.32756469 0.048733227 0.11739256
0.33493257 0.048920128 0.11797541
0.34572497 0.047770686 0.1143908
0.3893218 0.043115743 0.11203063
-0.36621439 0.054546833 0.11958677
-0.32606867 0.055750258 0.11613961
-0.30580235 0.051944934 0.11930786
-0.43101609 0.068500288 0.114695
-0.42650229 0.068156123 0.11633131
-0.3839044 0.068836503 0.11360893
-0.34639835 0.060054563 0.11440633
-0.42566299 0.072313093 0.1166009
-0.41271576 0.077066272 0.1177625
-0.27772406 0.038306311 0.12219962
-0.25784534 0.039274864 0.12522078
-0.19460541 0.038270827 0.12208894
0.081068709 0.038037643 0.12135984
0.23448801 0.037953664 0.12109903
0.31510484 0.039027084 0.12106055
-0.33393061 0.049271554 0.12706642
-0.25027984 0.044911973 0.12881842
-0.24364866 0.040674575 0.12877424
-0.23554567 0.049887169 0.12099063
-0.18907768 0.045559715 0.12840535
-0.17916164 0.047270715 0.12833646
-0.1553027 0.045670148 0.12816881
-0.13776255 0.041193604 0.12804385
-0.1020446 0.042614002 0.12778528
-0.025579747 0.04640805 0.12721273
0.015208424 0.04446961 0.12689653
0.032965008 0.04237292 0.12675598
0.072345287 0.043956604 0.12643991
0.16430612 0.048211426 0.12567183
0.18319863 0.049768634 0.12062145
0.20320798 0.042243555 0.12531832
0.28500605 0.045815669 0.1227916
-0.35366797 0.053402912 0.12524307
-0.32353848 0.05754457 0.1289905
-0.25472546 0.050310813 0.12231065
-0.23874119 0.05063602 0.12874156
-0.10970941 0.050226383 0.12204798
-0.096772894 0.050836924 0.12774645
0.01958432 0.051457401 0.12588683
0.14928135 0.050318882 0.1223366
-0.38253909 0.067976564 0.12595122
-0.37120903 0.066411488 0.12732542
-0.39342451 0.071734346 0.12421063
