# .PCD v0.7 - Point Cloud Data file format
VERSION 0.7
FIELDS x y z
SIZE 4 4 4
TYPE F F F
COUNT 1 1 1
WIDTH 900
HEIGHT 1
VIEWPOINT 0 0 0 1 0 0 0
POINTS 900
DATA ascii
-0.32128915 0.036056999 -0.11024157
-0.3121365 0.036056999 -0.11286776
-0.034914136 0.036056999 -0.11136314
-0.021616176 0.036056999 -0.11091265
0.015725642 0.036056999 -0.11354354
0.025972724 0.036057003 -0.11277507
0.10047794 0.036056999 -0.11138958
0.28526172 0.036187779 -0.11355959
0.31973276 0.038295731 -0.114371
-0.39419669 0.040365666 -0.11123287
-0.37035999 0.043962985 -0.11343981
-0.34669986 0.041482452 -0.114371
-0.30091748 0.0442148 -0.11262889
-0.25837395 0.0442148 -0.11339437
-0.049749374 0.0442148 -0.11346456
0.0072652996 0.040870409 -0.114371
0.23466602 0.0442148 -0.11040251
0.28087559 0.0442148 -0.11125937
0.29601526 0.04267187 -0.114371
0.37887678 0.043316808 -0.11324975
-0.36099884 -0.043625701 -0.10012676
-0.36848143 -0.033351675 -0.10945
-0.34057415 -0.034231685 -0.10945
-0.3871713 -0.02231919 -0.10945
-0.34019205 -0.020361803 -0.10945
0.34982914 -0.029457778 -0.10550195
-0.34988683 -0.010263527 -0.10891005
-0.32608199 -0.011801793 -0.10145294
0.35072011 -0.017196314 -0.10945
0.38401109 -0.0010159253 -0.10851079
-0.37396944 0.0014164549 -0.10945
-0.3526985 0.006703001 -0.10945
0.38180187 0.003245079 -0.10434746
-0.3393718 0.015875546 -0.10945
-0.41692463 0.036056999 -0.10313904
-0.30699307 0.036056999 -0.10812828
-0.26463091 0.036056999 -0.10414676
-0.21991672 0.036056999 -0.10494246
-0.12360433 0.036056999 -0.10497664
-0.097520903 0.036056999 -0.10713799
-0.052654549 0.036056999 -0.1087319
-0.031166598 0.036056999 -0.10695538
0.11123072 0.036056999 -0.10231464
0.15268844 0.036056999 -0.10482755
0.22802977 0.036056995 -0.10643061
0.23879573 0.036056999 -0.10344426
0.27995071 0.036056999 -0.10405691
0.32366741 0.036056999 -0.10801499
0.4080306 0.039267186 -0.10713142
0.41681537 0.037913091 -0.1034926
0.42164031 0.036056999 -0.10087179
-0.36926284 0.0442148 -0.10387646
-0.34123185 0.0442148 -0.10595767
-0.12975705 0.0442148 -0.10789871
-0.034895614 0.0442148 -0.10958494
0.05482766 0.0442148 -0.10809599
0.078673169 0.0442148 -0.1082011
0.092722006 0.0442148 -0.10066611
0.16336748 0.0442148 -0.1025205
0.24753873 0.044214796 -0.10311508
0.38855946 0.0442148 -0.10140812
-0.34966302 -0.042033382 -0.099858686
-0.33920124 -0.03682873 -0.097604536
0.36408615 -0.032864928 -0.090868771
-0.39202851 -0.021762263 -0.090437934
-0.39301294 -0.018088419 -0.09373273
-0.35027856 -0.01258985 -0.099982657
-0.35390136 -0.0015231974 -0.098880976
0.36130422 -0.0018067112 -0.094482273
-0.32904166 0.0046100067 -0.099719234
0.34223515 0.002408552 -0.092099041
-0.38082278 0.017658263 -0.096482314
-0.3787224 0.018870875 -0.091436237
0.35294226 0.01171078 -0.098250069
-0.40416771 0.036056999 -0.099562123
-0.39600408 0.036057003 -0.099533997
-0.35236853 0.036056999 -0.095089801
-0.3037928 0.036056999 -0.09608756
-0.2870948 0.036056999 -0.094463751
-0.14610338 0.036056999 -0.09315639
-0.13277441 0.036056999 -0.095980249
-0.12688239 0.036056999 -0.095527403
-0.10282737 0.036056999 -0.098899037
-0.081145301 0.036056999 -0.09817262
0.20167938 0.036056999 -0.092483804
0.21807419 0.036056999 -0.099865034
0.22021586 0.036056999 -0.09358304
0.26396397 0.036056995 -0.097629339
0.29758325 0.036056999 -0.097556174
-0.35424042 0.0442148 -0.090311378
-0.16535428 0.0442148 -0.091640987
-0.1364761 0.0442148 -0.098972782
-0.11222884 0.0442148 -0.098225623
-0.10694593 0.0442148 -0.090608969
-0.05445474 0.0442148 -0.094672889
-0.028689265 0.0442148 -0.095221937
0.11506744 0.0442148 -0.096732259
0.12966083 0.0442148 -0.092430674
0.26731819 0.0442148 -0.093556851
0.4100228 0.0442148 -0.094241649
0.43501848 0.04343722 -0.093313858
-0.36759847 -0.031160798 -0.084650606
-0.36004701 -0.023654869 -0.084650598
-0.33567113 -0.026570287 -0.084650598
0.35089618 -0.025514428 -0.084650598
-0.38668758 -0.016307073 -0.084650606
-0.36778554 -0.014440838 -0.084552273
0.35756606 -0.018192727 -0.084650591
0.3652747 -0.018301649 -0.084650598
-0.37460405 -0.0020001607 -0.084650598
-0.36876515 -0.0042031878 -0.085599646
0.34115005 -0.0052868295 -0.084650598
-0.32770362 0.00090174808 -0.087791428
0.3575176 0.0053786021 -0.084650598
-0.38412499 0.014412958 -0.089802019
0.3664965 0.013301594 -0.085764132
-0.32453847 0.036056999 -0.086679496
-0.30556098 0.036056999 -0.08671391
-0.29592761 0.036056999 -0.082090959
-0.27407897 0.036056999 -0.085421711
-0.12024473 0.036056999 -0.082420081
-0.026786048 0.036056999 -0.084169365
0.0097836554 0.036056999 -0.087944821
0.14857666 0.036056999 -0.087756917
0.17721142 0.036056999 -0.087197095
0.29782 0.036056999 -0.088917516
0.31525013 0.036056999 -0.08585678
0.33544773 0.036056999 -0.084384233
0.35819989 0.036056999 -0.081900232
-0.3937256 0.044214804 -0.086445592
-0.37835786 0.0442148 -0.081093438
-0.34458259 0.0442148 -0.088724151
-0.24686603 0.0442148 -0.084722906
-0.22569984 0.0442148 -0.088031329
-0.17214915 0.0442148 -0.082321413
-0.15900037 0.0442148 -0.083345428
-0.055094779 0.0442148 -0.081982985
-0.02658844 0.0442148 -0.088048011
-0.017395675 0.0442148 -0.084967792
0.042419046 0.0442148 -0.086895302
0.18192805 0.0442148 -0.082248554
0.25892106 0.0442148 -0.086978331
0.29472792 0.0442148 -0.084097125
0.33522359 0.0442148 -0.084148929
0.43804556 0.0442148 -0.085952029
-0.35557288 -0.0096263904 -0.071126334
0.35460761 -0.0078261252 -0.078176238
-0.34367812 0.036056999 -0.078537934
-0.26614478 0.036056999 -0.070630379
-0.17512728 0.036056999 -0.075167254
-0.12481781 0.036056999 -0.070989206
-0.10399924 0.036056999 -0.075437509
-0.072808124 0.036056999 -0.074397922
-0.063885041 0.036056999 -0.078683257
-0.025595274 0.036056999 -0.072867714
-0.0077377409 0.036056999 -0.071722589
0.044901647 0.036056999 -0.074765787
0.11500178 0.036056999 -0.075456589
0.18756691 0.036056999 -0.070268258
0.26870996 0.036056999 -0.071442008
0.29703796 0.036056999 -0.078682922
0.37913817 0.036056999 -0.072885051
0.42130107 0.036056999 -0.077735707
-0.42455724 0.0442148 -0.075074814
-0.39371967 0.0442148 -0.076399498
-0.33228669 0.0442148 -0.074013844
-0.30282298 0.0442148 -0.077571966
-0.27879804 0.0442148 -0.079595104
-0.19066098 0.0442148 -0.073978394
-0.18791278 0.0442148 -0.070823535
-0.16135046 0.0442148 -0.071619853
-0.14739841 0.0442148 -0.071337931
-0.12051708 0.0442148 -0.072283313
-0.09904512 0.0442148 -0.075049907
-0.076480165 0.0442148 -0.072331756
-0.0088560358 0.0442148 -0.077744052
0.10722386 0.0442148 -0.076205142
0.12736903 0.0442148 -0.072476976
0.1340058 0.0442148 -0.070543602
0.23063837 0.0442148 -0.075994521
0.24441889 0.0442148 -0.078324057
0.27040219 0.0442148 -0.072286777
0.34521464 0.0442148 -0.07403706
0.36532441 0.0442148 -0.078568645
0.40305695 0.0442148 -0.073464759
0.42081183 0.0442148 -0.075073786
0.43556425 0.0442148 -0.078968123
0.44594172 0.0442148 -0.071899459
-0.364972 -0.018631149 -0.061450683
0.37024415 -0.0087450203 -0.06918709
-0.36223102 0.00036941963 -0.060647763
-0.30238748 0.036056999 -0.061194427
-0.29971635 0.036056999 -0.068845131
-0.28023615 0.036056999 -0.064477339
-0.24757871 0.036056999 -0.067048535
-0.18832426 0.036056999 -0.06014277
-0.1799898 0.036056999 -0.065659508
-0.13823879 0.036056999 -0.063674398
-0.12810045 0.036057003 -0.068990678
-0.11537366 0.036056999 -0.066636622
-0.098987482 0.036056999 -0.062111408
-0.037305355 0.036056999 -0.062834352
-0.026496783 0.036056999 -0.063756078
-0.005061144 0.036056999 -0.069839925
0.17065503 0.036056999 -0.069651723
0.23446509 0.036056999 -0.067926511
0.34519026 0.036056999 -0.061333418
0.4021681 0.036056999 -0.06255132
-0.4615759 0.0442148 -0.066716701
-0.4010154 0.0442148 -0.061194919
-0.15997684 0.0442148 -0.069159329
-0.033774748 0.0442148 -0.067168057
0.066960841 0.0442148 -0.066274561
0.17235526 0.0442148 -0.061369516
0.31475401 0.0442148 -0.06798736
0.32755867 0.0442148 -0.06754265
0.33671704 0.0442148 -0.062594868
0.34864607 0.0442148 -0.065786958
0.38789895 0.0442148 -0.064213797
0.39599052 0.0442148 -0.064732231
-0.35269153 -0.0096263904 -0.056343365
-0.44901514 0.036056999 -0.050644219
-0.37876996 0.036056995 -0.056991987
-0.35276622 0.036056999 -0.05000506
-0.32631803 0.036056999 -0.051470779
-0.23209047 0.036056999 -0.059103213
-0.18221013 0.036056999 -0.052116867
0.0022634622 0.036056999 -0.05725617
0.010335844 0.036056999 -0.053714156
0.033568352 0.036056999 -0.05562149
0.14227864 0.036056999 -0.053806987
0.18005152 0.036056999 -0.054029532
0.21342126 0.036056999 -0.055937476
0.3339166 0.036056999 -0.056081746
0.34806001 0.036056999 -0.058346659
0.46937859 0.036056999 -0.05718581
-0.42759699 0.0442148 -0.053778104
-0.4134981 0.0442148 -0.054751672
-0.36992469 0.0442148 -0.054910958
-0.35629779 0.0442148 -0.050485916
-0.33523545 0.0442148 -0.059277516
-0.30354387 0.0442148 -0.052703898
-0.22886005 0.0442148 -0.058813881
-0.16819853 0.0442148 -0.055779874
-0.1349757 0.0442148 -0.052092358
-0.015348691 0.0442148 -0.055801548
0.095024943 0.0442148 -0.057403136
0.11411586 0.0442148 -0.050536968
0.13683036 0.0442148 -0.054300245
0.14614144 0.0442148 -0.053920668
0.22578549 0.0442148 -0.058356896
0.36105877 -0.0018038121 -0.044016652
-0.46325338 0.036056999 -0.042485353
-0.43184063 0.036056999 -0.043496922
-0.38811117 0.036056999 -0.042473055
-0.3719736 0.036056999 -0.044092916
-0.25712061 0.036056999 -0.043591142
-0.24097642 0.036056999 -0.049886785
-0.15137744 0.036056999 -0.040906787
-0.1398201 0.036056999 -0.041752145
0.028786376 0.036056999 -0.046056382
0.046218082 0.036056999 -0.046302147
0.1036087 0.036056999 -0.045874566
0.14575467 0.036056999 -0.042556103
0.21109061 0.036056999 -0.043444246
0.3000527 0.036056999 -0.047340393
0.32485291 0.036057003 -0.041420273
0.37716869 0.036056999 -0.042879824
0.41123593 0.036056999 -0.049966108
0.43746045 0.036056999 -0.042665374
0.46613032 0.036056999 -0.044500954
-0.37035996 0.04369897 -0.048945919
-0.28211609 0.0442148 -0.049383491
-0.21530207 0.0442148 -0.049416117
-0.17405814 0.0442148 -0.045879457
0.08496815 0.0442148 -0.048515826
0.16668296 0.0442148 -0.04748911
0.17540331 0.0442148 -0.048744179
0.2496058 0.0442148 -0.043663282
0.31821731 0.0442148 -0.044786755
0.33571988 0.0442148 -0.044413202
0.41618586 0.0442148 -0.048789654
0.46018529 0.0442148 -0.041108631
0.35672688 -0.01529091 -0.039935231
0.36089712 -0.0056992848 -0.035182476
-0.46582854 0.036056999 -0.038597696
-0.41710418 0.036056999 -0.038677622
-0.36633787 0.036057003 -0.039055467
-0.35076851 0.036056999 -0.037015084
-0.34330168 0.036056999 -0.032466523
-0.32803634 0.036056999 -0.035582274
-0.29894674 0.036056999 -0.034160167
-0.22164257 0.036056999 -0.035384245
-0.21136481 0.036056999 -0.036929272
-0.19621676 0.036056999 -0.036492951
-0.16056359 0.036056999 -0.030610241
-0.15867141 0.036056999 -0.036238462
-0.029537983 0.036056999 -0.036496371
0.040002592 0.036056999 -0.033703662
0.12952644 0.036056999 -0.035814337
0.28550649 0.036056999 -0.031826213
0.29699731 0.036056999 -0.030580223
0.30601102 0.036056999 -0.035106186
0.34241194 0.036057003 -0.033642955
0.36117738 0.036056999 -0.037940256
0.37448499 0.036056999 -0.039694268
0.44886011 0.036056999 -0.03258818
0.45994619 0.036056999 -0.038514093
0.46364212 0.036056999 -0.037914857
-0.45402449 0.0442148 -0.039958961
-0.4423359 0.0442148 -0.037232779
-0.39649415 0.0442148 -0.038783908
-0.38958433 0.0442148 -0.037037052
-0.33932891 0.0442148 -0.037130348
-0.061805025 0.0442148 -0.036594294
-0.0082061142 0.0442148 -0.031066729
0.055752099 0.0442148 -0.035184592
0.070490591 0.0442148 -0.033092182
0.12089422 0.0442148 -0.039708629
0.23046213 0.0442148 -0.036027446
0.3073017 0.0442148 -0.033378735
0.32000229 0.0442148 -0.038581751
0.33784094 0.0442148 -0.035081647
0.36231413 0.0442148 -0.034640975
0.37759417 0.0442148 -0.034676816
0.44172177 0.0442148 -0.036386881
0.46257019 0.0442148 -0.035601355
0.37015903 -0.011155028 -0.023979483
-0.35427532 0.027627811 -0.020374799
-0.48154163 0.037625048 -0.02422625
-0.42105931 0.036056999 -0.022926528
-0.41254193 0.036056995 -0.020107161
-0.40485117 0.036057003 -0.026676398
-0.38460726 0.036056999 -0.02790793
-0.37035999 0.036613304 -0.029411215
-0.36059725 0.036056999 -0.02307035
-0.34861976 0.036056999 -0.029487688
-0.29317939 0.036056999 -0.026892912
-0.24571431 0.036056999 -0.025904547
-0.21497768 0.036056999 -0.022904839
-0.14001179 0.036056999 -0.023543339
-0.069127887 0.036056999 -0.029565834
-0.05580755 0.036056999 -0.022559127
-0.043646082 0.036057003 -0.023689518
-0.032211944 0.036056995 -0.027288295
0.05003031 0.036056999 -0.027577769
0.08410123 0.036056999 -0.024489034
0.11497215 0.036056999 -0.022961643
0.14267094 0.036056999 -0.02715769
0.20716316 0.036056999 -0.020913567
0.22416398 0.036056999 -0.024632752
0.25173831 0.036056999 -0.027606355
0.28384158 0.036056999 -0.024776213
0.31470749 0.036056999 -0.026312051
0.3298516 0.036056999 -0.028937915
0.44205445 0.036056999 -0.025287453
0.45130062 0.036056999 -0.025788248
-0.47332031 0.0442148 -0.028289646
-0.45993805 0.0442148 -0.027433341
-0.3809022 0.0442148 -0.027047582
-0.34386793 0.0442148 -0.026542211
-0.33631563 0.0442148 -0.024507951
-0.30146077 0.0442148 -0.02201796
-0.26816601 0.0442148 -0.020885725
-0.1290074 0.0442148 -0.025471073
-0.10687381 0.0442148 -0.026466738
-0.059629127 0.0442148 -0.023414541
-0.042626135 0.0442148 -0.026634851
0.01715159 0.0442148 -0.026955564
0.090631723 0.0442148 -0.0234982
0.15908375 0.0442148 -0.025826374
0.29488271 0.0442148 -0.022862278
0.3305549 0.0442148 -0.021523181
0.3481569 0.0442148 -0.025956739
0.38188022 0.0442148 -0.024351485
0.42571282 0.0442148 -0.02197846
0.45715135 0.0442148 -0.024062963
0.46636868 0.0442148 -0.023270216
0.47273302 0.0442148 -0.026437839
0.4819876 0.042798039 -0.020838756
0.37035999 0.0034354827 -0.011196366
-0.37035999 0.026210548 -0.014301862
-0.45772016 0.036056999 -0.015277812
-0.29200959 0.036057003 -0.017763574
-0.23535492 0.036056999 -0.019995362
-0.14066315 0.036056999 -0.011682345
-0.12866901 0.036056999 -0.016484704
-0.071565695 0.036056999 -0.011073755
-0.026724264 0.036056999 -0.013474705
0.018842155 0.036056999 -0.017504681
0.075939119 0.036057003 -0.017463211
0.10589733 0.036056999 -0.015619656
0.17135346 0.036056999 -0.015313184
0.19868225 0.036056999 -0.017898895
0.22787943 0.036056999 -0.014839252
0.33364773 0.036056999 -0.019479543
0.37736446 0.036056999 -0.010906417
0.39680666 0.036056999 -0.014692042
0.40904522 0.036056999 -0.016443133
-0.40002885 0.0442148 -0.014960585
-0.38828957 0.0442148 -0.017138984
-0.36226711 0.0442148 -0.015002504
-0.35642958 0.0442148 -0.019121099
-0.25372094 0.0442148 -0.013136057
-0.24667661 0.0442148 -0.01677053
-0.19241175 0.0442148 -0.019906607
-0.16126063 0.0442148 -0.016683502
-0.15603891 0.0442148 -0.011272676
-0.12870556 0.0442148 -0.011963412
-0.095549598 0.0442148 -0.014910707
-0.05691253 0.0442148 -0.016529188
0.098478936 0.0442148 -0.012074443
0.10220131 0.0442148 -0.012991849
0.18947342 0.0442148 -0.013099125
0.20798382 0.0442148 -0.017270032
0.21514288 0.0442148 -0.011356039
0.28589562 0.0442148 -0.018020377
0.29375178 0.0442148 -0.015924079
0.36835673 0.0442148 -0.016864402
0.45644426 0.0442148 -0.010287305
0.47374463 0.0442148 -0.018046565
0.35626119 -0.014691684 -0.0074826926
0.35437101 0.0023703221 -0.0099381041
-0.37161809 0.036056999 -0.006073093
-0.30996954 0.036056999 -0.0030106818
-0.28215331 0.036056999 -0.0053160139
-0.26519108 0.036056999 -0.0080154603
-0.25375241 0.036056995 -0.0077437162
-0.23579103 0.036056999 -0.0033914344
-0.22747186 0.036056999 -0.001670273
-0.19850016 0.036056999 -0.0017982647
-0.18555924 0.036056999 -0.00016120169
-0.042400904 0.036056999 -0.0081316987
-0.025779374 0.036056999 -0.0043996517
-0.018838339 0.036056999 -0.0091903871
0.00017945468 0.036056999 -0.0086005144
0.089439943 0.036056999 -0.0050620129
0.14283046 0.036056999 -0.0065427935
0.15545364 0.036056999 -0.0065692584
0.18525036 0.036056999 -0.0075598913
0.32927477 0.036056999 -0.0045869481
0.35437101 0.031523012 -0.0058617098
0.37035999 0.034313962 -0.0021866467
0.38192141 0.036056999 -0.0026400313
0.39826947 0.036056999 -0.0091164857
0.4376196 0.036056999 -0.0023709955
0.4580406 0.036056999 -0.0063475026
-0.44295895 0.0442148 -0.0094717443
-0.43137825 0.0442148 -0.0046095168
-0.36063245 0.0442148 -0.0082803732
-0.35981533 0.0442148 -0.0043182001
-0.33337018 0.0442148 -0.0069558066
-0.31692734 0.0442148 -0.0091731055
-0.3021715 0.0442148 -0.0099279284
-0.25809565 0.0442148 -0.0057819393
-0.133148 0.0442148 -0.00452777
-0.10697827 0.0442148 -0.0052712336
-0.096856236 0.0442148 -0.0079034567
0.030383354 0.0442148 -0.0025955969
0.054118216 0.0442148 -0.0051656142
0.20486403 0.0442148 -0.0086295083
0.29379267 0.0442148 -0.0054366551
0.38860446 0.0442148 -0.0024885163
0.39628935 0.0442148 -0.0097295307
0.43425813 0.0442148 -0.0049064141
0.45811042 0.0442148 -0.0076951925
0.4837862 0.042780846 -0.0071765701
0.35681808 -0.015360886 0.0098031145
0.36126679 -0.017476166 0.0013927445
-0.37036002 0.016304377 0.0031832585
0.35437101 0.012970816 0.00710449
0.35437101 0.026129952 0.0015945546
-0.4104535 0.036056999 0.0041879304
-0.37035999 0.03117686 0.0054855524
-0.30660075 0.036056999 0.0056159049
-0.25689369 0.036056999 0.0071793627
-0.1632725 0.036056999 0.0043893987
-0.12444291 0.036056999 0.00060734525
-0.11270019 0.036056999 0.0043534948
-0.10637733 0.036056999 0.0054034581
-0.093674034 0.036056999 0.0042899651
0.016500801 0.036057003 0.0071584973
0.068794362 0.036056999 0.007404875
0.090687335 0.036056999 0.0081563564
0.10433713 0.036056999 0.0095562758
0.11252935 0.036056999 0.0090011954
0.26456332 0.036056999 0.007348652
0.29685849 0.036056999 0.0065429229
0.34704646 0.036056999 0.0095050503
0.3922978 0.036056999 0.0011145622
-0.48200771 0.0442148 0.0026059467
-0.47771874 0.0442148 0.00041343039
-0.40596381 0.0442148 0.00030305982
-0.31073916 0.0442148 0.0057701245
-0.30340996 0.0442148 0.0081781149
-0.28167215 0.0442148 0.0082310997
-0.21764174 0.0442148 0.0058590453
-0.17625093 0.0442148 0.0015146825
-0.02115237 0.0442148 0.0026866605
0.035110354 0.0442148 0.0058664009
0.11913574 0.0442148 0.0062656142
0.17083576 0.0442148 0.0047177915
0.34553009 0.0442148 0.0096654585
0.38970181 0.0442148 0.0015333518
0.39118862 0.0442148 0.0051424298
0.41663197 0.0442148 0.002307795
0.44474518 0.0442148 0.0044339225
0.45598954 0.0442148 0.0087852376
0.46680206 0.0442148 0.0099882148
0.4736253 0.0442148 0.0068253991
-0.36905742 -0.014585987 0.012808761
-0.349803 -0.0045054443 0.01572584
0.37035999 -0.0057519507 0.016363323
0.35437101 0.0044001802 0.01412486
0.37035999 0.006120292 0.014475392
-0.349803 0.01509216 0.01109283
-0.349803 0.020862849 0.010345129
-0.44017184 0.036056999 0.011536401
-0.32604206 0.036056999 0.014249172
-0.21207012 0.036056999 0.016721074
-0.20813546 0.036056999 0.012351241
-0.17711537 0.036056999 0.010414081
-0.071663491 0.036056999 0.015381766
0.053802051 0.036056999 0.014747986
0.066853486 0.036056999 0.015256504
0.11337709 0.036056999 0.013401339
0.13090043 0.036056999 0.018525641
0.22593583 0.036056999 0.011926147
0.29188341 0.036056999 0.013223702
0.31522581 0.036057003 0.012065001
0.33785453 0.036057003 0.013485858
0.35437101 0.033051677 0.013325991
0.37435758 0.036056999 0.014442861
0.46110061 0.036056999 0.012046931
-0.39850369 0.0442148 0.01018874
-0.38608977 0.0442148 0.019691885
-0.35221457 0.0442148 0.013034996
-0.26989093 0.0442148 0.011714302
-0.17272827 0.0442148 0.01082075
-0.16516007 0.0442148 0.019966803
-0.14987628 0.0442148 0.014580837
-0.094826981 0.0442148 0.010487989
-0.07707531 0.0442148 0.012614742
-0.0093313158 0.0442148 0.013120398
0.0020581456 0.0442148 0.015991407
0.021205615 0.0442148 0.015894573
0.23854007 0.0442148 0.013662782
0.37942275 0.0442148 0.016287601
0.36548409 -0.016913723 0.027395662
-0.35709161 -0.0050568753 0.02625059
0.36585718 -0.0096263904 0.024235761
0.36899537 0.014318138 0.022515399
0.35537726 0.022062814 0.022515399
-0.40641624 0.036056999 0.024831403
-0.3618499 0.033898912 0.020883899
-0.25274083 0.036056999 0.023925245
-0.23671547 0.036056999 0.027711786
-0.15462941 0.036056999 0.02678385
-0.139605 0.036056999 0.029775139
-0.025086053 0.036056999 0.022828868
-0.015045866 0.036056999 0.025466006
0.015055522 0.036056999 0.02594216
0.032750085 0.036056999 0.029497733
0.10498188 0.036056999 0.021826953
0.22660625 0.036056999 0.029166296
0.23531088 0.036056999 0.025337769
0.27265185 0.036056999 0.028248336
0.30429727 0.036057003 0.028173363
0.31808645 0.036056999 0.021006109
0.32640457 0.036056999 0.021415465
-0.4205592 0.0442148 0.025403535
-0.38587576 0.0442148 0.023892947
-0.36673728 0.0442148 0.027903177
-0.33179805 0.0442148 0.021974493
-0.29039669 0.0442148 0.020350233
-0.23571122 0.0442148 0.026912803
-0.1005732 0.0442148 0.028560005
-0.00911 0.0442148 0.029268317
0.13492402 0.0442148 0.023194641
0.16955885 0.0442148 0.020005202
0.18570718 0.0442148 0.024155246
0.27132785 0.0442148 0.026612662
0.33331895 0.0442148 0.022929128
0.36840147 0.0442148 0.026584923
0.42727047 0.0442148 0.023996683
0.45433825 0.0442148 0.02455245
-0.36274552 -0.019553445 0.03616856
0.35901877 -0.016819423 0.03467717
0.36570933 -0.0096263904 0.030706529
-0.45616052 0.036056999 0.033983871
-0.42621043 0.036056999 0.033273421
-0.37035999 0.036971644 0.031041296
-0.30828246 0.036056999 0.03307607
-0.19035298 0.036056999 0.039324228
-0.17395149 0.036056999 0.03599317
-0.059739247 0.036056999 0.03987347
-0.045578945 0.036056999 0.031501293
0.051932313 0.036056999 0.036377039
0.10780233 0.036056999 0.037446074
0.13406044 0.036056999 0.032247253
0.17852972 0.036056999 0.036030319
0.19518855 0.036056999 0.037473418
0.20084241 0.036056999 0.03031126
0.22711681 0.036056999 0.036584176
0.24538383 0.036056999 0.036324687
0.39336753 0.036056999 0.033787552
-0.47385186 0.0442148 0.036468334
-0.43078321 0.0442148 0.034634195
-0.42730376 0.0442148 0.038014762
-0.40887874 0.0442148 0.035132695
-0.33491409 0.0442148 0.031051412
-0.29382336 0.0442148 0.039414853
-0.23071495 0.0442148 0.034948498
-0.22051081 0.0442148 0.035822421
-0.10947055 0.0442148 0.030698108
-0.074501887 0.0442148 0.032280989
-0.012668177 0.0442148 0.030622052
0.058891758 0.0442148 0.033827253
0.17167623 0.0442148 0.036642708
0.23068157 0.0442148 0.033150092
0.25344265 0.0442148 0.032156937
0.36848116 0.0442148 0.039615452
0.41436151 0.0442148 0.030435335
-0.4364104 0.036056999 0.044166133
-0.3386462 0.036056999 0.045749057
-0.24613574 0.036056999 0.047211759
-0.1905432 0.036056999 0.045738868
-0.10434823 0.036056999 0.040004183
-0.033780351 0.036056999 0.04302115
0.22263235 0.036056999 0.04697711
0.2828007 0.036056999 0.049171336
0.34016937 0.036056999 0.048764993
0.43962663 0.036056999 0.046765286
-0.47342092 0.043546431 0.047497667
-0.46668464 0.0442148 0.046592604
-0.41466379 0.0442148 0.048645712
-0.35473377 0.0442148 0.04516878
-0.33433315 0.0442148 0.047534671
-0.26058188 0.0442148 0.042066574
-0.16814244 0.0442148 0.041697748
-0.060407769 0.0442148 0.042390466
-0.046857268 0.0442148 0.04631741
0.056455277 0.0442148 0.043273345
0.063966453 0.0442148 0.041067161
0.082350284 0.0442148 0.043922774
0.21243472 0.0442148 0.04942473
0.26880684 0.0442148 0.042685293
0.31898034 0.0442148 0.040843595
0.37035999 0.040396284 0.048659306
-0.36763236 -0.0027263635 0.059153184
-0.43556526 0.036056999 0.059586309
-0.40566784 0.036056999 0.055836029
-0.32150814 0.036056999 0.05909647
-0.30658072 0.036056999 0.054702222
-0.29844069 0.036056995 0.056037992
-0.26864794 0.036056999 0.056272279
-0.16021913 0.036056999 0.052540522
-0.12841007 0.036056999 0.052125484
-0.070303842 0.036056999 0.057643533
0.0079439357 0.036056999 0.055172607
0.042637773 0.036056995 0.057458475
0.083807476 0.036056999 0.056410264
0.25567773 0.036056999 0.057260461
0.36722314 0.036056999 0.057413727
0.38310754 0.036056999 0.053993393
0.40450513 0.036056999 0.050985396
-0.37101567 0.042700268 0.055564247
-0.35423669 0.0442148 0.054094035
-0.3181487 0.0442148 0.052037127
-0.27100065 0.0442148 0.055211753
-0.25906742 0.0442148 0.054406285
-0.14202958 0.0442148 0.050597377
-0.10397466 0.0442148 0.055722035
-0.021441787 0.0442148 0.059494603
-0.0030840337 0.0442148 0.056378487
0.0027759299 0.0442148 0.050524119
0.13339624 0.0442148 0.055851955
0.14671849 0.0442148 0.05188784
0.20389178 0.0442148 0.057408124
0.25283834 0.0442148 0.058715444
0.28469533 0.0442148 0.053167157
0.29618654 0.0442148 0.056564722
0.37035999 0.04373255 0.052257352
0.39317042 0.0442148 0.056109946
0.42756021 0.0442148 0.054588892
0.43746358 0.0442148 0.058517642
0.46343249 0.0442148 0.059844937
0.35512576 -0.0063922154 0.068188563
0.37026125 -0.0088751083 0.064276382
-0.3579492 0.00037165888 0.066950604
-0.46103096 0.037790593 0.068103053
-0.45673007 0.036056999 0.063843742
-0.40826535 0.036056999 0.065091439
-0.072833136 0.036056999 0.064693861
-0.016278878 0.036056999 0.063816063
0.30189019 0.036056999 0.06252183
0.33961198 0.036056999 0.063799173
0.36882448 0.036056999 0.062128343
0.3822073 0.036056999 0.068231583
-0.38458237 0.0442148 0.062926337
-0.32297409 0.0442148 0.06923829
-0.3068001 0.0442148 0.060393013
-0.17655328 0.0442148 0.06357646
-0.14288011 0.0442148 0.065127283
-0.07434734 0.0442148 0.065584689
-0.062830038 0.0442148 0.064914428
0.020317815 0.0442148 0.065651819
0.22282997 0.0442148 0.062489565
0.23424667 0.0442148 0.066972509
0.25260317 0.0442148 0.063348666
0.28653312 0.0442148 0.069653854
0.30284783 0.0442148 0.064744316
0.37288535 0.0442148 0.060617615
-0.36353233 -0.019227514 0.077853732
-0.35993671 0.00063339819 0.073089279
-0.42591757 0.036056999 0.071491614
-0.37035999 0.037538588 0.074706122
-0.24575564 0.036056999 0.076687858
-0.11759274 0.036056999 0.071780175
-0.037207574 0.036056999 0.079526402
0.10752074 0.036056999 0.072635129
0.11330792 0.036056999 0.07145644
0.12056138 0.036056999 0.074225709
0.14244619 0.036056999 0.071112879
0.18977241 0.036056999 0.073251359
0.28246698 0.036056999 0.075720787
0.3471365 0.036056999 0.074101008
0.3716701 0.036056999 0.076121934
-0.41850221 0.0442148 0.076857403
-0.40898022 0.0442148 0.071354859
-0.3765437 0.0442148 0.074616566
-0.36987382 0.0442148 0.070985354
-0.29266971 0.0442148 0.075969271
-0.18440482 0.0442148 0.070098937
-0.17634565 0.0442148 0.078464925
-0.13912728 0.0442148 0.077260002
-0.034646146 0.0442148 0.071526863
-0.011747658 0.0442148 0.074646346
-0.0057240725 0.0442148 0.079724506
0.017471083 0.0442148 0.074844293
0.18020418 0.0442148 0.076951049
0.21504903 0.0442148 0.074138373
0.22107431 0.0442148 0.078493908
0.23715279 0.0442148 0.07929083
0.26820531 0.0442148 0.07571739
0.33665311 0.0442148 0.070820108
0.43101582 0.0442148 0.078806192
-0.37286958 -0.041447159 0.082478344
-0.37114125 -0.035213906 0.081250802
-0.36045095 -0.039334744 0.081250802
-0.33654645 -0.016674245 0.081250802
0.36127609 -0.018428672 0.085461006
0.37571684 -0.018522911 0.081250802
-0.37121221 -0.0072126873 0.081250802
-0.35420781 -0.0012880776 0.083795264
0.37250412 -0.0054438561 0.081250802
0.38485032 -0.0032205188 0.082457229
-0.3849223 0.0042489422 0.081250802
-0.36287689 0.0017860747 0.081250802
-0.33818498 0.0019301962 0.081250802
-0.41461551 0.036056999 0.088376194
-0.35539535 0.036056999 0.083666332
-0.30040869 0.036056999 0.086849511
-0.27131444 0.036056999 0.086585246
-0.26810887 0.036056999 0.086820148
-0.15076086 0.036056999 0.089622416
-0.13401517 0.036056999 0.084914729
0.014523368 0.036056999 0.080800503
0.042988334 0.036056999 0.08357802
0.093208313 0.036056999 0.089472249
0.39150473 0.036056999 0.084172875
-0.43915001 0.0442148 0.082050741
-0.36328495 0.0442148 0.087464832
-0.32014778 0.0442148 0.082640693
-0.31136236 0.0442148 0.085800581
-0.2724261 0.0442148 0.083991595
-0.26383764 0.0442148 0.081976905
-0.24469796 0.0442148 0.08140111
-0.18292999 0.0442148 0.08023829
-0.098843314 0.0442148 0.083700664
-0.055004373 0.0442148 0.088864937
-0.024549201 0.0442148 0.08852765
-0.012471408 0.0442148 0.082856357
0.1192122 0.0442148 0.088922858
0.15777601 0.0442148 0.085004836
0.17698593 0.0442148 0.088346839
0.20544183 0.0442148 0.082694918
0.280927 0.0442148 0.081272095
0.36887786 0.0442148 0.084750764
-0.33630097 -0.034603756 0.093231715
-0.32555109 -0.010067708 0.092308529
-0.41160864 0.036056999 0.098321728
-0.40092468 0.036056999 0.090025775
-0.35487518 0.036056999 0.099800833
-0.25762859 0.036056999 0.093989804
-0.23706645 0.036056999 0.095059127
-0.19088395 0.036056999 0.099618174
-0.18350866 0.036056999 0.091662124
-0.1564137 0.036056999 0.097432993
-0.080958396 0.036057003 0.090075672
-0.052397668 0.036056999 0.097308077
0.054568026 0.036056999 0.096952185
0.068478256 0.036056999 0.098705314
0.12793286 0.036056999 0.096298188
0.13857257 0.036056999 0.0953881
0.14476132 0.036056999 0.096461765
0.19422245 0.036056999 0.096468061
0.24006015 0.036056999 0.092044421
0.35677412 0.036056999 0.097169526
0.40527979 0.036057003 0.090644099
0.42892212 0.036056999 0.096285015
-0.40424955 0.0442148 0.098916516
-0.39197904 0.0442148 0.090944342
-0.35134241 0.0442148 0.096843719
-0.21302475 0.0442148 0.093715385
-0.17129175 0.0442148 0.099764548
-0.16562149 0.0442148 0.093726881
-0.10399901 0.0442148 0.091417685
-0.066175252 0.0442148 0.095282182
0.053038523 0.0442148 0.099079639
0.076909587 0.0442148 0.094518155
0.11584092 0.0442148 0.097437933
0.12838145 0.0442148 0.092649803
0.13541675 0.0442148 0.093845636
0.16858996 0.0442148 0.090209261
0.20354132 0.0442148 0.092571944
0.23300007 0.0442148 0.098493822
0.29261318 0.0442148 0.098703735
0.35585245 0.0442148 0.090830579
0.37035999 0.041215084 0.098166853
-0.367726 -0.043208294 0.10394716
-0.36514211 -0.036542267 0.107355
-0.37002677 -0.020487789 0.107355
-0.37883145 -0.018976858 0.107355
-0.36881799 -0.01498072 0.1026627
-0.39444551 -0.0079216948 0.10238588
-0.33311841 -0.0017346502 0.107355
-0.37063056 0.0093180425 0.107355
-0.32832706 0.0033232807 0.10338125
0.37713659 0.0083846264 0.10116633
-0.38264167 0.015707493 0.10518979
-0.35619214 0.015880177 0.107355
-0.34031555 0.018032014 0.10671036
-0.32467365 0.036056999 0.10850764
-0.27090707 0.036056999 0.10241721
-0.24038056 0.036056999 0.10908014
-0.18364921 0.036056999 0.10741881
-0.15723479 0.036056999 0.10699321
-0.034696311 0.036056999 0.10370302
-0.0053278655 0.036056999 0.10325591
0.012405992 0.036056999 0.10373461
0.036060899 0.036056999 0.10338405
0.056522571 0.036056999 0.10074607
0.078505352 0.036056999 0.10403779
0.15738901 0.036056999 0.10145888
0.36962643 0.036056999 0.10144549
0.38743553 0.036056999 0.10201385
-0.40741974 0.0442148 0.1049537
-0.38306963 0.0442148 0.1074471
-0.37114039 0.042313665 0.10375292
-0.34473246 0.0442148 0.10722713
-0.3337554 0.0442148 0.10605802
-0.22413708 0.0442148 0.10830613
-0.13630047 0.0442148 0.10212916
-0.072243944 0.0442148 0.10014436
-0.050289512 0.0442148 0.10610101
0.0094443858 0.0442148 0.10857911
0.10243957 0.0442148 0.10232966
0.24048921 0.0442148 0.1007947
0.275096 0.0442148 0.10069688
0.38366264 0.0442148 0.10539462
0.40936404 0.0442148 0.10643861
-0.30095515 0.038005285 0.114371
-0.20878215 0.039006773 0.114371
-0.18722574 0.036056999 0.11184965
-0.16137339 0.036763787 0.11274355
-0.08588931 0.036056995 0.11259145
0.19950718 0.038383681 0.114371
0.23853974 0.036056999 0.11108463
0.2646513 0.039000381 0.114371
0.29794312 0.036056999 0.1141333
-0.33112156 0.043545403 0.114371
-0.30587539 0.0442148 0.11366361
-0.246132 0.043778669 0.114371
-0.22259581 0.040939096 0.114371
-0.2043651 0.0442148 0.11399279
-0.19670971 0.041487955 0.114371
-0.072140068 0.0442148 0.1118859
-0.029051498 0.0442148 0.11011085
0.068664491 0.0442148 0.1132991
0.10862316 0.041793305 0.114371
0.12727681 0.0442148 0.11158532
0.16686782 0.0442148 0.11181076
0.26246282 0.040618613 0.114371
0.2799823 0.0442148 0.11380555
0.29758838 0.04173208 0.114371
0.30135968 0.040645763 0.114371
0.3244915 0.04128968 0.114371
0.3773154 0.041303746 0.11345531
0.39028981 0.042790722 0.11174722
