# .PCD v0.7 - Point Cloud Data file format
VERSION 0.7
FIELDS x y z
SIZE 4 4 4
TYPE F F F
COUNT 1 1 1
WIDTH 891
HEIGHT 1
VIEWPOINT 0 0 0 1 0 0 0
POINTS 891
DATA ascii
-0.37593952 -0.027138097 -0.12187705
-0.259307 -0.031608701 -0.1156964
-0.3936871 -0.022478025 -0.11887431
-0.37311202 -0.029111447 -0.11879355
-0.26651108 -0.023943948 -0.11843787
-0.25813568 -0.026913455 -0.11817466
-0.2476483 -0.025011627 -0.11784509
-0.33812261 -0.0130294 -0.11454308
-0.30128175 -0.016501812 -0.1195306
-0.29974955 -0.0130294 -0.11907919
-0.28990918 -0.0130294 -0.11503385
-0.26029596 -0.015549416 -0.11824256
-0.21081069 -0.0130294 -0.11080443
-0.13536821 -0.0130294 -0.11387002
-0.11943431 -0.019093763 -0.11381578
-0.082955852 -0.015703905 -0.11259975
-0.06461066 -0.016935978 -0.11209287
-0.050098792 -0.013103025 -0.11163682
-0.4042792 -0.0035046688 -0.11743193
-0.21497676 -0.031608701 -0.10167035
-0.1508352 -0.031608701 -0.10291108
-0.1494865 -0.031608701 -0.10369992
-0.051369287 -0.031608701 -0.10827463
-0.026454538 -0.031608701 -0.10925292
-0.014808968 -0.031608701 -0.10661957
0.01522126 -0.031608701 -0.10747166
0.094718985 -0.031608701 -0.10291691
0.14428055 -0.031608701 -0.10179039
0.19384195 -0.031608701 -0.10233476
0.22258174 -0.031608701 -0.1012595
-0.37975872 -0.027134869 -0.10665499
0.15476136 -0.026459519 -0.1051988
0.16607091 -0.028978024 -0.10484338
0.19222817 -0.020357069 -0.10402136
0.23749164 -0.028197007 -0.10259889
0.28600863 -0.024842408 -0.10107417
0.31855395 -0.028621141 -0.10005139
-0.40619931 -0.017049912 -0.10998535
-0.33124158 -0.0130294 -0.10387255
-0.20397219 -0.013029401 -0.1047285
-0.19725774 -0.0130294 -0.10049631
-0.071713224 -0.0130294 -0.1046056
-0.045381248 -0.0130294 -0.10288381
0.014461026 -0.0130294 -0.10513321
0.085877486 -0.019469583 -0.10736357
0.12596194 -0.016447924 -0.10610387
0.13051155 -0.013991944 -0.10596089
0.17529987 -0.017234858 -0.10455335
0.26046741 -0.017549956 -0.10187684
-0.43261254 -0.0053698863 -0.10706756
-0.42049676 0.0077914768 -0.10402149
-0.43074378 0.011071555 -0.10349228
-0.3754195 -0.030890366 -0.096887693
-0.23799421 -0.031608701 -0.093803301
-0.10235907 -0.031608701 -0.090573624
-0.061999582 -0.031608701 -0.093955353
0.0443714 -0.031608701 -0.093851857
0.13098596 -0.031608701 -0.099990159
0.15572697 -0.031608701 -0.092602365
0.24475989 -0.031608701 -0.097288728
0.26972303 -0.031608701 -0.095574394
0.35620454 -0.031608701 -0.094888046
0.37330216 -0.031025013 -0.098330855
-0.378295 -0.023031259 -0.095232308
0.32692564 -0.025956802 -0.099788301
0.35586399 -0.026379989 -0.098878875
0.37973943 -0.023694279 -0.092089914
0.38540339 -0.022815105 -0.097813748
-0.37570903 -0.012144093 -0.09963838
-0.29107562 -0.0130294 -0.096635886
-0.26445931 -0.0130294 -0.091406643
-0.22936799 -0.0130294 -0.092564821
-0.10217378 -0.0130294 -0.095333949
0.00084482133 -0.0130294 -0.090603441
0.076652393 -0.0130294 -0.097074598
0.099945009 -0.0130294 -0.094510272
0.10562003 -0.013029401 -0.09515889
0.12396561 -0.0130294 -0.097452231
0.16244254 -0.0130294 -0.098703824
0.18158615 -0.0130294 -0.093260445
0.23880081 -0.0130294 -0.094614282
0.3336103 -0.0130294 -0.094379403
0.35782564 -0.016706202 -0.098817229
0.37567711 -0.013900305 -0.094588086
0.39586529 -0.011954621 -0.09563721
-0.40003791 -0.0014269017 -0.094007239
-0.38403985 -0.0085253948 -0.09403947
0.39532566 -0.0075996709 -0.095485725
-0.42893043 0.011457398 -0.098524421
-0.28353277 -0.031608701 -0.082192764
-0.27954859 -0.031608701 -0.081496201
-0.22233807 -0.031608701 -0.085093819
-0.2159352 -0.031608701 -0.080859117
-0.15803982 -0.031608701 -0.087761432
-0.14883034 -0.031608701 -0.089140482
-0.096093409 -0.031608701 -0.084820181
-0.07161878 -0.031608701 -0.081287071
0.0090714619 -0.031608701 -0.083059914
0.018273067 -0.031608701 -0.082366154
0.051464655 -0.031608701 -0.088518202
0.10269685 -0.031608701 -0.084461264
0.16410334 -0.031608701 -0.0827135
0.17194088 -0.031608701 -0.083521746
0.18226135 -0.031608701 -0.085198194
0.19469722 -0.031608701 -0.089068428
0.24279994 -0.031608701 -0.086836398
0.26463231 -0.031608701 -0.087504588
0.27360708 -0.031608701 -0.081515148
0.38751137 -0.028037172 -0.083257273
-0.40472746 -0.018012237 -0.08779867
-0.37436572 -0.012985544 -0.082045659
-0.36692193 -0.0130294 -0.085122295
-0.34814283 -0.0130294 -0.088366829
-0.26854175 -0.0130294 -0.083184794
-0.25251713 -0.0130294 -0.088029526
-0.23293099 -0.0130294 -0.087886252
-0.12885132 -0.0130294 -0.084906347
-0.1130926 -0.0130294 -0.088727057
0.055010512 -0.0130294 -0.08314953
0.081790589 -0.0130294 -0.083794534
0.099728324 -0.0130294 -0.086982056
0.26649627 -0.0130294 -0.084434576
0.27461535 -0.0130294 -0.083516166
0.28947017 -0.0130294 -0.085176736
0.34993353 -0.0130294 -0.087061502
0.36596942 -0.0130294 -0.081533022
0.3795864 -0.013013522 -0.086082757
0.41990906 -0.013678911 -0.084545881
0.42793787 0.0081888763 -0.082736097
-0.37653542 -0.030667607 -0.077355869
-0.35256699 -0.031608701 -0.071399644
-0.327016 -0.031608701 -0.07117226
-0.24609509 -0.031608701 -0.072411492
-0.21490213 -0.031608701 -0.074947014
-0.20705919 -0.031608701 -0.074502066
-0.19621009 -0.031608701 -0.072302878
-0.010075067 -0.031608701 -0.072277449
0.006822967 -0.031608701 -0.075638525
0.040188298 -0.031608701 -0.07646516
0.22102565 -0.031608701 -0.077062882
0.33068094 -0.031608701 -0.076884583
0.36118144 -0.031608701 -0.074571811
-0.41036841 -0.015728034 -0.072112024
-0.40308118 -0.018972542 -0.071333952
-0.37311602 -0.0130294 -0.078405969
-0.29045758 -0.0130294 -0.078678355
-0.16899487 -0.0130294 -0.079796977
-0.14748839 -0.0130294 -0.071951017
-0.055022359 -0.0130294 -0.077165708
0.018387634 -0.0130294 -0.078437835
0.052390434 -0.0130294 -0.071851626
0.074093029 -0.0130294 -0.07087861
0.092254564 -0.0130294 -0.079460897
0.15129158 -0.0130294 -0.079296842
0.18064447 -0.0130294 -0.07360962
0.23024872 -0.0130294 -0.079527691
0.31674063 -0.0130294 -0.071425833
0.38183773 -0.011863617 -0.075269982
0.41136873 -0.017365895 -0.077185571
0.4255369 -0.010990813 -0.070854314
0.44136253 0.0066590621 -0.073921822
-0.37255889 -0.031608701 -0.065574847
-0.30230004 -0.031608701 -0.061710808
-0.28509703 -0.031608701 -0.060411982
-0.07380861 -0.031608701 -0.065659754
0.030248668 -0.031608701 -0.067592859
0.067779444 -0.031608701 -0.063147701
0.084915772 -0.031608701 -0.06552539
0.11114112 -0.031608701 -0.063104331
0.13417816 -0.031608701 -0.062794246
0.17783386 -0.031608701 -0.060848676
0.19097456 -0.031608701 -0.061755929
0.21587987 -0.031608701 -0.069791853
0.32709971 -0.031608701 -0.066712864
0.37164986 -0.031608701 -0.067926683
-0.37494665 -0.019456711 -0.060416345
-0.27324766 -0.0130294 -0.063477978
-0.24305943 -0.0130294 -0.060220696
-0.19526672 -0.0130294 -0.067421637
-0.17657718 -0.0130294 -0.066532411
-0.074437648 -0.0130294 -0.066482112
-0.055713952 -0.0130294 -0.065979324
0.065663353 -0.0130294 -0.069557175
0.098593459 -0.0130294 -0.061839961
0.13427892 -0.0130294 -0.068669334
0.15524675 -0.0130294 -0.064041153
0.29497707 -0.0130294 -0.061413534
0.41423362 -0.015857887 -0.060205825
-0.44328594 -0.0012301939 -0.064284883
-0.43984771 -0.0028081781 -0.060528241
-0.39982569 -0.001886833 -0.067763418
0.44566911 -0.0019171264 -0.060787655
0.44197202 0.015003135 -0.06221763
-0.31907612 -0.031608701 -0.059165135
-0.30228627 -0.031608701 -0.0551854
-0.27873421 -0.031608701 -0.052973144
-0.091697447 -0.031608701 -0.051510293
-0.010961596 -0.031608701 -0.052804049
0.010517003 -0.031608701 -0.057801299
0.1211818 -0.031608701 -0.055191673
0.14071573 -0.031608701 -0.054197885
0.18285854 -0.031608701 -0.05008715
0.24804287 -0.031608701 -0.05652919
0.26133636 -0.031608701 -0.053537492
0.28118277 -0.031608701 -0.056760006
0.31289506 -0.031608701 -0.055985242
0.34065309 -0.031608701 -0.057469122
0.36560944 -0.031608701 -0.055413343
-0.39932343 -0.020896461 -0.052941963
-0.38859063 -0.025628958 -0.055096231
-0.3750968 -0.029844422 -0.055640869
0.39259642 -0.025405247 -0.05633036
-0.4034268 -0.019071573 -0.053235289
-0.37314838 -0.0130294 -0.052361831
-0.27897581 -0.0130294 -0.055299662
-0.26516753 -0.0130294 -0.056150749
-0.21716319 -0.0130294 -0.050429504
-0.20794764 -0.0130294 -0.055314958
-0.14770356 -0.0130294 -0.056467533
-0.11610591 -0.0130294 -0.053727843
-0.092934445 -0.0130294 -0.057470396
-0.069487184 -0.0130294 -0.058786102
-0.050620686 -0.0130294 -0.052728072
-0.040080793 -0.0130294 -0.050590489
-0.023869665 -0.0130294 -0.053294774
0.011234889 -0.0130294 -0.05000899
0.081838235 -0.0130294 -0.05921302
0.25425249 -0.0130294 -0.056631155
0.30794907 -0.0130294 -0.059210747
0.42480806 -0.011087891 -0.05463491
-0.41026044 0.0026342552 -0.059928168
-0.40836734 0.0017879615 -0.059476294
0.41734135 0.0042244187 -0.051341683
-0.47334111 0.011982835 -0.055450585
-0.42972448 0.011149134 -0.051186938
-0.451556 0.020858087 -0.052732129
-0.37527913 -0.030630659 -0.049840052
-0.33458874 -0.031608701 -0.046994366
-0.24922056 -0.031608701 -0.046193887
-0.21776927 -0.031608701 -0.047587346
-0.12000634 -0.031608701 -0.042371973
0.002167654 -0.031608701 -0.049227282
0.019340042 -0.031608701 -0.042666718
0.038937435 -0.031608701 -0.049504843
0.079790868 -0.031608701 -0.040353894
0.1662547 -0.031608701 -0.04392194
0.19358411 -0.031608701 -0.043607831
0.21873318 -0.031608701 -0.044277169
0.22984332 -0.031608701 -0.046024129
0.33610493 -0.031608701 -0.044710644
0.3424004 -0.031608701 -0.040147141
0.3596884 -0.031608701 -0.044624969
0.37143055 -0.031608701 -0.043239355
-0.38304016 -0.028258793 -0.043127205
0.37821129 -0.022640638 -0.043464541
0.39273825 -0.025143072 -0.042038351
-0.37541047 -0.017285643 -0.045656901
-0.25670603 -0.0130294 -0.040838894
-0.19637841 -0.0130294 -0.042998604
-0.10081893 -0.0130294 -0.049266256
-0.066862658 -0.0130294 -0.044733129
-0.03341946 -0.0130294 -0.046972826
-0.0047132336 -0.0130294 -0.048712187
0.032157134 -0.0130294 -0.049448472
0.062080733 -0.0130294 -0.044140138
0.10834633 -0.0130294 -0.042624466
0.19232728 -0.0130294 -0.046978094
0.26586765 -0.0130294 -0.047008023
0.29475552 -0.013029399 -0.04433395
0.31778309 -0.0130294 -0.048685879
0.34396821 -0.0130294 -0.048840724
0.37814337 -0.017124863 -0.04130318
0.38331833 -0.010794492 -0.045723438
-0.40277016 -0.00087351538 -0.04673519
-0.42448878 0.0087173386 -0.04339312
-0.44360349 0.017207623 -0.044001747
-0.30024043 -0.031608701 -0.031160649
-0.28479892 -0.031608701 -0.030328654
-0.26094872 -0.031608701 -0.035467587
-0.20988682 -0.031608701 -0.030306298
-0.14554308 -0.031608701 -0.033980083
-0.12020499 -0.031608701 -0.03435988
-0.11688721 -0.031608701 -0.032915372
-0.012583977 -0.031608701 -0.031908751
0.054523926 -0.031608701 -0.035058856
0.1089149 -0.031608701 -0.034763105
0.17609921 -0.031608701 -0.036129203
0.21277526 -0.031608701 -0.037560258
0.27004692 -0.031608701 -0.039433431
0.28372267 -0.031608701 -0.033793628
0.30436832 -0.031608701 -0.038209662
0.31302065 -0.031608701 -0.039462645
0.36683968 -0.031608701 -0.036064632
-0.39415872 -0.023461882 -0.033319827
0.38200969 -0.022515219 -0.030262697
-0.37757361 -0.017151542 -0.035086531
-0.35195768 -0.0130294 -0.032169882
-0.25681984 -0.0130294 -0.034193203
-0.22321081 -0.0130294 -0.037312113
-0.2041941 -0.0130294 -0.035566587
-0.14134903 -0.0130294 -0.035593007
-0.05555062 -0.0130294 -0.033080067
0.00092589483 -0.0130294 -0.034767479
0.047104754 -0.0130294 -0.031927053
0.1477055 -0.0130294 -0.03134308
0.28730211 -0.0130294 -0.035589114
0.33469337 -0.0130294 -0.030852785
0.43792564 -0.0049999291 -0.035479061
-0.46619219 0.0085426979 -0.036202464
-0.45361704 0.0029440736 -0.034872405
0.41977698 0.0055821654 -0.031490639
-0.43594635 0.013722986 -0.037773602
0.44045687 0.01472949 -0.033583164
0.45008087 0.019032935 -0.031237472
-0.37875116 -0.030481301 -0.020215141
-0.33329299 -0.031608701 -0.029283904
-0.3089318 -0.031608701 -0.020919422
-0.28620711 -0.031608701 -0.02536425
-0.26508504 -0.031608701 -0.020887762
-0.12729137 -0.031608701 -0.029023835
-0.10127097 -0.031608701 -0.023367632
-0.069903418 -0.031608701 -0.025650743
-0.051200617 -0.031608701 -0.028080359
-0.010398548 -0.031608701 -0.025658647
0.031331539 -0.031608701 -0.022038665
0.21181574 -0.031608701 -0.024269724
0.32378834 -0.031608701 -0.029110543
0.36566412 -0.031608701 -0.021911349
-0.38497865 -0.027596207 -0.028956203
-0.37503454 -0.015680859 -0.025987729
-0.34086215 -0.0130294 -0.02723355
-0.33707419 -0.0130294 -0.028029844
-0.2994791 -0.0130294 -0.020568289
-0.27778 -0.0130294 -0.029809417
-0.11047982 -0.0130294 -0.029583231
-0.01671356 -0.0130294 -0.022337027
-0.0047826469 -0.0130294 -0.020711677
0.0065966547 -0.0130294 -0.028788529
0.088013522 -0.0130294 -0.020447928
0.091306567 -0.0130294 -0.028278667
0.13485742 -0.0130294 -0.027307255
0.21862043 -0.0130294 -0.022423774
0.25607935 -0.0130294 -0.025828071
0.27753773 -0.0130294 -0.025361314
0.31160039 -0.0130294 -0.027182192
0.35655442 -0.0130294 -0.028294772
0.37719432 -0.0130294 -0.029158277
0.4111791 -0.016748108 -0.02683148
-0.44607282 -0.00054765679 -0.024557296
0.4468466 -0.00085787696 -0.02232556
-0.42617443 0.009238556 -0.027113397
0.42222366 0.0067416467 -0.026200272
0.46487695 0.0070782071 -0.026991554
-0.48028171 0.014695542 -0.029090393
-0.47252837 0.011150894 -0.021611702
-0.44025201 0.015495091 -0.02783546
-0.43970317 0.015171723 -0.022103118
0.47569767 0.011935385 -0.022997526
-0.33219361 -0.031608701 -0.017037915
-0.31237751 -0.031608701 -0.01582214
-0.27766871 -0.031608701 -0.018238505
-0.19263297 -0.031608701 -0.013428017
-0.16504401 -0.031608701 -0.010314237
-0.076597795 -0.031608701 -0.015694894
-0.064023092 -0.031608701 -0.011927664
0.11163175 -0.031608701 -0.016180728
0.14758156 -0.031608701 -0.01865487
0.18989828 -0.031608701 -0.016301483
0.26338053 -0.031608701 -0.01901111
0.27092844 -0.031608701 -0.01232313
0.28698888 -0.031608701 -0.01673276
0.30392885 -0.031608701 -0.014852234
0.32431394 -0.031608701 -0.012900159
0.37754211 -0.031491261 -0.013748987
-0.39101511 -0.025071589 -0.017919321
-0.3583307 -0.0130294 -0.010270871
-0.34271157 -0.0130294 -0.012263022
-0.33408284 -0.0130294 -0.019182691
-0.23712532 -0.0130294 -0.012748854
-0.19829692 -0.0130294 -0.011041416
-0.15304516 -0.0130294 -0.018960828
-0.1363104 -0.0130294 -0.01464125
-0.092817836 -0.0130294 -0.017313715
-0.063412271 -0.0130294 -0.014486663
0.043047607 -0.0130294 -0.013231697
0.058538474 -0.0130294 -0.011170169
0.084567055 -0.0130294 -0.018057548
0.094617054 -0.0130294 -0.016906697
0.13129072 -0.0130294 -0.015119281
0.20945069 -0.0130294 -0.016073132
0.24516898 -0.0130294 -0.011880472
0.31059584 -0.0130294 -0.019839736
0.34288517 -0.0130294 -0.015108597
0.36360231 -0.0130294 -0.016290093
-0.44102195 -0.0029675984 -0.01177218
-0.45143861 0.0016560834 -0.011853041
-0.41702226 0.0049400069 -0.010106394
-0.40987387 0.0018779784 -0.018002989
0.41678581 0.0044799391 -0.015364712
-0.48266819 0.017691474 -0.017886488
0.43974739 0.014700556 -0.01308012
0.45403725 0.02102204 -0.014480094
-0.35199896 -0.031608701 -0.00082858745
-0.29537401 -0.031608701 -0.0020303745
-0.25507453 -0.031608701 -0.0034474269
-0.24052832 -0.031608701 -0.008932584
-0.19509085 -0.031608701 -0.0058942456
-0.10218732 -0.031608701 -0.0049175122
-0.082135059 -0.031608701 -0.0084047383
-0.010213416 -0.031608701 -0.0081501007
0.018776897 -0.031608701 -0.0081198579
0.044342145 -0.031608701 -0.0018218178
0.072615385 -0.031608701 -0.0069745719
0.13921008 -0.031608701 -0.0011509396
0.18469906 -0.031608701 -0.0083352989
0.1900119 -0.031608701 -0.0039564986
0.21061713 -0.031608701 -0.0041352147
0.23769861 -0.031608701 -0.0094852839
0.27233517 -0.031608701 -0.0063938969
0.34189504 -0.031608701 -0.0078263022
-0.38128448 -0.029615037 -0.0017309997
0.37686926 -0.027071567 -0.00076157041
0.38022661 -0.020594178 -0.00067659467
0.39081535 -0.025521487 -0.0079843942
-0.22967161 -0.0130294 -0.0019433068
-0.17843933 -0.0130294 -0.0030641232
-0.15565278 -0.0130294 -0.0019790116
-0.061060131 -0.0130294 -0.0026996105
-0.04647341 -0.0130294 -0.0054315589
-0.03428198 -0.0130294 -0.0052196449
0.06923376 -0.0130294 -0.0064241942
0.12706739 -0.0130294 -0.0084324256
0.15197405 -0.0130294 -0.0026998927
0.18030331 -0.0130294 -0.0027461874
0.21629344 -0.0130294 -0.0037992527
0.24541305 -0.0130294 -0.0037471047
0.25962436 -0.0130294 -0.0035467567
0.30814096 -0.0130294 -0.0057776095
0.31969085 -0.0130294 -0.0076526497
0.37365723 -0.0130294 -0.0047449078
0.42083484 -0.012111737 -0.0016046502
-0.44765583 -0.00012923966 -0.004219919
0.3841778 -0.0099014677 -0.0090407021
0.43387163 -0.006353165 -0.0034930543
-0.4502061 0.0010675008 -0.0088725276
-0.44829077 0.00012901612 -0.0025353115
0.44710085 0.018136285 -0.00069855293
-0.47482106 0.030511376 -0.0046484563
-0.3633942 -0.031608701 2.8291717e-05
-0.33729753 -0.031608701 0.0093140481
-0.29941893 -0.031608701 0.0012117531
-0.28641748 -0.031608701 0.006715877
-0.27247065 -0.031608701 0.0084239226
-0.19205283 -0.031608701 0.00016642688
-0.18064259 -0.031608701 0.00024766475
-0.16236857 -0.031608701 0.0073766513
-0.13318549 -0.031608701 0.0049195187
-0.069610171 -0.031608701 0.0022214567
-0.043739058 -0.031608701 0.0046430547
-0.036892012 -0.031608701 0.0045342259
-0.022927295 -0.031608701 0.0042928308
-0.017035218 -0.031608701 0.0048702527
-0.0026450711 -0.031608701 0.0068390439
0.054020233 -0.031608701 0.0086045191
0.065689668 -0.031608701 0.003865127
0.070020698 -0.031608701 0.0022989984
0.12642817 -0.031608701 0.0077350782
0.17118995 -0.031608701 0.009529965
-0.35060248 -0.0130294 0.0036063269
-0.22472744 -0.0130294 0.00045659524
-0.16249508 -0.0130294 0.0074913544
-0.15375519 -0.0130294 0.0026137892
-0.14000738 -0.0130294 0.0052041477
-0.13202499 -0.0130294 0.005279473
-0.076999947 -0.0130294 0.0050380272
-0.0077409148 -0.0130294 0.0093384422
0.002408389 -0.0130294 0.0074820546
0.014863491 -0.0130294 0.008824517
0.047384378 -0.0130294 0.0074475566
0.07881555 -0.0130294 0.00073429104
0.10908722 -0.0130294 0.0012077427
0.11080072 -0.0130294 0.0077332258
0.14707993 -0.0130294 0.0088385874
0.16791917 -0.0130294 0.0022970347
0.23176862 -0.0130294 0.0056280242
0.24071419 -0.0130294 0.0062224581
0.25715938 -0.0130294 0.0092929062
0.3032169 -0.0130294 0.00047533738
0.32369629 -0.0130294 0.002455004
0.33976758 -0.0130294 0.0094191823
0.37671512 -0.013176845 0.0041431636
-0.44230306 -0.0025967485 0.0024001272
-0.43191248 -0.007243101 0.0049639009
-0.39076263 -0.0069011562 0.0034167389
0.39159858 -0.0064083762 0.0053046122
0.40231779 -0.0017071748 0.0013511255
0.43563628 -0.0054307831 0.0065004146
0.44058746 -0.0031998395 0.0089303963
-0.44818363 2.5650021e-05 0.0014659874
0.46218017 0.0063039092 0.0033185761
-0.43727416 0.013722804 0.0045260414
0.44276926 0.016224524 4.1289255e-05
-0.33764997 -0.031608701 0.012350285
-0.31548071 -0.031608701 0.010824186
-0.24506006 -0.031608701 0.011066712
-0.11137562 -0.031608701 0.019506803
-0.078088142 -0.031608701 0.011175578
0.014444329 -0.031608701 0.013766322
0.081638008 -0.031608701 0.019671358
0.094807819 -0.031608701 0.016471405
0.11829536 -0.031608701 0.018602401
0.20355767 -0.031608701 0.013722305
0.34614667 -0.031608701 0.015502658
0.37720323 -0.031200528 0.017884217
0.3906492 -0.025268167 0.015468597
-0.40904498 -0.017570794 0.01791067
-0.34772438 -0.0130294 0.019738382
-0.32454044 -0.0130294 0.015955396
-0.18934119 -0.013029401 0.018680383
-0.017781228 -0.0130294 0.01873225
0.0085711144 -0.0130294 0.015190601
0.023290291 -0.0130294 0.012646109
0.035933726 -0.0130294 0.016863346
0.075787991 -0.0130294 0.011944629
0.19479644 -0.0130294 0.014273202
0.2054414 -0.0130294 0.019161757
0.21114549 -0.0130294 0.018577145
0.31358969 -0.0130294 0.016246285
0.32170683 -0.0130294 0.018440275
0.35989982 -0.0130294 0.018545367
0.37813565 -0.012210194 0.01768047
0.43709946 -0.0046526575 0.015742484
-0.46698689 0.0081741838 0.015481103
-0.4524582 0.0017584618 0.013223347
0.45054623 0.0012972564 0.014507441
-0.47627988 0.012325718 0.013506381
-0.44810665 0.018330565 0.018807922
0.43187082 0.011647836 0.018619586
-0.36421862 -0.031608701 0.023638891
-0.29027206 -0.031608701 0.021578215
-0.27653411 -0.031608701 0.021948952
-0.20704669 -0.031608701 0.026216472
-0.18355335 -0.031608701 0.020019678
-0.11852047 -0.031608701 0.024012588
-0.099103175 -0.031608701 0.028460911
-0.068123251 -0.031608701 0.025440041
-0.012983909 -0.031608701 0.026142051
-0.0021776529 -0.031608701 0.021177281
0.085034803 -0.031608701 0.027362287
0.10113037 -0.031608701 0.021583229
0.15792634 -0.031608701 0.024091749
0.16168131 -0.031608701 0.023535362
0.20761122 -0.031608701 0.026850596
0.22709572 -0.031608701 0.023162354
0.24433948 -0.031608701 0.029600095
0.2994 -0.031608701 0.026392218
0.30134982 -0.031608701 0.021149626
-0.37762868 -0.020250194 0.024925157
-0.41408139 -0.015420665 0.023984017
-0.37734598 -0.0130294 0.023591075
-0.34578803 -0.0130294 0.024997868
-0.32089144 -0.0130294 0.024929997
-0.27929983 -0.0130294 0.026098352
-0.2174366 -0.0130294 0.025533516
-0.18420799 -0.0130294 0.029961275
-0.15336891 -0.0130294 0.02301001
-0.12408387 -0.0130294 0.027704824
-0.07400874 -0.0130294 0.026499074
-0.063430198 -0.0130294 0.021012548
0.055596173 -0.0130294 0.022356672
0.07483007 -0.0130294 0.02344426
0.13797471 -0.0130294 0.028132487
0.19063391 -0.0130294 0.024523355
0.2488157 -0.0130294 0.023023644
0.32686913 -0.0130294 0.022013869
0.33500946 -0.0130294 0.022993922
0.36171716 -0.0130294 0.023492396
0.39845505 -0.0030342729 0.029083617
-0.40774953 0.00030089245 0.027481828
0.4523682 0.0022633667 0.02582242
-0.47754651 0.013058583 0.024037307
0.454413 0.02180014 0.029346388
0.48038715 0.02117159 0.022016939
0.47564292 0.03111293 0.021630323
-0.3551186 -0.031608701 0.03635186
-0.31757748 -0.031608701 0.03946602
-0.28589141 -0.031608701 0.034143452
-0.15338367 -0.031608701 0.032537773
-0.035725281 -0.031608701 0.037991051
-0.014499424 -0.031608701 0.03778214
0.074124292 -0.031608701 0.039177969
0.10740002 -0.031608701 0.036894478
0.13237537 -0.031608701 0.03306384
0.14411011 -0.031608701 0.03143426
0.21171561 -0.031608701 0.030850986
0.25917053 -0.031608701 0.03182634
0.37340713 -0.031608701 0.039885517
0.38280988 -0.028495865 0.033450045
0.398929 -0.021355791 0.03256977
-0.41698062 -0.014281533 0.03455193
-0.35365209 -0.0130294 0.033116113
-0.33838537 -0.0130294 0.03986495
-0.31221181 -0.0130294 0.035578795
-0.2550939 -0.0130294 0.032993227
-0.13686025 -0.0130294 0.037208751
0.028935611 -0.0130294 0.039380118
0.033229984 -0.0130294 0.039262664
0.15479505 -0.0130294 0.033525173
0.19253236 -0.0130294 0.030415222
0.35163343 -0.0130294 0.032955237
0.40393165 -0.019163566 0.030571779
0.42017552 -0.011944467 0.031349398
-0.43563259 -0.0059755268 0.032438308
-0.39817044 -0.0041013649 0.038368307
-0.45038879 0.00056649419 0.032853976
-0.4377946 0.013531819 0.034778405
0.47706005 0.023656506 0.034600802
-0.37315327 -0.031608701 0.040337805
-0.33309051 -0.031608701 0.044941947
-0.30221182 -0.031608701 0.049765073
-0.23637369 -0.031608701 0.042486552
-0.14159364 -0.031608701 0.048593733
-0.11814074 -0.031608701 0.045541003
-0.057565596 -0.031608701 0.049667969
0.24445808 -0.031608701 0.045153219
0.28240681 -0.031608701 0.043291327
-0.40263429 -0.020806037 0.045918703
-0.38584018 -0.025101474 0.043463912
-0.42305809 -0.011713242 0.043765087
-0.29090166 -0.0130294 0.046796944
-0.28418195 -0.0130294 0.046678506
-0.27711096 -0.0130294 0.045819249
-0.20392483 -0.0130294 0.046274789
-0.18719316 -0.0130294 0.043971237
-0.16920272 -0.0130294 0.040217586
-0.14469263 -0.0130294 0.043433882
-0.097577862 -0.0130294 0.048860367
-0.05960685 -0.0130294 0.046791572
-0.037322313 -0.0130294 0.040279739
-0.0057718903 -0.0130294 0.046629481
0.043791376 -0.0130294 0.040848419
0.083646923 -0.0130294 0.043014899
0.25559402 -0.0130294 0.048837624
0.36734611 -0.0130294 0.047208004
0.41607004 -0.013560437 0.046094283
-0.38647294 -0.0094038583 0.046376593
0.43206739 -0.0064157052 0.04942501
0.44577104 -0.00034866808 0.048449099
-0.46803451 0.0082927439 0.040287931
0.46379271 0.0076526338 0.048755251
0.42809391 0.010336084 0.044713736
0.47421676 0.012288615 0.049480028
0.45094591 0.020460002 0.04355694
-0.34839207 -0.031608701 0.058037613
-0.33225274 -0.031608701 0.055638265
-0.042229842 -0.031608701 0.057742994
0.036380041 -0.031608701 0.05907511
0.094331361 -0.031608701 0.057516504
0.11325017 -0.031608701 0.050331004
0.21214929 -0.031608701 0.053548522
0.2353828 -0.031608701 0.051135536
0.30387133 -0.031608701 0.055487409
0.31369281 -0.031608701 0.053092428
0.32527527 -0.031608701 0.052277107
-0.4014307 -0.02140612 0.050650455
-0.37375456 -0.013029401 0.059105165
-0.36083278 -0.0130294 0.050127324
-0.35028589 -0.0130294 0.051824212
-0.30620053 -0.0130294 0.057189688
-0.24244547 -0.0130294 0.055527974
-0.20987523 -0.0130294 0.058668584
-0.11386834 -0.0130294 0.051221788
-0.054759488 -0.0130294 0.056180928
-0.020133957 -0.0130294 0.056884643
0.069734149 -0.0130294 0.051541626
0.092757344 -0.0130294 0.052523248
0.10213802 -0.0130294 0.056421116
0.1415282 -0.0130294 0.053840026
0.20690027 -0.0130294 0.056500856
0.2487126 -0.0130294 0.055174895
0.35662109 -0.0130294 0.051651362
0.37002796 -0.0130294 0.058303386
0.40576577 -0.018030975 0.053431306
0.41266876 -0.014976762 0.05277241
-0.44176573 -0.0035614523 0.054482013
-0.39048669 -0.007782246 0.057814267
0.43182665 -0.0064022988 0.058041215
0.44637144 -4.0772138e-05 0.051424127
-0.46161661 0.0052335267 0.055450778
0.42162848 0.0076668169 0.059055116
0.46553624 0.0084476462 0.050284371
0.43124563 0.011872327 0.054583341
0.45276129 0.021452267 0.056936391
-0.34634322 -0.031608701 0.067965277
-0.28622314 -0.031608701 0.065708973
-0.23209172 -0.031608701 0.064301759
-0.22446741 -0.031608701 0.068871938
-0.20452937 -0.031608701 0.061625067
-0.15433592 -0.031608701 0.060300864
-0.14296433 -0.031608701 0.067794621
-0.12724979 -0.031608701 0.066579618
-0.097960055 -0.031608701 0.063300639
-0.044393621 -0.031608701 0.060513299
0.0053484403 -0.031608701 0.06390579
0.035182491 -0.031608701 0.069621131
0.046884745 -0.031608701 0.063870281
0.062138956 -0.031608701 0.066390306
0.071568109 -0.031608701 0.069514424
0.098754078 -0.031608701 0.0606273
0.10374328 -0.031608701 0.065156884
0.12387718 -0.031608701 0.061119139
0.24871133 -0.031608701 0.064495049
0.25801206 -0.031608701 0.069500431
0.27134293 -0.031608701 0.06842801
0.32581073 -0.031608701 0.060970873
-0.39610904 -0.023983696 0.06615217
-0.38544989 -0.028685803 0.064167254
-0.4257924 -0.010740524 0.061016761
-0.38010126 -0.015662447 0.06638936
-0.37892902 -0.013474594 0.066302031
-0.28639698 -0.0130294 0.067096815
-0.22967434 -0.0130294 0.062458791
-0.18939617 -0.0130294 0.064039409
-0.14123142 -0.0130294 0.062670395
-0.084389612 -0.0130294 0.06929753
-0.073566958 -0.0130294 0.065410905
-0.027617678 -0.0130294 0.068537295
0.15774238 -0.0130294 0.060009018
0.23834562 -0.0130294 0.065298237
0.27027071 -0.0130294 0.060323954
0.32918036 -0.0130294 0.068594158
0.3768039 -0.01745715 0.063898459
-0.39303628 -0.0066831098 0.060127489
0.43311203 -0.0057858592 0.061345313
-0.41326994 0.0022448914 0.063745074
0.45201331 0.021183295 0.061445475
-0.32891029 -0.031608701 0.07071282
-0.30702817 -0.031608701 0.075158179
-0.10774633 -0.031608701 0.0734725
-0.035485871 -0.031608701 0.074465677
-0.010114428 -0.031608701 0.074009605
0.12231219 -0.031608701 0.076919571
0.26423016 -0.031608701 0.07581193
0.27275932 -0.031608701 0.072211705
0.34821901 -0.031608701 0.0787521
0.36786202 -0.031608701 0.07429859
0.37445459 -0.028243944 0.076074146
0.38199911 -0.028259739 0.076180995
-0.37925166 -0.018305285 0.076565437
-0.36793014 -0.0130294 0.074804455
-0.30511495 -0.0130294 0.077873081
-0.27761778 -0.0130294 0.079908654
-0.21240443 -0.0130294 0.079808988
-0.019619558 -0.0130294 0.077939637
0.015410583 -0.0130294 0.071576111
0.024150012 -0.0130294 0.07184726
0.15258871 -0.0130294 0.073204815
0.19804195 -0.0130294 0.073188335
0.21251038 -0.0130294 0.072571561
0.27294034 -0.0130294 0.078862056
0.347258 -0.0130294 0.071633659
0.40357798 -0.018675912 0.076815218
-0.42357934 0.0066928803 0.072821543
-0.37808788 -0.031608701 0.082056828
-0.34538236 -0.031608701 0.083796099
-0.10852654 -0.031608701 0.083041221
-0.082142457 -0.031608701 0.084312946
-0.058920726 -0.031608701 0.088533387
0.034977317 -0.031608701 0.088944271
0.067705542 -0.031608701 0.088631645
0.15214588 -0.031608701 0.08059483
0.18075325 -0.031608701 0.080842704
0.20658433 -0.031608701 0.086440831
0.2702243 -0.031608701 0.081015311
0.324361 -0.031608701 0.087820217
0.36512971 -0.031608701 0.084718615
-0.37947387 -0.018569132 0.083636411
-0.28073004 -0.0130294 0.080079429
-0.14263062 -0.0130294 0.084316939
-0.13068499 -0.0130294 0.084120162
-0.10781217 -0.0130294 0.08527647
-0.025793746 -0.0130294 0.087201715
-0.0052899867 -0.0130294 0.086605109
0.065534249 -0.0130294 0.080226094
0.071295753 -0.0130294 0.080928341
0.14191976 -0.0130294 0.08176215
0.17901909 -0.0130294 0.088416144
0.20912293 -0.0130294 0.08141081
0.27100325 -0.0130294 0.088030517
0.28237218 -0.0130294 0.0884277
0.37526971 -0.01251299 0.087163419
0.41461387 -0.013710404 0.081696048
0.39470834 -0.0038615086 0.088956103
-0.42285126 0.0062370375 0.082345858
0.40647304 0.0013058982 0.085164279
0.42907706 0.011270477 0.080444232
-0.30017439 -0.031608701 0.098286815
-0.23674719 -0.031608701 0.092830226
-0.21785638 -0.031608701 0.098295987
-0.15277323 -0.031608701 0.09971296
-0.095512472 -0.031608701 0.092889935
-0.054461222 -0.031608701 0.096478961
0.024864346 -0.031608701 0.097881153
0.15545124 -0.031608701 0.095978469
0.21648264 -0.031608701 0.094804898
0.22098775 -0.031608701 0.097401537
0.36169034 -0.031608701 0.090160117
0.37372923 -0.031244811 0.099154636
-0.3778927 -0.023688843 0.09818659
-0.35797504 -0.021513207 0.098812558
-0.32255641 -0.028934333 0.099925682
-0.40866619 -0.012639949 0.093724124
-0.3923009 -0.018691152 0.0965418
-0.20821306 -0.0130294 0.094939657
-0.19331309 -0.0130294 0.099572547
-0.18454424 -0.0130294 0.095452517
-0.14066589 -0.0130294 0.090987399
-0.042057112 -0.0130294 0.09973076
-0.036293611 -0.0130294 0.0918791
0.10458001 -0.0130294 0.095606633
0.11827515 -0.0130294 0.092863597
0.14742042 -0.0130294 0.095904052
0.15937722 -0.0130294 0.091618173
0.19693738 -0.0130294 0.09433005
0.21094739 -0.0130294 0.098534428
0.37393111 -0.013910718 0.092731014
-0.40822083 -0.0083980765 0.093564391
0.38263029 -0.0091893459 0.091262832
0.43441233 -0.0047283354 0.095785514
0.43752396 0.015186399 0.092452124
-0.12056506 -0.031608701 0.10592159
-0.11082882 -0.031608701 0.10492793
-0.011788964 -0.031608701 0.10550267
0.0026247352 -0.031608701 0.10572709
0.04653722 -0.031608701 0.10727523
0.11301793 -0.031608701 0.10388523
0.13104895 -0.031608701 0.10862859
0.22328095 -0.031608701 0.10892599
0.23935816 -0.031608701 0.10152604
0.30327925 -0.031608701 0.10751138
0.3681455 -0.031608701 0.10239799
-0.30748963 -0.021677103 0.1003992
-0.25948712 -0.021951288 0.10190781
-0.168731 -0.023197955 0.10476007
-0.1394085 -0.022794943 0.1056816
0.39183384 -0.023445183 0.10850403
-0.31130242 -0.017060269 0.10027938
-0.19129959 -0.0130294 0.10025499
-0.15475745 -0.017951254 0.10519923
-0.11216678 -0.014959443 0.10653774
-0.081198111 -0.016443986 0.10751102
-0.034061544 -0.017882824 0.10899243
0.074925244 -0.0130294 0.10443819
0.084766053 -0.0130294 0.10318622
0.15531009 -0.0130294 0.10383902
0.19600175 -0.0130294 0.10297018
0.22739246 -0.0130294 0.1028886
0.23587298 -0.0130294 0.10213724
0.28913647 -0.0130294 0.10151885
0.42438373 -0.0091144368 0.10037091
0.00097763538 -0.030058235 0.11009362
0.27098516 -0.031608701 0.11564305
0.30514044 -0.031551242 0.11965276
0.3261795 -0.031608701 0.11368851
0.33991838 -0.031608701 0.11308094
0.34298235 -0.031608701 0.11142435
0.35055724 -0.031608701 0.11780721
0.023571834 -0.029470649 0.11080371
0.051556051 -0.02189948 0.11168319
0.081823289 -0.02383838 0.11263441
0.1163922 -0.026179997 0.11372083
0.15818018 -0.024599431 0.11503413
0.16751945 -0.026849706 0.11532765
0.23794824 -0.026599862 0.11754107
0.37320441 -0.02034571 0.11585437
0.38940388 -0.024378136 0.11892129
0.087603539 -0.01558914 0.11281607
0.15538466 -0.017486673 0.11494628
0.16305497 -0.0130294 0.11313759
0.22600085 -0.017640173 0.11716559
0.23508412 -0.013351737 0.11745106
0.25027055 -0.018772552 0.11792833
0.30940428 -0.019518571 0.11978676
0.36638546 -0.0130294 0.11010838
0.39760008 -0.0056137978 0.11778951
0.41454452 -0.0049015381 0.11414198
0.32236516 -0.023558665 0.12019409
0.34555954 -0.014301956 0.12092304
0.35329461 -0.015002491 0.12086402
0.36483932 -0.019505376 0.12152896
0.37177643 -0.0130294 0.12171705
