# .PCD v0.7 - Point Cloud Data file format
VERSION 0.7
FIELDS x y z
SIZE 4 4 4
TYPE F F F
COUNT 1 1 1
WIDTH 925
HEIGHT 1
VIEWPOINT 0 0 0 1 0 0 0
POINTS 925
DATA ascii
-0.20321432 -0.054565452 -0.112678
-0.18435007 -0.053962167 -0.112678
-0.1669839 -0.055308245 -0.11039607
-0.1730133 -0.044563752 -0.11267801
-0.22611934 -0.031363685 -0.11159544
-0.22070047 -0.02658084 -0.112678
-0.14234357 -0.02398218 -0.11266666
-0.18520163 -0.010071933 -0.11267801
-0.19269869 -0.0087555684 -0.11267799
-0.16170162 0.0037926035 -0.112678
-0.15440553 0.0018391809 -0.11267801
-0.14676154 8.0241123e-05 -0.112678
-0.21902965 0.013128939 -0.11267801
0.42947447 0.017409299 -0.11251275
-0.2654202 0.027847536 -0.117048
-0.25255993 0.0206146 -0.11386354
-0.18721618 0.023599461 -0.11267801
-0.14520188 0.022597058 -0.117048
-0.087237343 0.0206146 -0.11073369
-0.067924604 0.0206146 -0.11062612
-0.015112411 0.024390617 -0.117048
0.012586638 0.0206146 -0.11612034
0.034904443 0.021074587 -0.117048
0.078957155 0.020850414 -0.117048
0.21652006 0.0206146 -0.11579458
0.35644293 0.027472628 -0.117048
0.36697173 0.027888626 -0.117048
-0.29660654 0.033841312 -0.117048
-0.26660478 0.036878631 -0.117048
-0.19461304 0.033321448 -0.117048
-0.18784419 0.030612048 -0.11267801
0.0053873956 0.036690477 -0.117048
0.020485282 0.039942406 -0.117048
0.039182678 0.03579374 -0.117048
0.11900842 0.038620166 -0.11704801
0.2502481 0.031965137 -0.117048
0.3034026 0.030160097 -0.117048
0.41522366 0.033627123 -0.117048
0.45500407 0.037850309 -0.117048
-0.32285607 0.047729727 -0.11704801
-0.31359175 0.043577526 -0.117048
-0.29512441 0.042607807 -0.11704801
-0.20577978 0.045756556 -0.117048
-0.17467648 0.044589866 -0.117048
-0.022025455 0.04684075 -0.11704801
-0.017055586 0.048140105 -0.117048
-0.00059983134 0.046277702 -0.117048
0.020625129 0.040218532 -0.117048
0.031393588 0.042366825 -0.11704801
0.069177181 0.047004484 -0.117048
0.085480154 0.046724446 -0.117048
0.12955892 0.048817821 -0.117048
0.16579852 0.042031571 -0.11704801
0.43773085 0.041413192 -0.117048
-0.32567373 0.052395601 -0.11666907
-0.28184834 0.052395601 -0.11170715
-0.095218822 0.052395601 -0.11667082
-0.081747212 0.052395605 -0.11700512
-0.0060006231 0.051907092 -0.117048
0.070500657 0.052395601 -0.11197443
0.088997379 0.052395601 -0.11304362
0.2686289 0.052395601 -0.11260053
0.3782149 0.052395601 -0.11496569
0.46651068 0.060210399 -0.11007795
0.28391755 -0.053988408 -0.10335454
0.26213768 -0.037202314 -0.103652
0.30597413 -0.030624267 -0.103652
0.329373 -0.026816336 -0.10123133
0.29708922 -0.0026878542 -0.103652
0.31183544 0.0083835479 -0.103652
-0.22160098 0.015055768 -0.10351101
0.27604491 0.017929977 -0.103652
-0.3499614 0.024324032 -0.10681891
-0.29394099 0.0206146 -0.10101403
-0.15148416 0.0206146 -0.10492012
-0.13365096 0.020614602 -0.10472482
0.2517156 0.0206146 -0.10969362
0.30397969 0.023760902 -0.10619602
0.31232345 0.0206146 -0.10665164
-0.36345401 0.031709202 -0.10081179
-0.35411453 0.043711007 -0.10496996
0.48236299 0.043994404 -0.10524207
-0.3274143 0.052395601 -0.10786079
-0.28576264 0.052395601 -0.10229082
-0.22903267 0.052395597 -0.10518412
-0.075587913 0.052395601 -0.10118007
0.13924313 0.052395605 -0.10850333
0.18922512 0.052395601 -0.10428731
0.322034 0.052395601 -0.10390452
0.413506 0.058184158 -0.10809982
0.28834587 -0.054571468 -0.094371356
-0.15454441 -0.046818778 -0.093103282
0.31606978 -0.04582116 -0.093847081
0.32957256 -0.026334517 -0.091143206
-0.1419753 -0.0075718211 -0.096864611
0.25239238 -0.0025803866 -0.095295459
0.26536268 0.01660542 -0.09231247
-0.3779763 0.0237845 -0.092884332
-0.23369747 0.0206146 -0.094738707
-0.17291503 0.0206146 -0.094818391
-0.057347015 0.0206146 -0.09059976
0.12152487 0.0206146 -0.093785964
0.18861571 0.0206146 -0.091874741
0.22204447 0.0206146 -0.099110477
0.27569014 0.022783183 -0.095012024
0.33360815 0.0206146 -0.092425242
-0.38093364 0.045752943 -0.093029693
-0.24076657 0.052395601 -0.09108036
-0.22456241 0.052395601 -0.092184417
-0.18910477 0.052395605 -0.092716873
-0.14221483 0.052395597 -0.094961137
-0.13151157 0.052395601 -0.095129088
-0.12033895 0.052395597 -0.098408431
-0.099613562 0.052395601 -0.096891299
-0.081404895 0.052395597 -0.095505215
-0.011847556 0.052395597 -0.092547774
-0.0083972514 0.052395601 -0.095814005
0.027001413 0.052395601 -0.093228884
0.139074 0.052395605 -0.099030316
0.18177986 0.052395605 -0.090188637
0.19462319 0.052395601 -0.098185025
0.21027687 0.052395601 -0.098469332
0.30431688 0.052395601 -0.094936818
0.33306065 0.052395601 -0.094714902
0.37617278 0.052395601 -0.093430631
0.44847423 0.060210399 -0.092096016
-0.21425724 -0.050670885 -0.087690368
-0.20384493 -0.056548275 -0.088330239
0.28846097 -0.054586619 -0.08341255
0.29874641 -0.053904943 -0.087569565
-0.22980781 -0.029558204 -0.080421165
0.32907706 -0.027530842 -0.08048752
0.33155373 -0.014426319 -0.082491882
-0.14951205 0.011524733 -0.083381601
0.34478536 0.0174093 -0.084107041
0.40680158 0.0174093 -0.089047514
0.41449654 0.0174093 -0.088720962
-0.39539382 0.029217338 -0.086591497
-0.27572107 0.0206146 -0.083224848
-0.24422643 0.020614598 -0.086065523
-0.22615877 0.0206146 -0.085957527
-0.21425942 0.020614602 -0.088004321
-0.20899053 0.025659671 -0.085944116
-0.19844472 0.02993476 -0.088496968
-0.16978797 0.027712453 -0.082243532
-0.077833265 0.0206146 -0.084795721
-0.042686969 0.020614602 -0.088929206
0.039510131 0.0206146 -0.083901912
0.1067581 0.0206146 -0.083306402
0.12282334 0.0206146 -0.084595963
0.16942389 0.020614602 -0.086191937
0.24311762 0.0206146 -0.082744732
0.28725398 0.0256707 -0.080663241
-0.19125414 0.030881623 -0.080525644
-0.3911922 0.052395601 -0.08297579
-0.38081568 0.052395601 -0.089749701
-0.3460069 0.052395601 -0.080691136
-0.31581467 0.052395601 -0.080634534
-0.30545148 0.052395601 -0.089315154
-0.29873273 0.052395601 -0.084286027
-0.2660411 0.052395601 -0.087627679
-0.167732 0.052395597 -0.087781914
-0.10635623 0.052395597 -0.087478936
-0.045849588 0.052395605 -0.089651287
0.019315246 0.052395601 -0.084028468
0.090503022 0.052395601 -0.086746462
0.26623428 0.052395601 -0.084252909
0.29117736 -0.054901525 -0.07514511
0.31963009 -0.043088783 -0.078590482
-0.14676014 -0.036184408 -0.074707121
-0.15162054 0.014272725 -0.071322113
0.34717491 0.0174093 -0.073209673
0.37739635 0.0174093 -0.071421966
0.39720774 0.0174093 -0.071905494
0.44899496 0.0174093 -0.079450108
0.45719475 0.0174093 -0.078981362
-0.41926768 0.026351498 -0.07596238
-0.34114769 0.0237845 -0.070350885
-0.32514334 0.020614602 -0.070102111
-0.21605036 0.020537706 -0.077976674
-0.15887795 0.021386623 -0.073160157
0.1217492 0.0206146 -0.073947772
0.13267463 0.0206146 -0.073296212
0.15344027 0.020614598 -0.075943261
0.2482017 0.0206146 -0.073229976
0.29719919 0.025351655 -0.075530961
-0.41691402 0.051691651 -0.076935634
-0.36281127 0.052395605 -0.079323262
-0.28872526 0.052395601 -0.074004896
-0.22389835 0.052395605 -0.074997067
-0.21893728 0.052395601 -0.074664131
-0.16184664 0.052395601 -0.072575584
-0.15205047 0.052395601 -0.075847201
-0.13437206 0.052395597 -0.072744861
-0.1274697 0.052395601 -0.074604668
-0.10628863 0.052395601 -0.074831411
-0.081994176 0.052395601 -0.070592128
0.11726616 0.052395597 -0.077686407
0.12222166 0.052395601 -0.077900991
0.46162426 0.060210399 -0.078507125
-0.16988677 -0.056510642 -0.060354467
-0.15925354 -0.050432086 -0.067750797
0.27219352 -0.050091822 -0.064648509
0.26232153 -0.043015528 -0.065003268
-0.22958674 -0.030091813 -0.063482486
-0.23255214 -0.012928679 -0.064421333
0.25073645 -0.012361845 -0.063999929
0.33117816 -0.017278124 -0.067422524
0.26807216 0.018684696 -0.061007604
0.42466474 0.0174093 -0.060148217
0.45696878 0.0174093 -0.060700908
-0.34037021 0.0237845 -0.068352826
-0.30442718 0.0206146 -0.060464364
-0.29524457 0.020614598 -0.065513946
-0.26265737 0.020614602 -0.06405998
-0.11484827 0.0206146 -0.060887154
0.018019184 0.0206146 -0.065064549
0.024601519 0.0206146 -0.061033204
0.19638446 0.020614602 -0.063047349
-0.17999686 0.030542884 -0.066600308
-0.40273544 0.052395597 -0.06682241
-0.32439232 0.052395601 -0.065601647
-0.28108308 0.052395597 -0.06659171
-0.27961823 0.052395601 -0.069138087
-0.14208919 0.052395597 -0.068003073
-0.0050013065 0.052395601 -0.068278514
0.021821141 0.052395601 -0.061973948
0.095724702 0.052395601 -0.061114989
0.15082151 0.052395601 -0.06120833
0.16140117 0.052395597 -0.066218592
0.18526381 0.052395605 -0.065170743
0.24149337 0.052395601 -0.063098505
0.27183294 0.052395597 -0.060180981
0.39706218 0.052395597 -0.068622619
0.48236299 0.052231096 -0.068280876
0.43184307 0.060210399 -0.061921477
0.45752555 0.060210399 -0.068893306
-0.14873286 -0.039266318 -0.058267742
-0.14251073 -0.025251541 -0.057801481
0.25156528 -0.0060636918 -0.053411372
0.3299908 -0.0034328362 -0.055961095
0.32665989 0.0046092998 -0.057208173
0.34837249 0.0174093 -0.053975686
0.39350587 0.0174093 -0.053592995
0.42855769 0.017409302 -0.055130817
0.44762376 0.0174093 -0.059173942
-0.4493596 0.0237845 -0.05172582
-0.43929622 0.0237845 -0.054166369
-0.13556087 0.0206146 -0.057698097
-0.10573084 0.0206146 -0.056694161
-0.074414335 0.0206146 -0.051719852
-0.063944325 0.0206146 -0.058746733
0.12542219 0.0206146 -0.053311646
0.14340299 0.0206146 -0.055360179
0.21258488 0.0206146 -0.051667605
0.27721083 0.02341307 -0.058477998
0.28701401 0.025639106 -0.053405166
0.29872048 0.025151353 -0.057916824
0.30876806 0.0206146 -0.050581586
0.34435081 0.0206146 -0.056196224
0.48236299 0.022365436 -0.051833283
-0.42004967 0.052395605 -0.054784611
-0.39699689 0.052395601 -0.054476723
-0.23288307 0.052395601 -0.056205545
-0.21060589 0.052395601 -0.051184446
-0.1797969 0.052395601 -0.055375069
-0.099475093 0.052395605 -0.0514712
-0.041076615 0.052395605 -0.059153453
0.02408006 0.052395605 -0.056160074
0.040108174 0.052395601 -0.057481725
0.12238252 0.052395597 -0.055783093
0.17053939 0.052395601 -0.056173265
0.29282203 0.052395601 -0.057252519
0.31213105 0.052395601 -0.051307857
0.44445324 0.060210399 -0.055848699
-0.18778896 -0.060094956 -0.040756885
-0.1449879 -0.031906247 -0.042891547
-0.44304678 0.0237845 -0.047464296
-0.42583364 0.0237845 -0.043599281
-0.35185844 0.0237845 -0.047574122
-0.017123088 0.0206146 -0.047401529
0.045064948 0.0206146 -0.043051202
0.088834502 0.0206146 -0.044950839
0.18012959 0.0206146 -0.040542703
0.21675844 0.0206146 -0.04179959
0.25520888 0.0206146 -0.043684401
0.32832274 0.0206146 -0.046658311
0.48236299 0.023757983 -0.044316813
-0.41515654 0.052395601 -0.043492824
-0.18911153 0.052395605 -0.041575402
-0.062199906 0.052395597 -0.048773825
0.043381192 0.052395605 -0.042782485
0.062117547 0.052395601 -0.048401624
0.074973583 0.052395605 -0.04210091
0.090413511 0.052395601 -0.048017468
0.18711403 0.052395597 -0.049130771
0.2159223 0.052395601 -0.049926382
0.22866695 0.052395605 -0.040254615
0.29542774 0.052395601 -0.040818982
0.35166451 0.052395605 -0.04730862
0.36961156 0.052395597 -0.041586347
0.39765778 0.052395605 -0.045562129
0.2774176 -0.052255716 -0.036263514
0.26221406 -0.042875469 -0.034035362
-0.23261814 -0.013430103 -0.032075122
0.26042068 0.011781225 -0.03171432
-0.45646429 0.0237845 -0.038786896
-0.37637222 0.0237845 -0.038004629
-0.28996524 0.0206146 -0.032908984
-0.24380317 0.0206146 -0.03590278
-0.17661671 0.0206146 -0.031338803
-0.016303018 0.0206146 -0.036008131
0.038252592 0.0206146 -0.031793885
0.077523246 0.0206146 -0.037450835
0.27065778 0.020668779 -0.035989098
0.28714627 0.025656523 -0.034051254
0.30833468 0.0206146 -0.037500374
0.48236299 0.032364327 -0.039241973
-0.47333848 0.054312602 -0.032008938
-0.3521015 0.052395601 -0.039524
-0.28902319 0.052395601 -0.034329101
-0.23934236 0.052395601 -0.034445267
-0.16537815 0.052395601 -0.035401434
-0.13113031 0.052395597 -0.03012602
-0.097886369 0.052395605 -0.038067129
-0.061213925 0.052395597 -0.031916842
0.17945217 0.052395601 -0.038458832
0.24840537 0.052395597 -0.034798201
0.27005219 0.052395601 -0.036048617
0.30913249 0.052395597 -0.035276543
0.32124391 0.052395597 -0.030521542
0.45665368 0.060210399 -0.038062602
-0.1998186 -0.058216177 -0.027328826
0.29339275 -0.054609835 -0.021558929
0.25403565 -0.03014357 -0.02368192
-0.23172393 -0.022122722 -0.021822048
0.25113165 -0.019398905 -0.027378358
0.25218391 -0.0030836109 -0.026960459
-0.14559454 0.004613644 -0.026179973
0.25745958 0.0079220925 -0.029883783
0.3264215 0.0051849042 -0.029389348
0.26704228 0.01789437 -0.025173971
0.42042357 0.0174093 -0.028245803
0.45887631 0.0174093 -0.025689807
-0.32698601 0.023202416 -0.029776568
-0.26795927 0.0206146 -0.020507002
-0.1631303 0.024649672 -0.021559088
0.094714701 0.020614598 -0.021307077
0.15128276 0.0206146 -0.027207177
0.16556337 0.0206146 -0.025155779
0.2178334 0.0206146 -0.027235566
-0.19655615 0.030183449 -0.028149435
-0.47782695 0.054312602 -0.023095377
-0.43039891 0.052395601 -0.026892751
-0.42078841 0.052395601 -0.028635999
-0.41587323 0.052395601 -0.022266611
-0.39102173 0.052395601 -0.029769327
-0.32618827 0.052395601 -0.022848587
-0.29595935 0.052395605 -0.026880477
-0.28074202 0.052395601 -0.021376688
-0.19379513 0.052395605 -0.02165666
-0.18873082 0.052395601 -0.020510491
-0.067332432 0.052395605 -0.026911307
-0.013351455 0.052395601 -0.025081594
-0.0055232346 0.052395597 -0.025187455
0.11498591 0.052395601 -0.028821256
0.16556421 0.052395597 -0.02897596
0.19331509 0.052395605 -0.026340932
0.25917 0.052395601 -0.02077613
0.35659799 0.052395601 -0.029999875
0.42089465 0.060210399 -0.028102903
-0.15883741 -0.050112784 -0.014576461
0.27426648 -0.050950475 -0.019282572
-0.21645704 -0.048982978 -0.010701435
-0.15221763 -0.043808289 -0.011777719
-0.14784747 -0.038112335 -0.016950997
-0.23210473 -0.0095285177 -0.014457059
0.25148606 -0.0066656657 -0.011978984
0.26873717 0.019194974 -0.018712807
0.39230359 0.0174093 -0.012710043
0.42198843 0.0174093 -0.010462277
0.43203264 0.0174093 -0.012040487
0.48236299 0.018940626 -0.01330518
-0.33151641 0.0237845 -0.011462273
-0.30062792 0.0206146 -0.013244497
-0.1896425 0.0206146 -0.018442171
-0.14847334 0.0206146 -0.01073347
-0.12948339 0.0206146 -0.011656324
-0.10831969 0.0206146 -0.013405725
-0.037836194 0.0206146 -0.013295943
0.036994003 0.0206146 -0.0134275
0.11298663 0.0206146 -0.015625374
0.15970112 0.0206146 -0.010160305
0.20142953 0.0206146 -0.017074004
0.28008345 0.024602961 -0.011211164
0.29269183 0.025945118 -0.017454069
0.33510756 0.0206146 -0.019568652
-0.44228101 0.054311387 -0.014768802
-0.40393329 0.052395597 -0.019876672
-0.37045562 0.052395597 -0.014487605
-0.35485333 0.052395601 -0.011138512
-0.32751325 0.052395601 -0.017751824
-0.31275845 0.052395601 -0.019786876
-0.24367811 0.052395601 -0.01082065
-0.16514018 0.052395601 -0.013021636
-0.043391764 0.052395601 -0.010438383
-0.022357523 0.052395601 -0.01844009
0.24789412 0.052395601 -0.016342018
0.35333782 0.052395605 -0.019920018
0.38464913 0.052395605 -0.013951492
0.39181048 0.052395601 -0.012105427
0.42668501 0.060210399 -0.011269746
-0.192001 -0.059540492 -0.0071235336
-0.22391495 -0.040797565 -0.0085793482
0.31929985 -0.043342214 -0.0012618266
0.25161219 -0.0057072728 -0.0010879412
-0.14803901 0.0096048824 -0.0047304779
0.25550815 0.0049403207 -0.0070649385
0.32827812 0.00070222933 -0.001475621
0.39243987 0.0174093 -0.007679305
0.45465845 0.0174093 -0.0072291987
0.4678466 0.0174093 -0.0027690921
0.48200661 0.017409302 -0.0029049665
-0.46794131 0.0237845 -0.0008300133
-0.39467764 0.0237845 -0.0046556741
-0.3659496 0.0237845 -0.0033876449
-0.0020117499 0.0206146 -0.0084237577
0.076816902 0.0206146 -0.0074400632
-0.17868413 0.030370038 -0.0089986641
0.48236299 0.032780811 -0.0010548737
-0.31240839 0.052395601 -0.005287176
-0.26095307 0.052395601 -0.0042206645
-0.23155862 0.052395601 -0.005722031
-0.085777111 0.052395605 -0.0026759505
-0.0034449697 0.052395605 -0.0082950741
0.13931122 0.052395601 -0.0053910464
0.16985564 0.052395601 -0.0049257651
0.30861121 0.052395597 -0.0020818338
0.32799393 0.052395601 -0.00081943581
0.4047184 0.052395601 -0.004259523
0.413506 0.054641221 -0.0022403141
-0.23199499 -0.020063056 0.0047394596
-0.23259369 -0.013244342 0.0092360117
-0.14130326 -0.016082058 0.00031523034
-0.23054649 -0.00098198291 0.001809245
-0.15411487 0.01752365 0.0075191632
-0.16852145 0.020614598 0.0053946115
-0.047575455 0.0206146 0.0059172679
-0.037666641 0.0206146 0.0064122714
-0.0065367855 0.0206146 0.0093878116
0.010928422 0.0206146 0.0071186102
0.025613099 0.0206146 0.0038228594
0.032233842 0.020614602 0.0083293747
0.10546448 0.0206146 0.0027495446
0.22056903 0.0206146 0.0015501343
0.29202431 0.02603301 0.0088375174
0.31808138 0.0206146 0.0026563508
-0.45221519 0.054312602 0.0089516165
-0.37484512 0.052395597 0.0022794306
-0.28224605 0.052395601 0.0035733841
-0.25992584 0.052395601 0.0022961125
-0.1780892 0.052395605 0.0042248238
-0.15471306 0.052395597 0.005148286
-0.094209433 0.052395601 0.00019359775
-0.0852357 0.052395605 0.0090912692
-0.059653938 0.052395601 0.0093294047
0.02385401 0.052395601 0.007472096
0.049230561 0.052395605 0.0023671873
0.052062877 0.052395601 0.006250741
0.17965285 0.052395601 0.0017418191
0.24646756 0.052395597 0.0068248566
0.31712151 0.052395601 0.00012873672
0.32522416 0.052395605 0.0058346135
0.41548061 0.060210399 0.0058732443
0.31128216 -0.04949341 0.010410154
0.25924462 -0.039005674 0.012253489
0.32581031 -0.035064835 0.011448033
-0.23115914 -0.02629609 0.014671743
-0.15174103 0.014429778 0.014499962
0.25925589 0.010263134 0.018583972
0.35737884 0.0174093 0.015090745
0.40403846 0.0174093 0.016355161
-0.4339973 0.0237845 0.011845734
-0.40307549 0.0237845 0.012483561
-0.36954403 0.0237845 0.018882718
-0.35529026 0.0237845 0.016543619
-0.32740623 0.0237845 0.017137751
-0.29959884 0.0206146 0.01581159
-0.24908315 0.0206146 0.010697208
-0.19600061 0.020614602 0.015259715
-0.16366939 0.0206146 0.012243439
-0.14030991 0.0206146 0.011536535
0.076452017 0.0206146 0.016266609
0.14376807 0.0206146 0.012910008
0.19363198 0.0206146 0.014922116
0.27583423 0.0206146 0.011988495
0.29491252 0.025548343 0.013814117
-0.48236299 0.031944148 0.010127718
-0.18763494 0.031358205 0.019431295
-0.43036312 0.052395597 0.016006924
-0.3680613 0.052395597 0.016478311
-0.32611433 0.052395601 0.018745119
-0.29456699 0.052395601 0.019968897
-0.25432059 0.052395601 0.01764182
-0.12878805 0.052395605 0.014754731
-0.11277175 0.052395601 0.014955422
0.0061544292 0.052395601 0.01059177
0.096410409 0.052395597 0.016334537
0.2117482 0.052395601 0.018413037
0.22693671 0.052395605 0.010093994
0.31886101 0.052395605 0.018251561
0.32538533 0.052395597 0.011779126
0.34184024 0.052395605 0.016169339
0.39256588 0.052395605 0.014242304
-0.19909924 -0.058514159 0.025921036
0.26618958 -0.045996834 0.027238199
0.31494883 -0.046681449 0.029582597
-0.23254931 -0.012907133 0.022218982
0.31559059 0.017431764 0.027077911
0.32112128 0.01241748 0.029065738
0.39786714 0.0174093 0.024839785
0.41750848 0.0174093 0.021133821
0.46444133 0.0174093 0.022673992
-0.4403041 0.0237845 0.026811635
-0.43960917 0.0237845 0.022087526
-0.31809461 0.0206146 0.028664183
-0.30465356 0.0206146 0.021162204
-0.2964077 0.0206146 0.0268532
-0.26326489 0.020614598 0.022797603
-0.25954497 0.0206146 0.020913921
-0.21395892 0.0206146 0.029016674
-0.18901207 0.0206146 0.026067253
-0.12732066 0.020614598 0.020372547
-0.06826894 0.0206146 0.020924013
-0.017703114 0.0206146 0.027163463
0.2041004 0.0206146 0.02043415
0.21241738 0.0206146 0.02922849
0.28692815 0.022926919 0.020426657
0.31476957 0.0206146 0.027258279
0.34433711 0.0206146 0.02821381
-0.4672263 0.054312602 0.028848544
-0.22496274 0.052395601 0.029388668
-0.21168485 0.052395597 0.028514661
-0.15971656 0.052395605 0.023861352
-0.14687459 0.052395601 0.029101048
-0.074778408 0.052395597 0.025639141
-0.067122847 0.052395601 0.02594135
0.02982007 0.052395601 0.024297114
0.040993646 0.052395601 0.029262025
0.19683605 0.052395601 0.024765128
0.24834949 0.052395605 0.027395811
0.27736902 0.052395605 0.021079976
0.32918033 0.052395601 0.021076422
0.47268379 0.060210399 0.022435389
0.31032503 -0.049889825 0.031113844
0.32509944 0.0072337263 0.039270684
0.42441687 0.0174093 0.039577745
-0.35231599 0.0237845 0.037367746
-0.34325296 0.0237845 0.032274712
-0.3375493 0.0237845 0.036433198
-0.29231828 0.0206146 0.038207222
-0.22894616 0.020614598 0.030610301
-0.10834651 0.020614602 0.03392601
0.050639473 0.0206146 0.034619026
0.16595671 0.0206146 0.031416632
0.22296974 0.020614602 0.033866748
0.2490012 0.0206146 0.035766508
0.30899018 0.02168569 0.032010008
0.32037082 0.020614602 0.031778209
0.48236299 0.047251165 0.034008451
-0.48142576 0.052363701 0.037646085
-0.46102241 0.054312602 0.030952483
-0.45473021 0.054312602 0.030187402
-0.43925044 0.052395605 0.036753189
-0.38564846 0.052395601 0.036908615
-0.28936636 0.052395601 0.038225409
-0.13376319 0.052395601 0.037403632
0.023646902 0.052395601 0.038566355
0.082948267 0.052395597 0.030117191
0.098116763 0.052395597 0.03612344
0.14835179 0.052395601 0.030427456
0.17419671 0.052395601 0.03440389
0.20882721 0.052395597 0.033203572
0.21709971 0.052395601 0.03516259
0.25699353 0.052395601 0.03907612
0.31847179 0.052395601 0.039833508
0.33847156 0.052395605 0.030358326
0.35082093 0.052395597 0.037078604
0.37006378 0.052395601 0.034809437
0.3897118 0.052395605 0.038159277
0.39267999 0.052395597 0.03196786
0.40893245 0.052395605 0.035474695
0.43223152 0.060210399 0.036548488
0.30850241 -0.050644711 0.045964539
0.26432392 -0.044565201 0.044274472
-0.22604594 -0.038020484 0.046156365
-0.14511514 -0.032213405 0.042271122
-0.14417551 0.0011881945 0.049131256
0.31617367 0.016984295 0.044386573
0.39674032 0.0174093 0.048038736
-0.47437656 0.0237845 0.047428235
-0.40878162 0.0237845 0.048745841
-0.29755002 0.0206146 0.047041945
-0.2858724 0.0206146 0.04034055
-0.22459944 0.0206146 0.042079892
-0.20922361 0.025563126 0.04814047
-0.18978411 0.0206146 0.047248337
0.047163635 0.0206146 0.042028397
0.058025323 0.0206146 0.040428884
0.11639555 0.0206146 0.049885102
0.12515216 0.0206146 0.048600651
0.13699763 0.0206146 0.042673737
0.27955809 0.024385348 0.044258416
0.2885612 0.025842819 0.045475774
0.29447219 0.0206146 0.04024592
0.33394605 0.0206146 0.046226021
-0.43250364 0.052395597 0.049150832
-0.39731604 0.052395601 0.040990546
-0.25869322 0.052395597 0.043534085
-0.18078685 0.052395601 0.047521431
-0.047187164 0.052395601 0.044633977
0.053152084 0.052395605 0.04537629
0.10920697 0.052395597 0.040494092
0.14512652 0.052395605 0.040082995
0.2158974 0.052395601 0.048144229
0.24858813 0.052395597 0.044353232
0.25162959 0.052395605 0.041679516
-0.19133908 -0.059627622 0.053416777
0.29514849 -0.054378659 0.059959691
0.26059517 -0.040765725 0.05506406
0.32348758 -0.038091376 0.05233087
0.33025599 -0.0044771815 0.050254002
-0.21861003 0.018573524 0.050446652
0.26806119 0.018676152 0.050830413
0.38400355 0.0174093 0.055294149
-0.31595266 0.0206146 0.058117241
-0.30506843 0.020614602 0.058981914
-0.22282115 0.0206146 0.054588772
-0.20261833 0.028299056 0.051595449
-0.16475087 0.020614598 0.05057276
-0.14437521 0.0206146 0.057888694
-0.13754496 0.020614598 0.054411605
-0.09978985 0.0206146 0.053937495
-0.073420919 0.0206146 0.056562871
-0.0095161125 0.0206146 0.053102344
0.18825753 0.0206146 0.051781677
0.23672593 0.0206146 0.052444402
0.27941588 0.024326432 0.05033797
-0.17683917 0.03012711 0.057956871
0.48236299 0.045862086 0.056839295
-0.47216654 0.054312602 0.058250681
-0.46184278 0.054312602 0.058869272
-0.45201644 0.054312602 0.057837114
-0.42010725 0.052395597 0.058781575
-0.4059315 0.052395601 0.054991856
-0.32513881 0.052395601 0.059639629
-0.1729103 0.052395601 0.058501713
-0.050694253 0.052395601 0.059837364
0.080331206 0.052395597 0.0550377
0.21086401 0.052395597 0.058538295
0.38919708 0.052395605 0.059814032
0.47296861 0.060210399 0.05133282
-0.16516772 -0.05455596 0.064100102
0.28405324 -0.054006271 0.062723346
-0.21881217 -0.047175877 0.063097425
-0.15744129 -0.049041547 0.064097479
0.26643836 -0.046187744 0.062943213
0.25137419 -0.021241982 0.069783024
0.32961166 -0.026240187 0.062241331
0.33062661 -0.021466289 0.066727228
-0.23245326 -0.016580846 0.066071652
-0.4102518 0.0237845 0.066054359
-0.35458177 0.0237845 0.068709582
-0.30746606 0.020614598 0.067193896
-0.21512124 0.0206146 0.068783171
-0.085412957 0.0206146 0.064334743
-0.017008916 0.0206146 0.067687973
0.00056044757 0.0206146 0.061806589
0.058860086 0.0206146 0.060492571
0.077060103 0.0206146 0.067188486
0.090480551 0.0206146 0.062805951
0.14245714 0.0206146 0.065306455
0.18884008 0.0206146 0.066651672
0.29756626 0.025303319 0.067971297
-0.1827037 0.030899294 0.068306826
-0.17947832 0.030474609 0.06528651
-0.48236299 0.048368767 0.063298404
-0.42535061 0.052395601 0.060287081
-0.38905233 0.052395601 0.064291008
-0.36165583 0.052395597 0.065665253
-0.2470935 0.052395601 0.065630332
-0.19266514 0.052395597 0.060249351
-0.03730762 0.052395597 0.062167831
-0.021186784 0.052395605 0.066748805
-0.001825586 0.052395597 0.063051939
0.022863466 0.052395605 0.065991208
0.083764911 0.052395605 0.067617461
0.10179317 0.052395601 0.065983191
0.11783496 0.052395601 0.069985919
0.2089313 0.052395601 0.069951966
0.41082153 0.052395601 0.061439063
-0.15453237 -0.046382457 0.072881401
0.26878047 -0.047985017 0.075030625
0.25210619 -0.025486343 0.078487627
-0.14161651 -0.01557762 0.076726586
0.26640284 0.01740355 0.07439106
0.38461277 0.0174093 0.070819691
-0.46051031 0.026717151 0.078474373
-0.41618133 0.0237845 0.073138431
-0.38725024 0.0237845 0.078723207
-0.36143917 0.0237845 0.072358057
-0.24661735 0.020614602 0.079906635
-0.16448063 0.0206146 0.072490014
-0.14747652 0.0206146 0.079387642
-0.10804538 0.0206146 0.077489667
-0.080179214 0.0206146 0.073023647
0.079009935 0.0206146 0.076596126
0.097359806 0.0206146 0.074253902
0.11470686 0.0206146 0.073201038
0.2914362 0.0206146 0.077747434
0.30082875 0.0206146 0.070778102
0.31219274 0.020614598 0.070858896
0.32750621 0.0206146 0.07587368
0.34431598 0.0206146 0.072646864
-0.31823847 0.052395601 0.079000816
-0.30505034 0.052395601 0.07579042
-0.18086544 0.052395605 0.075778589
-0.062293321 0.052395605 0.074532382
-0.057296112 0.052395597 0.070348844
-0.047959074 0.052395601 0.079145804
-0.019754052 0.052395601 0.076380171
0.046460405 0.052395601 0.078590289
0.084425345 0.052395601 0.075562038
0.12081441 0.052395601 0.077570155
0.19563754 0.052395601 0.076865345
0.42792931 0.060210399 0.074397691
-0.19905359 -0.058729902 0.081402645
-0.2274511 -0.037480131 0.082268462
0.25456682 0.0026681989 0.080568895
-0.37747622 0.0237845 0.080008104
-0.30744359 0.0206146 0.081160828
-0.20999834 0.025817156 0.085874356
-0.18277453 0.0206146 0.086734474
-0.15899754 0.020134475 0.08917132
-0.11431901 0.0206146 0.083174363
-0.071457714 0.020614602 0.081146732
0.006659288 0.0206146 0.080821313
0.15867773 0.0206146 0.085659787
0.16810709 0.020614602 0.086956576
0.21176177 0.0206146 0.080301501
0.32849067 0.0206146 0.085204378
0.33436471 0.0206146 0.083038747
-0.19916497 0.030040286 0.087090038
0.48236299 0.036569435 0.083757885
-0.42099375 0.046649072 0.089890026
-0.40254405 0.052395597 0.083695024
-0.386904 0.052395601 0.08162871
-0.34035772 0.052395605 0.081957147
-0.32057083 0.052395601 0.08951205
-0.14551759 0.052395601 0.084069103
-0.12389228 0.052395597 0.088919565
-0.071516395 0.052395601 0.080001242
0.0064697266 0.052395601 0.083639987
0.048573531 0.052395601 0.082948357
0.066971198 0.052395597 0.089355029
0.092253551 0.052395597 0.087740228
0.12364496 0.052395605 0.086161181
0.17189735 0.052395601 0.081368171
0.24358177 0.052395601 0.081843957
0.38068593 0.052395601 0.086708158
0.47992304 0.060210399 0.082049944
-0.20901102 -0.055261932 0.091980077
0.25552681 -0.033742856 0.099282168
0.32834324 0.00054499228 0.099673793
-0.22627392 0.012505661 0.097923443
0.42174989 0.0174093 0.091858931
0.43716931 0.0174093 0.099780284
-0.36999261 0.0237845 0.09925124
-0.3065781 0.020614602 0.091255441
-0.27627903 0.0206146 0.094658047
-0.16789961 0.0206146 0.09295658
-0.13491157 0.0206146 0.090800852
-0.024496667 0.0206146 0.092320725
-0.001775153 0.0206146 0.096042216
0.009323895 0.0206146 0.091004208
0.011632994 0.0206146 0.099718601
0.038298428 0.0206146 0.096730471
0.1286509 0.0206146 0.090944938
0.30398703 0.0206146 0.090091825
-0.38701147 0.046386991 0.099707186
-0.396644 0.052309874 0.096603528
-0.28318062 0.052395601 0.097835131
-0.25847033 0.052395601 0.09161707
-0.22749609 0.052395605 0.096094981
-0.18856722 0.052395601 0.094049372
-0.1458786 0.052395601 0.095242828
-0.095710523 0.052395601 0.095241256
-0.064847171 0.052395597 0.098470829
-0.031630471 0.052395601 0.094314337
0.082869396 0.052395597 0.094802663
0.15020815 0.052395601 0.093552202
0.19810411 0.052395597 0.090651825
0.30247501 0.052395601 0.098565482
0.39763188 0.052395597 0.091092601
0.41215211 0.052395605 0.093811348
0.48236299 0.058471479 0.097697482
0.43504062 0.060210399 0.091752797
0.47410172 0.060210399 0.090801507
-0.2102358 -0.055323031 0.10442788
-0.20824622 -0.056021862 0.10168579
0.2582109 -0.037658542 0.10515148
0.25108308 -0.019030027 0.10644205
-0.22576995 0.01475767 0.10902558
0.31803513 0.015555814 0.10693315
0.40705526 0.0174093 0.10451736
0.45807293 0.0174093 0.10888192
0.48236299 0.019874638 0.10432976
-0.30825791 0.0206146 0.1091011
-0.20498794 0.020614598 0.10485977
-0.18675739 0.0206146 0.10724099
-0.14370234 0.0206146 0.10630781
0.056256831 0.0206146 0.10221052
0.073048532 0.020614602 0.10248835
0.12542154 0.0206146 0.10858445
0.18433346 0.0206146 0.10451963
0.20365602 0.0206146 0.10052472
0.21860668 0.0206146 0.10128936
0.31957722 0.0206146 0.10854045
0.32709578 0.0206146 0.10973692
-0.38140923 0.036985718 0.10132565
-0.32425186 0.052395601 0.10982201
-0.3147622 0.052395601 0.10279262
-0.30001393 0.052395601 0.10096114
-0.23345485 0.052395601 0.10532768
-0.15496111 0.052395601 0.10210434
-0.14231919 0.052395601 0.10894164
-0.12561715 0.052395601 0.10606115
-0.043427229 0.052395601 0.10380574
0.042816922 0.052395601 0.10939299
0.064405084 0.052395605 0.10326732
0.072378099 0.052395601 0.10440367
0.11007868 0.052395601 0.10224579
0.14612356 0.052395601 0.10320947
0.16447882 0.052395597 0.10106613
0.23717849 0.052395605 0.1091489
0.24761221 0.052395601 0.10801454
0.25395843 0.052395601 0.10464714
0.33886304 0.052395597 0.10142209
0.3460184 0.052395601 0.10133821
0.39597112 0.052395601 0.10578305
0.40571135 0.052395601 0.10388376
0.4435302 0.060210399 0.10901422
0.45600945 0.060210399 0.10428677
-0.20929356 -0.056254685 0.11628471
-0.17037301 -0.054799125 0.11518104
-0.2222352 -0.044993304 0.11444005
-0.21938734 -0.03048576 0.117048
0.2872397 -0.038909543 0.114712
0.30929449 -0.031783339 0.114712
-0.23451269 -0.029081525 0.11418207
0.28975004 -0.024950279 0.114712
-0.14628068 -0.011181586 0.1166549
0.2710405 -0.011406316 0.114712
0.31513447 -0.011971919 0.114712
-0.21930666 -0.0093040243 0.117048
-0.19055051 -0.0064604906 0.11704801
-0.17115054 -0.00040732435 0.11704801
-0.15454832 -0.0038436004 0.117048
-0.14648327 -0.0076250015 0.11424419
-0.22683805 0.0043379096 0.117048
-0.20111009 0.002816696 0.11704801
-0.18555048 0.0038233995 0.11704801
0.28095222 0.0056576706 0.114712
-0.17820084 0.015730835 0.117048
0.27949691 0.015412636 0.114712
0.30361879 0.011434766 0.114712
0.45209497 0.0174093 0.1140864
-0.3304767 0.0237845 0.11445578
-0.28509828 0.023009859 0.11470899
-0.19987887 0.0206146 0.11490209
-0.13446136 0.027724221 0.117048
-0.10079317 0.0206146 0.11646933
0.019256797 0.029769886 0.117048
0.084507711 0.0206146 0.11112055
0.14038774 0.0206146 0.11450473
0.19420706 0.0206146 0.11042421
0.21094866 0.0206146 0.11442784
0.23095328 0.020614602 0.11666094
0.26288581 0.025151217 0.117048
0.28876862 0.025870129 0.1140593
0.34821928 0.028333606 0.117048
0.36690113 0.022864077 0.11704801
0.45208749 0.026619408 0.11704801
-0.19321018 0.034637269 0.117048
-0.01188159 0.039680704 0.117048
0.0037183901 0.039024003 0.117048
0.020664673 0.036031216 0.117048
0.24767163 0.036395706 0.117048
0.25154388 0.038204413 0.117048
0.30060583 0.038666852 0.117048
0.37199518 0.0302728 0.117048
0.40450245 0.035906307 0.117048
-0.32027072 0.048807312 0.117048
-0.30855355 0.043132082 0.11704801
-0.26273853 0.049062662 0.117048
-0.24582952 0.048003808 0.117048
-0.21750483 0.043635406 0.11704801
-0.20499068 0.047769606 0.11704801
-0.11619528 0.046571702 0.117048
-0.075016506 0.040389095 0.117048
-0.063484117 0.040636625 0.117048
0.011628307 0.045843735 0.117048
0.033939056 0.040550962 0.11704801
0.088299409 0.048293866 0.117048
0.090570122 0.043117903 0.117048
0.2732203 0.045736279 0.117048
0.47762197 0.044900067 0.117048
-0.34441692 0.052395601 0.11137424
-0.21267228 0.050012991 0.117048
-0.18873999 0.051465508 0.117048
-0.06116987 0.051119067 0.117048
0.012395814 0.052395601 0.112259
0.12272098 0.052395605 0.11269642
0.15902302 0.052395601 0.111713
0.45578504 0.060210399 0.1144063
