# .PCD v0.7 - Point Cloud Data file format
VERSION 0.7
FIELDS x y z
SIZE 4 4 4
TYPE F F F
COUNT 1 1 1
WIDTH 911
HEIGHT 1
VIEWPOINT 0 0 0 1 0 0 0
POINTS 911
DATA ascii
0.30112922 -0.004934588 -0.14159921
-0.36630708 0.0025882428 -0.14368524
-0.35156357 0.0059584733 -0.1456264
-0.32478154 0.00044548931 -0.14808261
-0.29803041 -0.0028898302 -0.13521968
0.28258365 -0.0064621898 -0.13187778
0.34075692 -0.0064621903 -0.13370706
-0.25155813 0.0015730318 -0.13836616
-0.2001138 0.0050014323 -0.13288814
0.24397539 0.0064621898 -0.13118441
0.29701251 0.0064621898 -0.13010645
0.30923533 0.0064621898 -0.13943048
0.32737523 0.0019582135 -0.13814291
0.35372898 0.0064621898 -0.13673624
0.36445734 0.0064621898 -0.13593623
0.38521799 0.0058884658 -0.13250093
0.39574152 0.0064621903 -0.13241604
-0.39994842 -0.0064621898 -0.12803832
-0.38344306 -0.0064621894 -0.12977396
-0.35989586 -0.0064621898 -0.12338165
-0.34707797 -0.0064621903 -0.12056272
-0.31631911 -0.0064621898 -0.12285279
-0.30531433 -0.0064621894 -0.12063289
-0.25551492 -0.0064621903 -0.12539887
-0.2036735 -0.0064621898 -0.12954491
-0.029170696 -4.5634224e-05 -0.12329588
-0.013974382 -0.0054857098 -0.12310381
0.075636849 -0.0062622493 -0.12378472
0.16494557 -0.0049511418 -0.12765403
0.22428645 -0.0064621903 -0.12900522
0.23408464 -0.0064621898 -0.12113241
0.25847864 -0.0064621903 -0.12922524
0.26378512 -0.0064621898 -0.12641375
0.28781879 -0.0064621898 -0.12509097
0.32800922 -0.0064621898 -0.12648208
0.33901891 -0.0064621894 -0.12854205
0.35137701 -0.0056751538 -0.12512143
0.36141571 -0.0064621903 -0.1273194
0.37634879 -0.0064621898 -0.12113244
0.39534038 -0.0064621894 -0.1211523
0.40342945 -0.0047177942 -0.12478574
-0.40315798 0.00091926311 -0.12862639
-0.38906139 0.0064621898 -0.12262263
-0.36325455 0.0064621898 -0.12130909
-0.29786363 0.0064621898 -0.12476166
-0.23177497 0.0064621894 -0.12378156
-0.074189857 0.0064621898 -0.12351046
-0.065154329 0.0040931157 -0.12424685
0.001137973 0.0011542407 -0.1229128
0.046828847 0.003533755 -0.12323269
0.24563134 0.0064621894 -0.12853272
0.39437351 0.0064621898 -0.12513743
0.40545908 0.0064621903 -0.12160283
-0.32872003 -0.0041819289 -0.11146642
-0.25272045 -0.0064621903 -0.11669208
-0.24795738 -0.0064621903 -0.11882409
-0.095110551 -0.0064621898 -0.119712
-0.045407873 -0.0064621898 -0.11088525
0.0055802907 -0.0064621898 -0.11319301
0.10501934 -0.0064621898 -0.11043863
0.13859434 -0.0064621903 -0.11892861
0.24883646 -0.0064621894 -0.11188123
0.35835138 -0.0064621898 -0.11740978
0.36303005 -0.0064621898 -0.11756868
0.38731652 -0.0064621898 -0.11476171
-0.42531532 0.00074724411 -0.11162549
-0.38867652 0.0064621898 -0.11995704
-0.37130401 0.0064621898 -0.11397166
-0.27652678 0.0064621898 -0.1180489
-0.26533026 0.0064621898 -0.11493775
-0.25083348 0.0064621898 -0.11142988
-0.24876264 0.0064621898 -0.11772889
-0.16603512 0.0064621903 -0.11323997
-0.10206115 0.0064621894 -0.11408544
-0.062622674 0.0064621894 -0.11447762
0.11181331 0.0064621898 -0.11816856
0.26091799 0.0064621898 -0.11581605
0.33130309 0.0064621898 -0.11706835
-0.40337777 -0.0056069223 -0.10388544
-0.36719 -0.0052304994 -0.10626627
-0.3389155 -0.0064621898 -0.10915649
-0.27889529 -0.0064621898 -0.10047655
-0.26087549 -0.0064621898 -0.10723687
-0.2434656 -0.0064621898 -0.10219305
0.00039405643 -0.0064621894 -0.10062622
0.095674634 -0.0064621903 -0.10923077
0.20063321 -0.0064621898 -0.10411815
0.28428262 -0.0064621898 -0.10029022
0.36817849 -0.0064621903 -0.10134612
0.41238862 -0.0064621898 -0.10780068
0.43184829 -0.00064921274 -0.10653362
-0.43285292 0.0064621903 -0.10399203
-0.39643624 0.0064621898 -0.10170013
-0.35511872 0.0064621898 -0.10231137
-0.29023689 0.0064621898 -0.10734143
-0.28018129 0.0064621898 -0.10412587
-0.27466041 0.0064621898 -0.10595577
-0.19617531 0.0064621898 -0.10432494
-0.18532932 0.0064621898 -0.10902541
-0.15055078 0.0064621903 -0.10776296
-0.12004022 0.0064621903 -0.10504499
-0.10110429 0.0064621894 -0.10489933
-0.0078434665 0.0064621898 -0.10876636
0.012474647 0.0064621898 -0.10283243
0.065970585 0.0064621898 -0.10644891
0.1998692 0.0064621898 -0.10792666
0.22414346 0.0064621898 -0.10798088
0.25340745 0.0064621898 -0.10965181
0.39751408 0.0064621898 -0.1058583
-0.42730328 -0.0064621894 -0.09256804
-0.39112213 -0.0064621894 -0.099062651
-0.30280918 -0.0064621894 -0.094518736
-0.28089464 -0.0064621903 -0.09917295
-0.20228657 -0.0064621898 -0.092093863
-0.16398227 -0.0064621903 -0.097953744
-0.12513539 -0.0064621898 -0.091861822
-0.098777749 -0.0064621898 -0.09503191
-0.031934641 -0.0064621898 -0.096598826
0.0043737907 -0.0064621898 -0.091009423
0.20721975 -0.0064621894 -0.092010394
0.22727503 -0.0064621898 -0.094335012
0.24850084 -0.0064621898 -0.097396009
0.2942889 -0.0064621894 -0.092502095
0.33435205 -0.0064621898 -0.099795222
0.35777882 -0.0064621894 -0.092193536
0.42532986 -0.0064621894 -0.091282099
-0.43382001 0.003530785 -0.099289849
-0.41804212 0.0064621898 -0.093623765
-0.403036 0.0050257063 -0.094145797
-0.35417074 0.0064621903 -0.094229259
-0.33520046 0.0064621898 -0.099003255
-0.31455106 0.0064621898 -0.098213844
-0.28107572 0.0064621898 -0.092198052
-0.20812145 0.0027925957 -0.095920809
-0.091477878 0.0064621898 -0.090314001
-0.062990755 0.0064621898 -0.095614478
0.0076034535 0.0064621898 -0.091277264
0.37698412 0.0064621894 -0.094055817
0.38630944 0.0064621903 -0.093394592
0.44514394 0.0064621903 -0.091594979
-0.33404389 -0.0064621898 -0.082589068
-0.2747831 -0.0064621898 -0.086894765
-0.19181158 -0.0064621894 -0.087398812
-0.14553873 -0.0064621898 -0.080853745
0.019867733 -0.0064621898 -0.085870989
0.047796018 -0.0064621894 -0.085236587
0.087641269 -0.0064621894 -0.085554823
0.12079293 -0.0064621894 -0.081655703
0.17659841 -0.0064621898 -0.085611664
0.20858203 -0.0064621898 -0.085832991
0.22751391 -0.0064621903 -0.080268592
0.26553816 -0.0064621903 -0.085518032
0.27668759 -0.0064621898 -0.080626801
0.35081476 -0.0064621898 -0.081770666
0.39478588 -0.0064621894 -0.08796145
0.41780877 -0.0064621894 -0.087468848
-0.44575047 0.0043992433 -0.089551419
-0.39370611 0.0064621898 -0.089604676
-0.32740682 0.0064621894 -0.083878562
-0.17103644 0.0064621898 -0.085658908
-0.12133798 0.0064621894 -0.086021498
-0.10253175 0.0064621898 -0.083242036
-0.063461341 0.0064621903 -0.085067041
0.11866894 0.0064621898 -0.086864054
0.13965569 0.0064621898 -0.084079206
0.18153356 0.0064621898 -0.088984817
0.21494663 0.0064621898 -0.088647656
0.23610823 0.0064621903 -0.084517889
0.24729452 0.0064621898 -0.080260038
0.29527727 0.0064621894 -0.088698685
0.3116757 0.0064621894 -0.089635678
0.33374521 0.0064621903 -0.084140003
0.38521799 0.0044467999 -0.082683422
0.39031392 0.0064621898 -0.080840193
-0.45781213 -0.0032876246 -0.073418438
-0.43382001 -0.0017553323 -0.078880146
-0.39412779 -0.0064621903 -0.070511408
-0.36340028 -0.0064621894 -0.075705163
-0.27878582 -0.0064621898 -0.070431665
0.075975835 -0.0064621898 -0.075021453
0.11132298 -0.0064621898 -0.072758205
0.14495298 -0.0064621898 -0.077502646
0.21035969 -0.0064621898 -0.072647035
0.23981413 -0.0064621898 -0.070470221
0.36835945 -0.0064621894 -0.076085694
0.44162202 -0.0027116137 -0.074387118
-0.40739432 0.0064621898 -0.077231668
-0.38775676 0.0064621898 -0.077705756
-0.33836198 0.0064621898 -0.071998753
-0.22310297 0.0064621903 -0.077258416
-0.1165935 0.0064621894 -0.074953079
0.13116036 0.0064621898 -0.070162632
0.15089495 0.0064621898 -0.079197109
0.1621069 0.0064621898 -0.071706071
0.18486153 0.0024118046 -0.075850666
0.19261307 0.0064621898 -0.075007014
0.24571489 0.0064621903 -0.074798599
0.26891646 0.0064621894 -0.078483269
0.33631253 0.0064621898 -0.076902948
0.39455506 0.0064621894 -0.071261019
0.42268461 0.0064621903 -0.077473998
-0.44919598 -0.0064621898 -0.067956686
-0.43382001 -0.00064354262 -0.061644506
-0.40773293 -0.0064621898 -0.067264959
-0.3871631 -0.0064621898 -0.068922684
-0.36787009 -0.0045396076 -0.068602495
-0.33086038 -0.0064621898 -0.062391061
-0.32122266 -0.0064621903 -0.060062651
-0.29988283 -0.0064621898 -0.061613407
-0.23562367 -0.0064621903 -0.069987006
-0.067415819 -0.0064621898 -0.06336356
0.081557892 -0.0064621894 -0.060086299
0.15905005 -0.0064621898 -0.061320666
0.22741166 -0.0064621894 -0.063337445
0.24883431 -0.0064621898 -0.069023095
0.3396017 -0.0064621898 -0.061752871
0.39548615 -0.0064621894 -0.064205766
0.42198372 -0.0064621898 -0.068392262
0.46107623 -0.0064621898 -0.060568091
-0.41000399 0.0064621898 -0.064101443
-0.28434604 0.0064621903 -0.06313619
-0.27504575 0.0064621894 -0.065251239
-0.13877651 0.0030979177 -0.065610379
-0.11470936 0.0064621898 -0.069916204
-0.080306396 0.0064621894 -0.066936038
0.022182155 0.0064621898 -0.067132562
0.054213542 0.0064621894 -0.06784407
0.11456303 0.0064621903 -0.068422988
0.12072386 0.0064621898 -0.063850261
0.15864618 0.0064621898 -0.066468261
0.32513705 0.0064621898 -0.061232995
0.46367294 0.0059128935 -0.06105696
-0.36407998 -0.0064621903 -0.055545062
-0.33515957 -0.0064621898 -0.052135542
-0.31088567 -0.0064621898 -0.054189879
-0.26332119 -0.0064621894 -0.057664853
-0.25212017 -0.0064621898 -0.056929629
-0.19982012 -0.0064621894 -0.051336605
-0.18584451 -0.0064621898 -0.052598201
0.035425697 -0.0064621898 -0.05836891
0.12687966 -0.0055370997 -0.050506976
0.15292734 -0.0064621898 -0.056301728
0.20510979 -0.0064621898 -0.05374638
0.21160552 -0.0064621903 -0.055449236
0.26887116 -0.0064621903 -0.053120088
0.29142895 -0.0064621898 -0.057757437
0.35375923 -0.0064621894 -0.057514139
0.44956151 -0.0064621898 -0.05222594
0.45913735 -0.0064621898 -0.050772604
-0.44931436 0.0064621903 -0.057301875
-0.32872 0.006304794 -0.054699317
-0.24826774 0.0064621898 -0.051969517
-0.13132127 0.0064621898 -0.055853248
-0.12422349 0.0060462863 -0.059249301
-0.095044717 0.0064621903 -0.058376044
-0.080519736 0.0064621903 -0.053051844
0.12911339 0.0022711339 -0.051483355
0.19993049 0.0064621903 -0.055568658
0.20014554 0.0064621898 -0.058604028
0.21197002 0.0064621898 -0.058018599
0.22270304 0.0064621898 -0.053912483
0.25243863 0.0064621898 -0.059107285
0.28024578 0.0064621903 -0.058592033
0.29914936 0.0064621894 -0.057297431
0.33491319 0.0064621898 -0.057957266
0.36075589 0.0064621894 -0.057020973
-0.44530404 -0.0064621903 -0.041107927
-0.40688926 -0.0064621903 -0.041126557
-0.31978169 -0.0064621898 -0.049529105
-0.16539221 -0.0064621903 -0.041224465
-0.15669359 -0.0064621898 -0.04863447
-0.1398077 -0.0064621898 -0.047941085
-0.030267453 -0.0064621898 -0.046514522
0.0082275327 -0.0064621898 -0.04703214
0.071376599 -0.0064621898 -0.043484952
0.12063462 -0.0032042372 -0.047777288
0.15030098 -0.0064621903 -0.040276583
0.19876732 -0.0064621898 -0.041608281
0.23330733 -0.0064621894 -0.040983371
0.29799896 -0.0064621898 -0.047440208
0.38521799 -0.0047138343 -0.046256982
0.4088518 -0.0064621898 -0.047133159
0.43512261 -0.0064621903 -0.043430615
-0.42946124 0.0064621894 -0.048741419
-0.40463084 0.0064621898 -0.044665061
-0.39834267 0.0064621903 -0.046261486
-0.33477968 0.0064621894 -0.042967632
-0.2682043 0.0064621894 -0.04420704
-0.23712273 0.0064621903 -0.046167966
-0.20523153 0.0064621903 -0.041730478
-0.19336987 0.0064621898 -0.047314055
-0.14806917 0.0064621898 -0.048107993
-0.11349059 0.0064621894 -0.048204452
-0.097532816 0.0064621898 -0.04805655
-0.042080037 0.0064621903 -0.049460031
-0.019690223 0.0064621894 -0.046298824
0.012412668 0.0064621898 -0.049890913
0.19055222 0.0064621898 -0.048091207
0.2375077 0.0064621898 -0.049014837
0.2706804 0.0064621894 -0.047485176
0.32645631 0.0064621898 -0.040941447
0.35139853 0.0064621903 -0.047292817
0.36242285 0.0064621898 -0.045319531
0.37899137 0.0064621894 -0.043375012
0.43683943 0.0064621898 -0.049237326
0.46110299 0.0050998372 -0.04293523
-0.47228897 -0.0037170942 -0.036213849
-0.4287639 -0.0064621898 -0.036002517
-0.41456646 -0.0064621903 -0.038142461
-0.33113641 -0.0064621903 -0.033419713
-0.26706034 -0.0064621903 -0.034876853
-0.23043165 -0.0064621898 -0.034356382
-0.2267327 -0.0064621903 -0.035038777
0.026948188 -0.0064621903 -0.033738926
0.042687956 -0.0064621898 -0.030704822
0.099722043 -0.0064621903 -0.038461775
0.46110299 -0.0015734477 -0.037648283
-0.47262534 0.00052596116 -0.035914093
-0.41255546 0.0064621894 -0.037108526
-0.3935706 0.0064621898 -0.035555631
-0.31171528 0.0064621898 -0.037230898
-0.20390525 0.0064621898 -0.038864385
-0.16656962 0.0064621894 -0.035844482
-0.074705653 0.0064621898 -0.039675038
-0.046465516 0.0064621898 -0.037237946
-0.027645865 0.0064621898 -0.036550909
0.016278725 0.0064621898 -0.039668918
0.035600983 0.0064621898 -0.037337873
0.091270074 0.0015021011 -0.034942176
0.12796335 0.0064621894 -0.030027052
0.18666072 0.0064621898 -0.034707058
0.28620273 0.0064621898 -0.034911826
0.333395 0.0064621903 -0.036936227
0.36111987 0.0064621894 -0.031278823
0.41585699 0.0062117996 -0.032869805
0.46110299 0.0021295189 -0.037733838
-0.40739048 -0.0064621898 -0.025855772
-0.12546849 -0.0064621894 -0.022831306
-0.070726432 -0.0064621898 -0.022663582
0.02406764 -0.0064621903 -0.025432767
0.045945298 -0.0064621898 -0.028063482
0.11468698 -0.0064621894 -0.021224339
0.27817118 -0.0064621898 -0.025343068
0.32439175 -0.0064621903 -0.020815276
0.34768265 -0.0064621903 -0.027336668
0.40441725 -0.0064621903 -0.024078844
0.41747862 -0.0064621898 -0.020620424
-0.45372754 0.0064621898 -0.022701304
-0.38399807 0.0064621898 -0.027671926
-0.34500951 0.0064621903 -0.029246621
-0.28040513 0.0064621898 -0.028384395
-0.25572312 0.0064621903 -0.025855098
-0.24444014 0.0064621894 -0.027921602
-0.22431791 0.0064621898 -0.026769973
-0.20139529 0.0064621898 -0.024229338
-0.12249541 0.0064621898 -0.02025011
-0.071264923 0.0064621898 -0.02108451
-0.057385214 0.0064621898 -0.029770577
-0.023252014 0.0064621898 -0.024052713
-0.0071089859 0.0064621898 -0.024701798
0.037456982 0.0064621898 -0.021551875
0.2031585 0.0064621894 -0.029810525
0.22534677 0.0064621894 -0.022519806
0.23884363 0.0064621898 -0.021648496
0.30264893 0.0064621903 -0.022889797
0.31360871 0.0064621898 -0.029268119
0.34982201 0.0064621898 -0.022160638
0.35849255 0.0064621898 -0.024812758
0.42284095 0.0064621898 -0.024050927
-0.403036 -0.004909758 -0.014742453
-0.39181399 -0.0064621898 -0.019390758
-0.36598665 -0.0064621898 -0.013490114
-0.30012655 -0.0064621898 -0.015421647
-0.27738148 -0.0064621894 -0.017355848
-0.245074 -0.0064621898 -0.019070953
-0.19579023 -0.0064621898 -0.017621357
-0.17172842 -0.0064621898 -0.010744006
-0.12545827 -0.0064621903 -0.015430929
-0.091607332 -0.0064621898 -0.018149337
-0.019326504 -0.0064621898 -0.012479912
0.025420686 -0.0064621898 -0.015104695
0.064222887 -0.0064621898 -0.018175419
0.084621534 -0.0064621898 -0.011719285
0.16044095 -0.0064621898 -0.017837716
0.23568541 -0.0064621898 -0.012544502
0.25665221 -0.0064621903 -0.013827013
0.29756278 -0.0064621894 -0.012040246
0.30578244 -0.0064621898 -0.019738857
0.32205743 -0.0064621898 -0.019168936
0.33908284 -0.0064621894 -0.014808595
-0.45553261 0.0064621894 -0.012585729
-0.3844251 0.0064621898 -0.013189964
-0.33540881 0.0064621898 -0.012749303
-0.3158372 0.0064621898 -0.017859593
-0.25534111 0.0064621903 -0.013494641
-0.018189281 0.0017507283 -0.012902118
-0.0035425136 0.0064621903 -0.012553928
0.0023532372 0.0064621898 -0.016119428
0.054575372 0.0064621898 -0.016063638
0.14488858 0.0064621898 -0.018503422
0.23027086 0.0064621898 -0.015980968
0.4008441 0.0064621898 -0.019205306
-0.47200808 -0.0064621898 -0.0069823824
-0.44734317 -0.0064621898 -0.0067121089
-0.37197351 -0.0064621898 -0.0098462366
-0.30984986 -0.0064621898 -0.0090303123
-0.086902022 -0.0064621898 -0.0024208657
-0.00057432614 -0.0049739461 -0.0052027144
0.047095686 -0.0064621903 -0.0091645028
0.1515592 -0.0064621898 -0.00010208972
0.17794178 -0.0064621903 -0.0082800686
0.18883121 -0.0064621894 -0.0013371818
0.2110355 -0.0064621898 -0.0049397461
0.31345963 -0.0064621898 -0.0055009648
0.46106261 -0.0064621898 -0.0092970077
-0.32133937 0.0064621898 -0.00993999
-0.29356956 0.0064621903 -0.0082987621
-0.12075692 0.0064621903 -0.0050355201
-0.10350727 0.0064621894 -0.0095676798
-0.079665735 0.0064621898 -0.0018776208
0.082959101 0.0064621898 -0.00098414964
0.17434926 0.0064621898 -0.0093255844
0.18907315 0.0064621894 -0.00037269294
0.22265774 0.0064621903 -0.0047124773
0.2752389 0.0064621898 -0.00033795481
0.38521799 0.0027906625 -0.0053697899
-0.47479349 -0.0019526964 0.0027575926
-0.46527824 -0.0064621903 0.0094497781
-0.42984664 -0.0064621898 0.0014987588
-0.4145357 -0.0064621903 0.0015575774
-0.17091696 -0.0064621898 0.003009574
-0.16441102 -0.0064621898 0.0026395849
-0.058228817 -0.0064621894 0.0067261895
0.007099228 -0.0044254651 0.0018486354
0.032764919 -0.0064621898 0.0088758729
0.16274473 -0.0064621898 0.00675283
0.20302871 -0.0064621898 0.0046937317
0.2762171 -0.0064621903 0.0026881509
0.34276679 -0.0064621898 0.0075537488
0.35137701 -0.0036214241 0.0084956214
0.42479822 -0.0064621898 0.00037109293
0.44162199 -0.0010239793 0.0076833181
0.45972171 -0.0064621898 0.0058312085
-0.29355085 0.0064621898 0.0053222552
-0.11322622 0.0064621903 0.0033416487
-0.10056567 0.0064621898 0.0096867932
0.013912491 0.0048817499 0.0010796195
0.06318561 0.0064621903 0.0089066345
0.091845781 0.0064621903 0.0058520269
0.11234359 0.0064621903 0.009743575
0.12306756 0.0064621903 0.0047682393
0.16251151 0.0064621898 0.0085465638
0.26494616 0.0064621903 0.0044313315
0.3331311 0.0064621903 0.0053315908
0.34812894 0.0064621898 0.0080687543
0.36272234 0.0064621898 0.009842176
0.41241145 0.0064621894 0.0097207539
0.42752913 0.0064621898 0.0055688396
0.43863854 0.0064621903 0.0060463101
0.4719381 0.0064621898 0.0021372605
-0.45743999 -0.00095287268 0.010556316
-0.44645691 -0.0064621894 0.018188518
-0.43381998 -0.0020676507 0.017539486
-0.33364367 -0.0064621898 0.018272271
-0.17190182 -0.0064621898 0.010143154
-0.12890717 -0.0064621898 0.016632268
-0.064420298 -0.0064621903 0.0142005
0.048655879 -0.0064621898 0.019425942
0.063026525 -0.0064621898 0.014148943
0.1299286 -0.0064621898 0.01968855
0.22698869 -0.0064621898 0.010436654
0.2480059 -0.0064621898 0.019838087
0.37076998 -0.0064621898 0.010453824
0.38938609 -0.0064621894 0.018342178
0.41823864 -0.0064621894 0.017879557
-0.403036 0.0019879993 0.019377422
-0.39712232 0.0064621894 0.015405551
-0.356309 0.0064621898 0.01108421
-0.34486407 0.0064621898 0.011165154
-0.33492818 0.0064621898 0.0154671
-0.31044635 0.0064621894 0.019983698
-0.29407001 0.0064621903 0.014565922
-0.27370435 0.0064621898 0.012717279
-0.26449591 0.0064621898 0.018748343
-0.17389394 0.0064621903 0.017087404
-0.116397 0.0064621894 0.019903179
-0.04308369 0.0064621898 0.013752693
0.054260556 0.0064621898 0.019652186
0.15111119 0.0064621898 0.019220073
0.1988453 0.0064621898 0.012343526
0.22316869 0.0064621898 0.013066328
0.23509873 0.0064621898 0.014226016
0.26062736 0.0064621898 0.015423333
0.34246489 0.0064621894 0.016951844
0.43780029 0.0064621898 0.018432477
0.46095288 0.0064621898 0.015331769
-0.472289 -0.0049480726 0.025915517
-0.39858836 -0.0064621903 0.021391829
-0.37626916 -0.0064621894 0.028866947
-0.30584401 -0.0064621898 0.029832788
-0.29600471 -0.0064621898 0.024570905
-0.27432561 -0.0064621898 0.029659782
-0.23333801 -0.0064621898 0.027628716
-0.19610128 -0.0064621903 0.02019861
-0.17423449 -0.0064621898 0.020971032
-0.14655614 -0.0064621898 0.024954371
-0.044097558 -0.0027541434 0.02422655
0.035690956 -0.0064621898 0.025602415
0.072895512 -0.0064621898 0.020912068
0.15655106 -0.0064621894 0.020440148
0.1937566 -0.0064621894 0.026307706
0.21971017 -0.0064621898 0.024101958
0.29232225 -0.0064621903 0.021098029
0.38521799 -0.00049784087 0.024644114
0.41585699 -0.0039698835 0.028746743
-0.45743999 0.005222518 0.026017904
-0.40568823 0.0064621894 0.023948502
-0.39592171 0.0064621898 0.02273747
-0.37847537 0.0064621898 0.023948338
-0.33536518 0.0064621894 0.026745096
-0.32075012 0.0064621898 0.020394059
-0.29955202 0.0064621894 0.029199719
-0.27299377 0.0064621903 0.029140208
-0.25469941 0.0064621894 0.0279912
-0.22151157 0.0064621898 0.023706976
-0.17316854 0.0064621894 0.02900078
-0.15463009 0.0064621898 0.024940373
-0.1402507 0.0064621898 0.025706882
-0.12121034 0.0064621894 0.029683935
-0.040081777 0.0064621898 0.021202084
0.059914224 0.0064621894 0.024980171
0.087472402 0.0064621903 0.025400434
0.10494177 0.0064621898 0.02136196
0.1726518 0.0064621894 0.022285193
0.21748705 0.0064621898 0.029012231
0.22603117 0.0064621894 0.029573103
0.23431927 0.0064621898 0.024819242
0.34995493 0.0064621903 0.021154307
0.40845478 0.0064621898 0.023491547
0.44607916 0.0064621898 0.029564228
0.473234 0.0015612666 0.025535623
-0.2874189 -0.0064621894 0.03359995
-0.22009528 -0.0064621898 0.039865188
-0.10456966 -0.0064621898 0.036200296
-0.090925761 -0.0064621894 0.037583202
-0.0856812 -0.0064621903 0.035931975
0.009154126 -0.0064621898 0.031863529
0.022673927 -0.0064621898 0.032841999
0.17746571 -0.0064621898 0.034141943
0.20010592 -0.0064621898 0.035187982
0.27914566 -0.0064621898 0.038956814
0.32864484 -0.0064621894 0.031221736
0.33300984 -0.0064621894 0.036154184
0.35981318 -0.0064621903 0.033834148
0.36565906 -0.0064621898 0.037973411
0.3755655 -0.0064621898 0.034145892
0.38214839 -0.0064621898 0.033198696
0.44162202 -0.0038621365 0.038616356
-0.472289 0.0030157238 0.037816364
-0.43366632 0.0064621898 0.037683107
-0.31855381 0.0064621894 0.036065195
-0.23645109 0.0064621894 0.038967878
-0.18689242 0.0064621898 0.037876174
-0.13388085 0.0064621898 0.035309851
0.07708922 0.0064621898 0.031551234
0.094769344 0.0047739474 0.036471695
0.12443047 0.0064621894 0.030454231
0.1677316 0.0064621903 0.038533591
0.24741462 0.0064621898 0.038595758
0.2653594 0.0064621898 0.035576429
0.29177934 0.0064621903 0.038867835
0.30790281 0.0064621903 0.038618881
0.46798876 0.0064621898 0.039591853
-0.45978242 -0.0064621898 0.04092598
-0.36719 -0.0008987615 0.042529471
-0.23235112 -0.0064621898 0.041755583
-0.21701796 -0.0064621903 0.043642268
-0.14767018 -0.0064621894 0.047826394
-0.080235966 -0.0034675 0.040022518
-0.074117579 -0.0064621894 0.040656913
-0.062110178 -0.0064621903 0.040663533
-0.059539381 -0.0064621898 0.049651116
-0.029679626 -0.0064621898 0.043149136
0.038984135 -0.0064621898 0.043034829
0.061949886 -0.0064621903 0.040317267
0.07481043 -0.0064621898 0.040327068
0.14481145 -0.0064621894 0.046586502
0.29551324 -0.0064621898 0.041072562
0.31115013 -0.0064621894 0.043315861
0.32186371 -0.0064621898 0.043765757
0.35137701 -0.0013173791 0.043733593
0.36124539 -0.0064621894 0.041112877
0.38521799 -9.413925e-06 0.04774851
0.44241601 -0.0064621898 0.042937506
-0.35336852 0.0064621894 0.040061474
-0.34590644 0.0064621898 0.048154026
-0.30967319 0.0064621898 0.040215436
-0.29414338 0.0064621898 0.040168665
-0.20791987 0.0064621894 0.046233211
-0.1305588 0.0064621898 0.044519
-0.083148055 0.0064621898 0.049965866
-0.061368324 0.0064621903 0.048416622
-0.011818584 0.0064621898 0.043791223
0.12732163 0.0064621894 0.049594108
0.1701216 0.0064621894 0.047376141
0.34337524 0.0064621894 0.047924086
0.35137701 0.0060493583 0.04906803
0.43036145 0.0064621898 0.042214498
-0.39285174 -0.0064621894 0.059810158
-0.37620991 -0.0064621898 0.059041306
-0.36591649 -0.0064621903 0.052970074
-0.32470092 -0.0064621894 0.054343875
-0.21882927 -0.0064621903 0.05554691
-0.18717401 -0.0064621898 0.051172286
-0.17168985 -0.0064621898 0.052405071
-0.16168919 -0.0064621898 0.050063092
-0.15373558 -0.0064621903 0.056450035
-0.1437313 -0.0064621898 0.052300319
-0.11983443 -0.0064621898 0.054605894
-0.090063542 -0.0064621903 0.056531735
-0.076565936 -0.0064621894 0.059368595
-0.03879245 -0.0064621898 0.05409418
-0.015289833 -0.0064621898 0.057935718
0.01285486 -0.0064621898 0.057163499
0.11787543 -0.0064621898 0.051634282
0.12527618 -0.0064621898 0.051107816
0.16618998 -0.0064621898 0.057830431
0.22486317 -0.0064621898 0.051642727
0.29111439 -0.0064621903 0.05979868
0.30732721 -0.0064621894 0.056122605
0.3262043 -0.0064621898 0.057492554
0.34794027 -0.0064621894 0.052664258
0.38521796 -0.00031897321 0.058276966
0.44162196 -0.00037563185 0.054288402
-0.45845097 0.0064621898 0.055389691
-0.39874333 0.0064621894 0.057382118
-0.31281745 0.0064621903 0.05076747
-0.17918158 0.0064621903 0.054402836
-0.074938111 0.0064621894 0.054100908
-0.05726907 0.0064621898 0.052908279
-0.025594682 0.0064621903 0.058781251
-0.019375147 0.0064621898 0.054839153
0.091018841 0.0064621903 0.052061342
0.12878272 0.0050695376 0.051338829
0.13530448 0.0029338168 0.054189462
0.14279106 0.0064621903 0.056998752
0.23023057 0.0064621894 0.050655495
0.30262065 0.0064621898 0.056099959
0.3381235 0.0064621894 0.056375846
0.38752297 0.0057989042 0.054210655
-0.43962008 -0.0064621898 0.068368524
-0.3613458 -0.0064621898 0.065971583
-0.19686225 -0.0064621898 0.069555707
-0.078684099 -0.0064621898 0.069849938
-0.057549458 -0.0064621898 0.066533387
0.049610101 -0.0064621898 0.064651497
0.072502628 -0.0064621898 0.069884844
0.16154711 -4.8435526e-05 0.065660022
0.18534678 -0.0064621898 0.06408231
0.20913355 -0.0064621898 0.063043848
0.22385889 -0.0064621903 0.069972821
0.24568307 -0.0064621894 0.068855263
0.31354573 -0.0064621898 0.06437853
0.32086396 -0.0064621898 0.067683004
0.34362739 -0.0064621903 0.069862634
0.38210374 -0.0064621894 0.063761324
0.44162196 -0.0017387127 0.067388363
-0.46002421 0.0038556377 0.068078361
-0.45743996 0.0021799463 0.064212061
-0.32872 0.0011800848 0.068155415
-0.24221496 0.0064621903 0.069077343
-0.22589371 0.0064621903 0.067969963
-0.18515427 0.0064621903 0.069066197
-0.14267589 0.0064621898 0.061094951
-0.12986639 0.0029083514 0.061715789
-0.094269074 0.0064621898 0.064431079
-0.071824066 0.0064621903 0.061586019
-0.068036705 0.0064621898 0.061302923
-0.039278761 0.0064621898 0.066823184
-0.0019523164 0.0064621903 0.068910815
0.025566317 0.0064621898 0.060020521
0.03573703 0.0064621898 0.067679048
0.05775816 0.0064621903 0.061004713
0.091186151 0.0064621898 0.068917297
0.17434905 0.0064621898 0.065719284
0.20180683 0.0064621903 0.068382598
0.39914501 0.0064621898 0.065938763
0.41999507 0.0064621898 0.066453837
0.44070017 0.0064621903 0.063605875
0.46049219 0.00079607125 0.068985656
-0.40402275 -0.0064621898 0.076582834
-0.17547102 -0.0064621898 0.077745557
-0.13078405 -0.0064621898 0.071632311
-0.073890597 -0.0064621903 0.074301414
0.0064911274 -0.0064621898 0.070517637
0.10643086 -0.0064621898 0.071528465
0.13222936 -0.0064621898 0.072737649
0.18317202 -0.0056878366 0.075112179
0.19088933 -0.0023033072 0.078485407
0.20498171 -0.0064621898 0.072499193
0.21123244 -0.0064621898 0.078115903
0.23164047 -0.0064621894 0.075971052
0.24422039 -0.0064621903 0.073057659
0.37667412 -0.0064621903 0.071055956
0.40113747 -0.0064621898 0.079605252
0.41585699 -0.0033207673 0.078720413
0.42329887 -0.0064621903 0.078579977
0.4429298 -0.0064454665 0.077067554
-0.44920975 0.0064621898 0.07352455
-0.42816094 0.0064621898 0.071607143
-0.41439638 0.0064621898 0.070896111
-0.32778478 0.0064621898 0.075324893
-0.30634111 0.0064621898 0.079484642
-0.28283155 0.0064621903 0.073884591
-0.21152069 0.0064621894 0.074483708
-0.13112056 0.0064621894 0.07788302
-0.11873377 0.0064621898 0.075954586
-0.092367873 0.0064621898 0.077620812
0.29539531 0.0064621898 0.074033447
0.36326662 0.0064621898 0.07773912
0.40986228 0.0064621903 0.076577693
-0.39131579 -0.0064621898 0.082288168
-0.18798947 -0.0064621898 0.085339844
-0.16023074 -0.0064621898 0.086381711
-0.097705469 -0.0064621894 0.083761305
-0.016588211 -0.0064621894 0.088459
-0.0010506664 -0.0064621898 0.087055296
0.049013902 -0.0064621898 0.088792443
0.087223671 -0.0064621894 0.083345585
0.12809969 -0.0064621898 0.084572062
0.2251011 -0.0064621894 0.087999113
0.31545809 -0.0064621898 0.08335907
0.36675447 -0.0064621898 0.086881928
0.40041783 -0.0064621894 0.084359378
0.45201641 -0.00083139306 0.081757396
-0.4337506 0.0054230671 0.08582221
-0.40423876 0.0064621898 0.08747033
-0.38307709 0.0064621898 0.081062071
-0.34732819 0.0064621898 0.082422316
-0.32850203 0.0064621898 0.081839547
-0.13191447 0.0064621894 0.08889088
-0.080811188 0.0064621898 0.080622859
-0.070559144 0.0064621898 0.081189238
-0.060142539 0.0064621903 0.087155581
-0.053119864 0.0064621894 0.085557878
0.036246266 0.0064621898 0.087694757
0.10960908 0.0064621894 0.081320226
0.15407847 0.0064621898 0.085291095
0.25411594 0.0064621898 0.087324843
0.26507711 0.0064621898 0.081409357
0.31574157 0.0064621903 0.087749653
0.35137701 0.002295367 0.087610289
0.40902305 0.0064621894 0.084235802
-0.43382001 -0.0042781839 0.098569907
-0.40614265 -0.0064621898 0.097496569
-0.39659953 -0.0064621898 0.093449607
-0.35372397 -0.0064621898 0.094083235
-0.29396701 -0.0064621898 0.092983916
-0.27400875 -0.0064621898 0.097384155
-0.2677193 -0.0064621898 0.095155977
-0.22813949 -0.0064621903 0.092217147
-0.065742932 -0.0064621898 0.097153798
-0.037111741 -0.0064621903 0.09551093
0.039753944 -0.0064621898 0.097639427
0.15731345 -0.0064621898 0.094086297
0.25848937 -0.0064621898 0.099482358
0.29574841 -0.0064621903 0.096635178
0.36320567 -0.0064621894 0.093016833
0.4422729 -0.0049194572 0.095137954
-0.37075204 0.0064621898 0.091157213
-0.35631311 0.0064621898 0.090207264
-0.32650554 0.004905744 0.094757885
-0.24162385 0.0064621898 0.091588296
-0.20750603 0.0064621894 0.097152278
-0.18846443 0.0064621898 0.093507409
-0.1735093 0.0064621898 0.099989355
-0.14650996 0.0064621898 0.09872862
-0.11939596 0.0064621903 0.096056417
-0.086974472 0.0064621903 0.09316697
-0.052713227 0.0064621894 0.096327424
-0.0071381358 0.0064621898 0.096037127
0.009767103 0.0064621903 0.095817968
0.14868359 0.0064621898 0.099498086
0.16452409 0.0064621898 0.096096426
0.23175715 0.0060254852 0.096348591
0.25035891 0.0064621903 0.095054261
0.27096558 0.0064621898 0.0959135
0.28418094 0.0064621894 0.094185755
0.32004663 0.0064621898 0.095398277
-0.40318337 -0.0064621898 0.10216253
-0.35295123 -0.0064621898 0.10133358
-0.32271025 -0.0064621898 0.1073042
-0.22765958 -0.0031952255 0.10446085
-0.14289391 -0.0064621894 0.1085556
-0.08827126 -0.0064621894 0.10197122
-0.040970866 -0.0064621903 0.10692504
0.0091515994 -0.0064621898 0.10643372
0.027684543 -0.0064621898 0.10573216
0.033742726 -0.0064621903 0.1092561
0.043795936 -0.0064621898 0.10038762
0.074192494 -0.0064621898 0.1063096
0.081893831 -0.0064621898 0.10140163
0.2345687 -0.0064621898 0.10143037
0.29166853 -0.0064621903 0.10857437
0.31303385 -0.0064621894 0.10053238
0.32777399 -0.0064621898 0.10382512
0.36260808 -0.0064621898 0.10557484
-0.32640827 0.0064621903 0.10109561
-0.29846221 0.0064621898 0.10453988
-0.28141573 0.0064621894 0.10090788
-0.27233541 0.0064621898 0.10936057
-0.20792228 0.0064621894 0.10559171
-0.12316095 0.0064621898 0.1034633
-0.11523958 0.0064621903 0.10433781
-0.083975606 0.0064621898 0.1019903
0.0073910882 0.0064621903 0.101822
0.18472831 0.0064621894 0.10190796
0.2136776 0.0064621903 0.10557749
0.28364176 0.0064621894 0.103942
-0.40875486 -0.0064621898 0.11929862
-0.36719 -0.0043829707 0.11738938
-0.33763433 -0.0064621903 0.11923219
-0.19036147 -0.0064621894 0.11061866
-0.12933375 -0.0064621898 0.11815608
-0.10279515 -0.0064621894 0.11568097
-0.076001674 -0.0064621903 0.11050869
-0.0083342828 -0.0064621894 0.11355546
0.052120384 -0.0064621903 0.11895041
0.10569608 -0.0064621894 0.11822518
0.11924957 -0.0064621898 0.11215941
0.1300292 -0.0064621903 0.11062326
0.18891412 -0.0064621903 0.11903375
0.19867784 -0.0064621894 0.11904339
0.23863326 -0.0064621894 0.11952212
0.26263288 -0.0064621903 0.11802011
0.29922673 -0.0064621898 0.11796959
0.33825496 -0.0064621898 0.11142078
0.35053638 -0.0064621898 0.11273078
0.36341149 -0.0064621898 0.11630495
0.41585699 -0.0029799838 0.11488064
-0.30654132 0.0064621898 0.11454222
-0.18818019 0.0064621894 0.11540379
-0.13043189 0.0064621898 0.11614503
-0.090782873 0.0064621898 0.11178537
0.13410658 0.0064621894 0.11541297
0.21646532 0.0064621898 0.11960949
0.26581764 0.0064621898 0.11491644
0.31193873 0.0064621898 0.11375222
0.39683741 0.0064621898 0.1169073
-0.403036 -0.0045920354 0.12255224
-0.3879534 -0.0064621898 0.12722385
-0.37198174 -0.0064621898 0.12669069
-0.32871997 -0.0046693641 0.12848268
-0.3024272 -0.0064621903 0.12679644
-0.28293791 -0.0023812903 0.12862282
-0.24853045 -0.0064621898 0.12390095
-0.15286534 -0.0064621898 0.1269425
-0.12818044 -0.0064621898 0.12288981
-0.09974701 -0.0031967964 0.125561
0.035797201 -0.0018172858 0.12309469
0.13032857 -0.0033166329 0.12599522
0.1692718 -0.0064621898 0.12051127
0.18200359 -0.0036955553 0.12927115
0.2533673 -0.0064621898 0.12589499
0.28652257 -0.0064621898 0.12936246
0.30023953 -0.0064621898 0.12625332
0.36698678 -0.0064621894 0.12086964
-0.38569838 0.0064621898 0.12568896
-0.37400284 0.0064621898 0.12537168
-0.23558035 0.0064621898 0.12185264
-0.19035657 0.0064621898 0.12580295
-0.17778821 0.0064621898 0.12377743
-0.1495201 0.0064621898 0.12639441
-0.0029351725 0.0013713727 0.12296553
0.032152332 0.0057910336 0.12304856
0.040082619 0.0064621898 0.12100753
0.082720026 0.003027844 0.12405533
0.10307859 0.005506685 0.12482776
0.12624627 0.0043706 0.12457216
0.13197197 0.005979524 0.12379012
0.17964871 0.0064621903 0.12000505
0.2068342 0.0064621894 0.12070786
0.21892497 0.0064621898 0.1249984
0.26080146 0.0064621894 0.12307877
0.35518938 0.0064621898 0.12103991
0.40130621 0.0064621898 0.12274067
-0.37644261 -0.0064621898 0.13621366
-0.36719 -0.005869227 0.13082153
-0.34060961 -0.0064621903 0.13142025
-0.32872 -0.0044350624 0.13534729
-0.28575802 -0.0064621898 0.1331601
0.21340241 -0.0043301536 0.1320582
0.24965203 -0.0064621894 0.13262779
0.2644541 -0.0052407323 0.13725191
0.2807506 -0.0020868527 0.13911442
0.31537479 -0.0064621898 0.13818717
0.35137701 -0.0023845693 0.13646215
0.36949664 -0.0064621903 0.13862458
-0.27036235 0.0064621898 0.13560304
-0.25520223 0.0056750625 0.13878402
-0.23956394 0.0064621898 0.13087402
0.30907825 0.0012605414 0.13014536
0.34844759 0.0064621898 0.13007179
0.36483714 0.0064621898 0.13998748
0.39921474 0.00068508135 0.13089322
-0.2898857 -0.0028761995 0.14319779
0.30702221 -0.0026782947 0.14242502
0.3437649 -0.0029115768 0.14530678
-0.32984453 0.0064621894 0.14654331
0.34650269 0.0044239033 0.14781457
0.35137701 0.0010924281 0.14233682
