# .PCD v0.7 - Point Cloud Data file format
VERSION 0.7
FIELDS x y z
SIZE 4 4 4
TYPE F F F
COUNT 1 1 1
WIDTH 918
HEIGHT 1
VIEWPOINT 0 0 0 1 0 0 0
POINTS 918
DATA ascii
-0.3185696 0.0085341092 -0.15023009
-0.27246982 0.0030936301 -0.15458445
-0.21917222 0.0030936301 -0.15192738
-0.18283309 0.004574276 -0.154984
-0.0858135 0.0030936301 -0.15001538
-0.060992192 0.0070513673 -0.154984
-0.04884398 0.0030936301 -0.15485625
-0.035198536 0.0030936301 -0.15449217
0.24223442 0.0030936301 -0.15395667
0.29907012 0.0061875507 -0.15476507
0.31340137 0.0073287184 -0.154984
-0.24069405 0.0140657 -0.15402542
-0.094091102 0.0140657 -0.1518513
-0.024794206 0.012113089 -0.154984
0.072090313 0.0140657 -0.15353146
0.10831219 0.011081869 -0.154984
0.25372863 0.010634248 -0.154984
0.35345677 0.012706495 -0.15038267
-0.34788519 0.020006076 -0.15241805
0.35441869 0.021340558 -0.1504235
-0.29765826 0.0035708584 -0.14484793
-0.17686777 0.0030936301 -0.14940715
-0.11148018 0.0030936301 -0.14890462
-0.040366545 0.0030936301 -0.14424497
0.01630095 0.0030936301 -0.14651175
0.062562741 0.0030936301 -0.14283419
0.12508966 0.0030936301 -0.14809181
0.16496366 0.0030936301 -0.14496763
0.1843981 0.0030936301 -0.14507435
0.19364955 0.0030936301 -0.14401188
0.21586378 0.0030936301 -0.14250986
0.32334477 0.0048794248 -0.14440247
0.34420529 0.0097003868 -0.14096923
-0.20719221 0.0140657 -0.14302273
-0.19761276 0.0140657 -0.14452474
-0.1258564 0.0140657 -0.14791989
0.15081301 0.0140657 -0.14425033
0.38203534 0.025453268 -0.14056417
-0.26212528 0.0030936301 -0.13141312
-0.21767184 0.0030936301 -0.13723992
-0.16110441 0.0030936301 -0.1336548
0.16397521 0.0030936301 -0.13914196
0.17844644 0.0030936301 -0.13905168
0.23702592 0.0030936301 -0.13365181
0.2418149 0.0030936301 -0.13163655
0.30096999 0.0030936301 -0.13716267
0.33420438 0.0064507443 -0.13061436
-0.34092689 0.013719494 -0.13001433
-0.31655183 0.018203272 -0.13189594
-0.23320186 0.0140657 -0.13123281
-0.046305642 0.0140657 -0.13824156
-0.038985431 0.0140657 -0.13673691
0.060017958 0.0140657 -0.13744983
0.079684123 0.0140657 -0.13038585
0.12977935 0.0140657 -0.13866679
0.16241987 0.0140657 -0.13519698
0.23448685 0.0140657 -0.13946505
0.27791616 0.0140657 -0.13645422
0.29673427 0.0140657 -0.1337183
0.32290643 0.014893153 -0.13722542
0.37609535 0.032176398 -0.13655208
-0.3190552 0.0086467294 -0.12433403
-0.29938427 0.0040843957 -0.12007067
-0.22922656 0.0030936301 -0.12156357
-0.19119775 0.0030936301 -0.12369026
-0.18729027 0.0030936301 -0.1259997
-0.068299145 0.0030936301 -0.12614094
-0.042439483 0.0030936301 -0.12898731
0.07531213 0.0030936301 -0.12592363
0.33259702 0.0059284726 -0.12596893
-0.35370624 0.016683243 -0.12130596
-0.3066369 0.015903682 -0.12023301
-0.24490099 0.0140657 -0.1230844
-0.16173767 0.0140657 -0.12003266
-0.10962001 0.0140657 -0.1269936
-0.055937946 0.0140657 -0.12552881
0.0084073767 0.0140657 -0.12911674
0.049187094 0.0140657 -0.1248822
0.078385547 0.0140657 -0.128258
0.17747076 0.0140657 -0.12554963
0.21096995 0.0140657 -0.12418257
0.24025072 0.014065699 -0.12544411
0.28014123 0.0140657 -0.12954409
0.33665061 0.019359237 -0.12436567
0.34695554 0.010594035 -0.12489259
-0.39536947 0.026345825 -0.1235906
0.39713788 0.026899973 -0.12606978
-0.41267371 0.030771071 -0.1220592
-0.40990335 0.032392655 -0.12357522
0.37592453 0.032120891 -0.12868579
0.3902832 0.036786512 -0.12343896
0.40829441 0.031505127 -0.12537442
-0.25711393 0.0030936301 -0.1176733
-0.14613768 0.0030936301 -0.11336948
-0.071170442 0.0030936301 -0.11073861
-0.065335155 0.0030936301 -0.11443231
-0.036887422 0.0030936301 -0.11263524
-0.028761335 0.0030936301 -0.11533771
0.018393487 0.0030936301 -0.11666596
0.15552004 0.0030936301 -0.11816441
0.1721853 0.0030936301 -0.11482984
0.19444163 0.0030936301 -0.11443128
0.32005626 0.0030936301 -0.11750707
-0.32865721 0.010873753 -0.1129691
-0.28150809 0.0140657 -0.1101317
-0.21766745 0.0140657 -0.11484565
-0.1701486 0.0140657 -0.11626825
-0.16894397 0.0140657 -0.1119863
-0.13285777 0.0140657 -0.1138169
-0.12027676 0.0140657 -0.1110868
-0.10279086 0.0140657 -0.11030655
-0.09337496 0.0140657 -0.11408656
-0.064553767 0.0140657 -0.11617738
-0.041341439 0.014065699 -0.11831556
-0.021410167 0.0140657 -0.11270382
0.061269641 0.0140657 -0.11996371
0.086612999 0.0140657 -0.11227855
0.13389485 0.0140657 -0.11773896
0.22255085 0.0140657 -0.11518995
0.27337334 0.014065699 -0.11036618
-0.34806374 0.025511764 -0.11606131
0.39341199 0.037803162 -0.11815502
0.40574259 0.041809723 -0.11284529
0.41898909 0.040062975 -0.11554051
-0.29191038 0.0030936301 -0.10039946
-0.27462968 0.0030936301 -0.10710162
-0.2327677 0.0030936301 -0.1071502
-0.22664645 0.0030936301 -0.10708218
-0.17058402 0.0030936301 -0.10810319
-0.11865669 0.0030936301 -0.10997762
-0.076700047 0.0030936301 -0.10859487
0.11618549 0.0030936301 -0.10875079
0.24656534 0.0030936301 -0.10849346
0.2572284 0.0030936301 -0.10334992
0.32264498 0.0043101967 -0.10808733
-0.36323893 0.018894035 -0.10426043
-0.32408446 0.01995033 -0.10620284
-0.29874918 0.014074264 -0.10739478
-0.28538588 0.0140657 -0.10914942
-0.27712443 0.0140657 -0.10260455
-0.20349178 0.0140657 -0.1083701
-0.15904775 0.0140657 -0.10055728
-0.057366498 0.0140657 -0.10005217
-0.048234738 0.0140657 -0.10873081
-0.022510007 0.0140657 -0.1040619
0.038283065 0.0140657 -0.10113547
0.064178757 0.0140657 -0.10479745
0.085807301 0.0140657 -0.10593015
0.18620323 0.0140657 -0.10033891
0.29279843 0.0140657 -0.10636699
0.31232867 0.0140657 -0.1046055
0.35833481 0.014291535 -0.10728391
-0.32545102 0.020267278 -0.1007569
-0.41651386 0.03124987 -0.10352638
-0.40135363 0.037871007 -0.10493803
-0.37301219 0.031297721 -0.10247589
-0.27408823 0.0030936301 -0.098800443
-0.26455644 0.0030936301 -0.097711816
-0.19978049 0.0030936301 -0.094108649
-0.12414063 0.0030936301 -0.09524674
-0.087378256 0.0030936301 -0.098454058
-0.057682559 0.0030936301 -0.096897826
0.0044910759 0.0030936301 -0.094877511
0.045331594 0.0030936301 -0.098288842
0.06154675 0.0030936301 -0.096738748
0.072923779 0.0030936301 -0.098915495
0.21372969 0.0030936301 -0.094527438
0.28679246 0.0030936301 -0.099329904
0.29972962 0.0030936301 -0.093748212
0.32036 0.0091588404 -0.097411603
-0.34009334 0.013526168 -0.093232691
-0.337277 0.012872966 -0.095415413
-0.27977943 0.0140657 -0.090551719
-0.20933902 0.0140657 -0.095984489
-0.17167836 0.0140657 -0.092623837
-0.088040657 0.0140657 -0.092668794
0.35480824 0.01314563 -0.091916285
-0.39325994 0.025856555 -0.096229568
-0.37820002 0.022363763 -0.094575092
-0.32759124 0.020763671 -0.094502464
0.38657951 0.023469197 -0.096205339
-0.26150101 0.0030936301 -0.08513201
-0.23231006 0.0030936298 -0.084319308
-0.19461332 0.0030936301 -0.089672685
-0.17395476 0.0030936301 -0.083273187
-0.10972841 0.0030936301 -0.083201885
-0.099597611 0.0030936301 -0.084992409
-0.057999689 0.0030936301 -0.082347676
-0.01284869 0.0030936301 -0.080396682
0.0077823601 0.0030936301 -0.082066871
0.012579739 0.0030936301 -0.084368929
0.096011721 0.0030936301 -0.083146542
0.17709909 0.0030936301 -0.080105275
0.21376598 0.0030936301 -0.08862216
0.32221344 0.0083613787 -0.089887679
0.33382285 0.0063267765 -0.087593839
-0.34336135 0.014284098 -0.081856266
-0.32818398 0.010763997 -0.081559747
-0.27923939 0.0140657 -0.084679514
-0.23326296 0.0140657 -0.081117041
-0.21482486 0.0140657 -0.08656083
-0.056760147 0.0140657 -0.089532703
-0.0016849637 0.0140657 -0.089319699
0.001990892 0.0140657 -0.08615239
0.03959848 0.0140657 -0.088382512
0.14212398 0.0140657 -0.080621064
0.15303959 0.0140657 -0.082686096
0.2470088 0.0140657 -0.086901546
0.3933683 0.025675097 -0.084428586
-0.43848705 0.036346391 -0.08414337
-0.40712756 0.039210204 -0.089247897
0.39289793 0.037636127 -0.087415241
0.41813076 0.033721425 -0.086493663
-0.41081047 0.040064402 -0.084026016
0.44462556 0.042330459 -0.081082046
-0.29741371 0.0034859325 -0.077462479
-0.28141838 0.0030936301 -0.071721464
-0.23900622 0.0030936301 -0.071216829
-0.2084765 0.0030936301 -0.075092763
-0.15390289 0.0030936301 -0.075039148
-0.14655772 0.0030936301 -0.07694459
-0.12847757 0.0030936301 -0.079220183
-0.0088947257 0.0030936301 -0.072555065
0.14641145 0.0030936301 -0.076929741
0.16600971 0.0030936301 -0.079740793
0.17363727 0.0030936301 -0.078316882
0.21461172 0.0030936301 -0.078858025
0.28097934 0.0030936301 -0.071269915
-0.35001338 0.015826816 -0.074813522
-0.27288485 0.0140657 -0.074895255
-0.24408334 0.0140657 -0.079565227
-0.20219837 0.0140657 -0.076650783
-0.19707064 0.0140657 -0.076608881
-0.12036646 0.0140657 -0.073302761
-0.053607583 0.0140657 -0.07287576
-0.04198052 0.0140657 -0.073725894
0.079305217 0.0140657 -0.078959599
0.16580713 0.0140657 -0.07639841
0.19703685 0.0140657 -0.079776548
0.26726419 0.0140657 -0.076738365
0.29229543 0.0140657 -0.070590287
0.31866401 0.0140657 -0.078969203
-0.35028815 0.02602764 -0.07009469
-0.32806742 0.020874113 -0.073962986
0.37915647 0.021057192 -0.071821891
-0.42460516 0.03312657 -0.079285786
0.41851908 0.045961194 -0.071600765
-0.31903696 0.0086425003 -0.063106529
-0.27203363 0.0030936301 -0.066655971
-0.21868451 0.0030936301 -0.061951496
-0.088254482 0.0030936301 -0.066402085
-0.074361607 0.0030936301 -0.068125486
-0.068913117 0.0030936301 -0.069215424
-0.018641099 0.0030936301 -0.060946308
0.011277819 0.0030936301 -0.063066892
0.065581977 0.0030936301 -0.061997164
0.070166066 0.0030936301 -0.064547628
0.23067205 0.0030936301 -0.064846441
0.28004363 0.0030936301 -0.06819316
0.30668861 0.0030936301 -0.06533584
0.33567962 0.0069301082 -0.066936545
-0.33505237 0.012357004 -0.063895687
-0.32256991 0.019599054 -0.064296268
-0.086114131 0.0140657 -0.064414173
0.064613096 0.0140657 -0.060757004
0.12293812 0.0140657 -0.06871251
0.15648896 0.0140657 -0.062764652
0.18613109 0.0140657 -0.062923424
0.24819295 0.0140657 -0.06151215
0.33536631 0.01894192 -0.067204013
-0.40007085 0.027436219 -0.060826588
-0.38104668 0.02302395 -0.067591295
-0.35932881 0.028124321 -0.067863353
-0.37262374 0.03120763 -0.068407819
0.41701066 0.033357471 -0.065302901
-0.1837036 0.0030936301 -0.053609021
-0.16331153 0.0030936301 -0.053948276
-0.12960871 0.0030936301 -0.056512736
-0.11464577 0.0030936301 -0.05463016
-0.039793186 0.0030936301 -0.055566933
-0.0049216161 0.0030936301 -0.052762132
0.0051698089 0.0030936301 -0.058733579
0.052322552 0.0030936301 -0.051397875
0.15910551 0.0030936301 -0.051967315
0.17729859 0.0030936301 -0.057853524
-0.29703033 0.013890387 -0.053173468
-0.2889958 0.0140657 -0.054833796
-0.25041071 0.0140657 -0.055583391
-0.1930632 0.0140657 -0.053479008
-0.043489799 0.0140657 -0.058962673
-0.0099758543 0.0140657 -0.057004362
0.21616638 0.0140657 -0.05676721
0.22244579 0.0140657 -0.054799777
0.25765878 0.0140657 -0.057643756
0.27050877 0.0140657 -0.059519697
0.28582051 0.0140657 -0.050614506
0.39377698 0.025807895 -0.057020359
0.40477926 0.029382963 -0.050561622
-0.40954927 0.039771881 -0.052784793
0.38357598 0.034607109 -0.051116765
-0.42491388 0.043335512 -0.05876407
-0.41669413 0.041429054 -0.051935285
0.42649952 0.048554286 -0.059104934
0.45399594 0.045375139 -0.053817686
-0.26395983 -0.00348979 -0.044029634
-0.14979656 -5.704863e-05 -0.047428299
-0.30331653 0.0049964203 -0.046119645
-0.25836974 0.0019383902 -0.047428302
-0.24830538 0.0030936301 -0.049166366
-0.0061371322 0.0030936301 -0.041247558
0.040873069 0.0030936301 -0.042402562
0.075596079 0.0030936301 -0.045241185
0.12340118 0.0030936301 -0.042118251
0.14542037 0.0030936301 -0.042653535
0.24864465 0.0030936301 -0.0493012
0.32652855 0.0039566229 -0.045478165
-0.34926578 0.015653433 -0.041453421
-0.32364184 0.019847676 -0.044010431
-0.30069008 0.014524417 -0.045590241
-0.19360948 0.0140657 -0.044921644
-0.069936916 0.0140657 -0.047831271
0.040216051 0.0140657 -0.048542909
0.14295755 0.0140657 -0.04952639
0.22726274 0.0140657 -0.041495908
0.25582275 0.0140657 -0.041984532
0.30192459 0.0140657 -0.04223945
0.32024711 0.0140657 -0.041859966
0.40289059 0.02876926 -0.041907072
-0.45851871 0.040992081 -0.049131751
-0.45685926 0.050744325 -0.043904282
0.44581676 0.054831322 -0.049902186
0.45501867 0.057821278 -0.046572212
-0.22746196 -0.0056841001 -0.030727297
-0.17577466 -0.0056841001 -0.034538638
0.075215533 -0.00285334 -0.030469131
-0.31505895 0.0077198693 -0.031832743
-0.29387695 0.0030936301 -0.039858285
-0.26506901 0.0019878203 -0.036026236
0.080585107 0.0030936301 -0.035222519
0.14116582 0.0030936301 -0.031028843
0.16305467 0.0030936301 -0.031982325
0.19704874 0.0030936301 -0.031635288
0.31214508 0.0030936301 -0.03147817
0.34252533 0.0091545051 -0.037085902
-0.33627009 0.012639429 -0.033885341
-0.29628399 0.01183494 -0.030917002
-0.24648899 0.0140657 -0.031431023
-0.20680197 0.0140657 -0.032732751
-0.057221688 0.0140657 -0.039071694
-0.017490834 0.0140657 -0.038746033
-0.0072321296 0.0140657 -0.032171961
0.088802233 0.0140657 -0.033948947
0.092117779 0.0140657 -0.032507651
0.21449926 0.0140657 -0.037756443
0.22669004 0.0140657 -0.038913716
0.35902858 0.014516964 -0.038109928
0.36330786 0.015907442 -0.038497139
-0.38796937 0.024629511 -0.037534814
-0.45018086 0.03905857 -0.037523661
-0.38735753 0.034624778 -0.036804624
0.38520536 0.035136543 -0.031218041
-0.46661997 0.04368294 -0.032439765
-0.41309327 0.040593866 -0.031985112
0.41717675 0.045525022 -0.031609207
0.42794454 0.049023844 -0.030252483
0.43765742 0.052179992 -0.039722636
-0.19951279 -0.021852501 -0.020892825
-0.20219946 -0.012268731 -0.020350501
-0.20131719 -0.0056841001 -0.023034191
-0.17132454 -0.0073303301 -0.023101278
-0.16046631 -0.0056841001 -0.022419136
-0.32046402 0.0089734774 -0.027742986
-0.29628399 0.0090310173 -0.024494201
0.072766617 0.0030936301 -0.028268069
0.10143787 0.0030936301 -0.025620461
0.12109874 0.0030936301 -0.021367069
0.21255988 0.0030936301 -0.028949454
0.22941744 0.0030936301 -0.028177317
0.29390502 0.0030936301 -0.022956062
0.31902495 0.0030936301 -0.028329462
0.32547873 0.0036154971 -0.021322943
0.33575618 0.0069549903 -0.025418496
-0.20905761 0.0140657 -0.027109019
-0.041083306 0.0140657 -0.024845004
-0.022934198 0.0140657 -0.027236518
-0.015098451 0.0140657 -0.029777616
0.25614843 0.0140657 -0.021655453
0.29059535 0.0140657 -0.026440943
0.31955969 0.0140657 -0.024820529
-0.39729279 0.026791897 -0.021027826
0.35462737 0.025200685 -0.022901788
0.40150416 0.028318753 -0.020689527
-0.41045153 0.03998116 -0.025332546
-0.40763366 0.039327584 -0.021579247
0.39006841 0.036716722 -0.023443915
0.40009958 0.039976157 -0.025988095
-0.4462783 0.048290603 -0.025580524
-0.1997464 -0.034761202 -0.016770052
-0.20873865 -0.014961777 -0.013108741
-0.26435229 -0.00348979 -0.012056615
-0.19455782 -0.0084274802 -0.019788269
-0.18770975 -0.0024890702 -0.018717159
0.069283396 -0.0019065848 -0.013793672
-0.148762 0.00014652766 -0.018990565
-0.11783925 0.0030936301 -0.017156687
-0.014136871 0.0030936301 -0.010665492
0.33527547 0.0067987945 -0.018186519
-0.34348974 0.014313876 -0.016164459
-0.33185327 0.011615025 -0.012031615
-0.2913903 0.0140657 -0.010837235
-0.032687545 0.0140657 -0.013444306
0.063680559 0.0140657 -0.011153951
0.074916109 0.0140657 -0.012353126
0.09642607 0.0140657 -0.012769051
0.10038057 0.0140657 -0.011306558
0.12368482 0.0140657 -0.019802568
0.13838978 0.0140657 -0.019536836
0.14739433 0.0140657 -0.014663184
0.21314363 0.0140657 -0.014212262
0.27722171 0.0140657 -0.017779432
0.28614086 0.0140657 -0.018016573
-0.3781814 0.022359448 -0.012701474
-0.36305124 0.028987605 -0.015392534
0.35485515 0.025274703 -0.015354718
0.36930245 0.029969156 -0.011762809
-0.43557838 0.035671744 -0.019465219
-0.42307737 0.032772202 -0.018114798
0.37642571 0.032283742 -0.019825462
0.4280709 0.036951404 -0.01426905
0.43645614 0.039675996 -0.016193137
0.45152143 0.044571124 -0.010588501
0.46684319 0.056743085 -0.018856786
-0.21513052 -0.034761202 -0.0024065592
-0.233613 -0.024679638 -0.0027076085
-0.19405203 -0.027381007 -0.0039653992
-0.18855719 -0.022458088 -0.00019962365
0.06956362 -0.00285334 -0.0032586113
0.070076108 -0.00285334 -0.0014128018
0.088270321 -0.00093502976 -0.00077197142
-0.30503505 0.0053949999 -0.0060185008
-0.29993933 0.0042131394 -0.008059524
-0.12756371 0.0030936301 -0.00012940168
-0.074115083 0.0030936301 -0.0038287761
0.070527405 0.0030936301 -0.0097546587
0.31724846 0.0030936301 -0.0074683651
0.32257125 0.0072601624 -0.008549965
-0.33984479 0.013468521 -0.00045337062
-0.27434886 0.0140657 -0.0050618723
-0.21399522 0.0140657 -0.0084905289
0.12337998 0.0140657 -0.0079395846
0.16485953 0.0140657 -0.0080573242
0.19338909 0.0140657 -0.00092639215
0.32864332 0.016757317 -0.0042559579
-0.34285572 0.024303939 -0.0052827671
-0.42353266 0.03287781 -0.00020989776
-0.4161754 0.031171372 -0.0046934043
0.37067401 0.03041482 -0.00054967776
0.41945308 0.046264671 -0.0056085885
0.42371058 0.047648046 -0.0062053353
0.4427155 0.041709829 -0.0055788979
0.45655525 0.046206713 -0.0014887378
-0.199598 -0.034661245 0.0076435339
-0.25012776 -0.0056841001 0.0031388337
-0.24662524 -0.0070557902 0.0076908334
-0.19857144 -0.0084274802 0.0072632041
-0.1829197 -0.0078623341 0.007309129
-0.16962694 -0.0056841001 0.0025721746
-0.31430101 0.0075440793 0.0075670332
-0.28808653 0.0030936301 0.0041029789
-0.27187812 0.0030936301 0.0099468045
0.0037154467 0.0030936301 0.0041048485
0.014040247 0.0030936301 0.0036851475
0.027751232 0.0030936301 0.0047545903
0.052792564 0.0030936301 0.0024684593
0.067186996 0.0030936301 0.0051891878
0.07777527 0.0030936301 0.0090998234
0.093081027 0.0030936301 0.0070382059
0.15375377 0.0030936301 0.0036255885
0.29319888 0.0030936301 0.0063653328
0.30665749 0.0030936301 0.0075331405
0.32036 0.0076398673 0.0067580789
-0.30578229 0.015705466 0.0070598722
-0.23730549 0.0140657 0.0069999136
-0.1215287 0.0140657 0.00038258359
-0.093723543 0.0140657 0.0054036863
0.061583266 0.0140657 0.0094258059
0.098900408 0.0140657 0.0035432428
0.12108422 0.0140657 0.0078350976
0.22172126 0.0140657 0.0061355792
0.23274587 0.0140657 0.0075765736
0.24551158 0.0140657 0.007143043
0.30697596 0.0140657 0.0070007765
0.35994172 0.026927542 0.0079259956
-0.3808949 0.033125844 0.008794941
-0.37466985 0.031682156 0.0021155663
0.37128818 0.030614384 0.0084386282
-0.43161494 0.044889729 0.0040514586
0.46416453 0.059590876 0.0051015052
-0.20396915 -0.034761202 0.013222157
-0.19904272 -0.03402226 0.012983855
-0.26193535 -0.00348979 0.016712243
-0.2187936 -0.0092375204 0.0136638
-0.203859 -0.0056841001 0.019424863
-0.18094166 -0.0084274802 0.011055919
-0.0052389787 -0.0024191588 0.015955023
0.015241016 -0.00061760045 0.015995214
0.026085051 -0.00285334 0.016802547
-0.012953073 0.0030936301 0.01065259
0.0044438019 0.0030936301 0.01971644
0.028195022 0.0030936301 0.016605919
0.082649417 0.0030936301 0.014622262
0.14577015 0.0030936301 0.01874253
0.18218248 0.0030936298 0.014633028
0.2754088 0.0030936301 0.016778145
-0.30364832 0.01521053 0.016012553
-0.29628399 0.011885935 0.011560656
-0.21736151 0.0140657 0.019728711
-0.17617863 0.0140657 0.017605241
-0.12186994 0.0140657 0.010418717
-0.10323604 0.0140657 0.01775061
-0.084738173 0.0140657 0.015434215
-0.011525601 0.0140657 0.016925715
0.042458355 0.0140657 0.011220727
0.059985399 0.0140657 0.013821527
0.081249222 0.0140657 0.012430468
0.16906309 0.0140657 0.016962025
0.17446792 0.0140657 0.017522044
0.2208477 0.0140657 0.015275598
0.24546462 0.0140657 0.016211618
0.26103407 0.0140657 0.010709964
0.28314739 0.0140657 0.019729834
-0.40695074 0.029031884 0.012384664
-0.32930768 0.021161763 0.012619395
0.38166946 0.021873752 0.011044092
-0.45550328 0.040292818 0.011147123
-0.44119465 0.047111604 0.018336892
0.46042186 0.047463074 0.014107199
-0.46189243 0.051911488 0.019778501
0.44438335 0.054365546 0.013898378
0.46412337 0.059780367 0.011530481
-0.25429884 -0.0083647203 0.028992943
-0.21564357 -0.0056841001 0.029884443
-0.17435633 -0.0056841001 0.025373068
0.044606984 -0.00056038855 0.021665838
-0.30391991 0.0051363595 0.025955763
-0.27129599 0.0030936301 0.029722396
-0.14512628 0.0030936301 0.021973845
-0.13873711 0.0030936301 0.02156768
0.069792397 0.0030936301 0.021812981
0.30388314 0.0030936301 0.022743188
-0.28183141 0.0140657 0.024897777
-0.2444326 0.0140657 0.029112548
-0.21081516 0.0140657 0.020959785
-0.0096985362 0.0140657 0.024419399
0.0066096187 0.0140657 0.023925755
0.021032706 0.0140657 0.020890977
0.055833489 0.0140657 0.022852939
0.1534176 0.0140657 0.028302211
0.19342464 0.0140657 0.027158074
0.21384296 0.0140657 0.026975412
0.27838945 0.0140657 0.024493063
0.32177633 0.013194401 0.024510857
-0.39689294 0.026699159 0.02035515
-0.33170882 0.021718672 0.022844505
0.3566013 0.0258421 0.029748414
0.37704366 0.020370679 0.020425525
0.38097826 0.033763021 0.022885138
0.39330593 0.037768699 0.022361804
0.43226653 0.038314667 0.023406133
0.40449759 0.041405197 0.024627469
0.41417301 0.044549022 0.027423397
0.43914962 0.040551178 0.026565734
-0.2472458 -0.0054463516 0.033562001
-0.17298932 -0.00348979 0.039117172
-0.15507171 -0.00348979 0.034654729
-0.033070281 0.0030936301 0.034704261
0.026076635 0.0025424249 0.035959598
0.1109779 0.0030936301 0.031138016
0.16323777 0.0030936301 0.038683757
0.24995419 0.0030936301 0.03054752
0.32542899 0.003599338 0.033517823
-0.35614812 0.017249562 0.037911169
-0.31764424 0.018456632 0.033624962
-0.094225049 0.0140657 0.034997292
-0.055793241 0.0140657 0.039382115
-0.035175756 0.0140657 0.032732423
0.032031685 0.0140657 0.032647461
0.063528441 0.0140657 0.035173949
0.10564511 0.0140657 0.035967313
0.12883414 0.0140657 0.032421991
0.28162733 0.0140657 0.034515824
0.30950633 0.0140657 0.038421158
0.3351419 0.018868994 0.032918021
0.36239597 0.015611146 0.038970344
-0.34906381 0.025743697 0.038798217
-0.33257958 0.021920625 0.03427425
0.35557279 0.025507893 0.034609511
-0.40690666 0.039158963 0.037570722
-0.36983764 0.030561488 0.038521376
0.39744955 0.03911509 0.038601685
-0.45620352 0.040455207 0.037336487
-0.41470203 0.040967003 0.032956734
0.43787456 0.052250538 0.039261218
0.029312938 -0.00285334 0.040913191
-0.3172408 0.0082259104 0.043831445
-0.11881749 0.0030936301 0.047052421
-0.10771658 0.0030936301 0.040097125
-0.025205713 0.0030936301 0.041826732
0.022910908 0.0012332664 0.049544711
0.051811986 0.0030936301 0.048066113
0.22579053 0.0030936301 0.049165413
0.26569396 0.0030936301 0.043861054
0.27769223 0.0030936301 0.0483304
-0.31820735 0.018587241 0.045894094
-0.2490851 0.0140657 0.049588885
-0.21936566 0.0140657 0.042098481
-0.19915217 0.0140657 0.045635223
-0.15501994 0.0140657 0.047678597
-0.074736282 0.0140657 0.041281972
0.044874713 0.0140657 0.048957556
0.052887589 0.0140657 0.046721883
0.079539463 0.0140657 0.047539096
0.098725207 0.0140657 0.04694194
0.171984 0.0140657 0.04687525
0.23989229 0.0140657 0.045609199
0.36925814 0.017840888 0.045598023
-0.39797702 0.026950594 0.043760534
-0.32940844 0.021185135 0.044185832
0.39254647 0.025408063 0.046433613
-0.42867729 0.03407108 0.048135851
0.38384214 0.034693591 0.044914268
-0.46451342 0.047285769 0.041096963
-0.42096376 0.042419337 0.040970452
-0.29762763 0.008276986 0.052775338
-0.17834088 0.0030936301 0.059526511
-0.11197653 0.0030936301 0.052028224
-0.07435514 0.0030936301 0.053875394
-0.023354204 0.0030936301 0.050089847
0.030196415 0.0030936298 0.056542657
0.040854074 0.0030936301 0.053683236
0.06523896 0.0030936301 0.058654085
0.093079112 0.0030936301 0.050562114
0.13891682 0.0030936301 0.057776771
0.21061364 0.0030936301 0.055838808
0.26521021 0.0030936301 0.050619096
0.30107033 0.0030936301 0.051996913
-0.32233673 0.019544974 0.053831689
-0.28007525 0.0140657 0.055718921
-0.14460038 0.0140657 0.058009062
-0.088593692 0.0140657 0.053809106
0.029218774 0.0140657 0.059168059
0.074124485 0.0140657 0.052282076
0.13796735 0.0140657 0.050315283
-0.36206788 0.028759548 0.056330018
-0.33582401 0.022673108 0.054381683
0.40617049 0.029835029 0.050187673
-0.45869842 0.043961115 0.057104569
0.40197259 0.04058475 0.058029491
0.45908451 0.05397886 0.053232998
-0.2972109 0.0034155103 0.060322776
-0.20138602 0.0030936301 0.066290975
-0.17400002 0.0030936301 0.069329828
0.063822538 0.0030936301 0.066814095
0.072547436 0.0030936301 0.06698259
0.080487847 0.0030936301 0.067141429
0.10736057 0.0030936301 0.060553852
0.12415639 0.0030936301 0.066872686
0.1433574 0.0030936301 0.065310545
-0.36694384 0.019753264 0.065055013
-0.31890872 0.018749909 0.065919541
-0.28268829 0.0140657 0.066045739
-0.2639432 0.0140657 0.064633362
-0.18447037 0.0140657 0.064469509
-0.094759382 0.0140657 0.065743737
-0.065045521 0.0140657 0.068482578
-0.034947004 0.0140657 0.069077536
-0.011017002 0.0140657 0.06484016
0.089366004 0.0140657 0.06069047
0.134932 0.0140657 0.069190674
0.27250546 0.0140657 0.063866153
0.29776344 0.0140657 0.062561825
0.36888391 0.017719289 0.064543962
0.36023021 0.027021272 0.064872518
-0.44232211 0.037235912 0.066399239
0.37305927 0.031189874 0.061627723
-0.45452133 0.048096459 0.064009294
0.45522797 0.054736324 0.061522346
-0.29628399 0.0061257482 0.072420925
-0.25461149 0.0030936301 0.077888265
-0.23032096 0.0030936301 0.076040648
-0.19030927 0.0030936301 0.079288796
-0.11327191 0.0030936301 0.075529195
-0.065790117 0.0030936301 0.077410579
-0.010335617 0.0030936301 0.07814265
0.12673785 0.0030936301 0.071162701
0.1403183 0.0030936301 0.07232102
0.15260911 0.0030936301 0.079441473
0.25114688 0.0030936301 0.076826081
-0.3139804 0.017606875 0.073715717
-0.29104373 0.0140657 0.072326712
-0.28082889 0.0140657 0.078847766
-0.24399072 0.0140657 0.077388793
-0.062428731 0.0140657 0.077786915
-0.026420513 0.0140657 0.075062968
0.0016738325 0.0140657 0.07213477
0.046925992 0.0140657 0.07806012
0.2097414 0.0140657 0.071418978
0.22668153 0.0140657 0.072046757
0.23396185 0.0140657 0.074422121
-0.42624915 0.03350788 0.075571515
0.37155652 0.030701574 0.073614329
0.43262276 0.050544001 0.07831683
-0.27456224 0.0030936301 0.083908461
-0.2315385 0.0030936301 0.082201101
-0.1946013 0.0030936301 0.087035194
-0.17895541 0.0030936301 0.084363081
-0.11966041 0.0030936301 0.080176428
-0.029032111 0.0030936301 0.087034896
0.13412556 0.0030936301 0.085999429
0.16388446 0.0030936301 0.081851482
0.23980901 0.0030936301 0.080007963
0.27559862 0.0030936301 0.089568563
0.30737969 0.0030936301 0.088622801
0.34359986 0.0095036495 0.083199382
-0.36535108 0.019383878 0.089895979
-0.32714874 0.010523887 0.084171169
-0.29588869 0.0140657 0.085435271
-0.23553801 0.0140657 0.081186034
-0.17768978 0.0140657 0.089935273
-0.1494334 0.0140657 0.080814451
-0.11134025 0.0140657 0.083018489
-0.061876234 0.0140657 0.089808568
-0.011595502 0.0140657 0.082755096
0.15277407 0.0140657 0.084822223
0.1713102 0.0140657 0.089147821
0.20107959 0.0140657 0.080326892
0.23233992 0.0140657 0.086451866
0.27821544 0.0140657 0.0881745
0.31903189 0.0140657 0.083542019
0.35229874 0.012330216 0.083880261
-0.3997581 0.02736368 0.081681214
-0.35934725 0.028128594 0.089396887
0.40079188 0.028087297 0.081671402
0.43311507 0.038590379 0.084527902
0.40884602 0.042818118 0.084425673
-0.3085227 0.0062038954 0.093313426
-0.054529913 0.0030936301 0.095076613
0.10306866 0.0030936301 0.091682084
0.11123431 0.0030936301 0.095219776
0.17729497 0.0030936301 0.09767548
0.19721788 0.0030936301 0.096287325
0.22694886 0.0030936301 0.099913396
-0.29924667 0.014189648 0.090019539
-0.26179352 0.0140657 0.095972873
-0.23753387 0.014065701 0.097051963
-0.22667891 0.0140657 0.096669942
-0.20374259 0.0140657 0.097075112
-0.1649608 0.0140657 0.098016672
-0.15737784 0.0140657 0.094273731
-0.1433292 0.0140657 0.091019347
-0.12193553 0.0140657 0.095833033
0.090473965 0.0140657 0.098064974
0.22343534 0.0140657 0.099083677
0.3169255 0.0140657 0.090185061
-0.36717191 0.029943263 0.098642655
-0.3531177 0.026683863 0.099263266
0.38568145 0.023177382 0.091100395
-0.43664768 0.035919763 0.090665877
-0.42486051 0.033185795 0.096270956
0.3913334 0.037127759 0.096605062
0.40561038 0.041766774 0.090152986
0.41519353 0.044880614 0.09579394
-0.29683667 0.0059116124 0.10787678
-0.24873954 0.0030936301 0.10111248
-0.14785624 0.0030936301 0.108185
-0.1300723 0.0030936301 0.10059153
0.10286552 0.0030936301 0.10266519
0.1146876 0.0030936301 0.10286494
0.13231517 0.0030936301 0.10983177
0.18528017 0.0030936301 0.10200769
0.24484588 0.0030936301 0.10385554
0.28318283 0.0030936301 0.106433
0.29611355 0.0030936301 0.10775491
0.34193289 0.0089620091 0.1093197
-0.35365182 0.016670629 0.10748391
-0.24601941 0.0140657 0.10514102
-0.1924073 0.0140657 0.10412259
-0.038085043 0.0140657 0.10347277
0.092123881 0.0140657 0.10898875
0.10450989 0.0140657 0.10153469
0.11167136 0.0140657 0.10174898
0.18299699 0.0140657 0.10565274
0.19069421 0.0140657 0.10032752
0.27738103 0.0140657 0.10511768
0.31010333 0.0140657 0.1067687
0.36332044 0.015911529 0.106801
-0.39555547 0.026388958 0.1058859
0.40128157 0.028246414 0.10669083
0.37710094 0.032503158 0.10931365
0.39291915 0.037643023 0.10192207
-0.24799477 0.0030936301 0.1126985
-0.23218825 0.0030936301 0.11541869
-0.169129 0.0030936301 0.11722536
-0.13729936 0.0030936301 0.11581068
-0.12385521 0.0030936301 0.11362634
-0.051011406 0.0030936301 0.11118674
0.074091077 0.0030936301 0.11114643
0.1659269 0.0030936298 0.11485127
0.17632194 0.0030936301 0.11195004
0.18960619 0.0030936301 0.11208499
0.19505861 0.0030936301 0.1197579
0.26642942 0.0030936301 0.11082923
0.2772547 0.0030936301 0.11623839
0.32255951 0.0072961957 0.11127915
-0.35805094 0.017690862 0.1148074
-0.32413477 0.019961998 0.1191873
-0.20396757 0.0140657 0.11294127
-0.12430146 0.0140657 0.1132513
-0.081058353 0.0140657 0.11931375
-0.026717603 0.0140657 0.11775172
-0.00010542572 0.0140657 0.11742561
0.072292224 0.014065699 0.11644268
0.1401045 0.0140657 0.11438861
0.15374255 0.0140657 0.11786421
0.17578435 0.0140657 0.11395989
0.20963636 0.0140657 0.11403009
0.26440507 0.0140657 0.11602835
-0.39566904 0.026415298 0.11598913
-0.32846501 0.020966325 0.11129153
-0.40914491 0.039678097 0.11785852
-0.39644879 0.036733389 0.11035135
-0.37970531 0.032849964 0.1132002
0.41827714 0.033769 0.11000684
0.41412339 0.040300366 0.11903512
-0.25789964 0.0030936301 0.12126699
-0.15649629 0.0030936301 0.12455963
-0.124621 0.0030936301 0.12639682
-0.1175974 0.0030936301 0.12274945
0.058614604 0.0030936301 0.12834983
0.12929872 0.0030936301 0.12896864
0.27475724 0.0030936301 0.12048198
0.32255512 0.0054309051 0.12294745
0.33664528 0.0072438805 0.12457066
0.34061021 0.0085322177 0.12478299
-0.25977623 0.0140657 0.12165193
-0.24141455 0.0140657 0.12279666
-0.20774466 0.0140657 0.12634251
-0.14105152 0.0140657 0.1227841
-0.063467756 0.0140657 0.12903512
0.025221162 0.0140657 0.12458084
0.06083288 0.0140657 0.12525269
0.27268061 0.0140657 0.12022998
-0.41218555 0.039365057 0.1211058
-0.27239853 0.0030936301 0.13998757
-0.26995778 0.0030936301 0.1355934
-0.18651983 0.0030936301 0.13761073
-0.17555998 0.0030936301 0.13823612
-0.13503222 0.0030936301 0.1395022
-0.07201682 0.0030936301 0.1365895
0.011139117 0.0030936301 0.13432676
0.02440884 0.0030936301 0.13733119
0.099858254 0.0030936301 0.13603272
0.14986886 0.0030936301 0.13173842
0.15138732 0.0030936301 0.13319369
0.17658982 0.0030936301 0.13377601
0.2228096 0.0030936301 0.13896769
0.31620809 0.0030936301 0.13727105
0.32350695 0.0031072341 0.13346885
0.33759898 0.0075537777 0.13454992
-0.17936455 0.0140657 0.13215494
-0.081418075 0.0140657 0.13096195
0.046289474 0.0140657 0.13608983
0.11609358 0.0140657 0.1389254
0.28251183 0.0140657 0.1354439
0.35467222 0.013101443 0.13030969
-0.39351994 0.028252045 0.13455705
-0.37139586 0.02078576 0.13451576
0.38550046 0.02311857 0.1393273
0.38054672 0.033622801 0.13992091
-0.30877179 0.0062616728 0.14423911
-0.24326771 0.0030936301 0.14228928
-0.20766208 0.0030936301 0.14495236
-0.19250016 0.0030936301 0.14955907
-0.12271319 0.0030936301 0.14720254
-0.077696629 0.0030936301 0.14081277
0.035769686 0.0030936301 0.14812729
0.054152906 0.0030936301 0.14837876
0.12775467 0.0030936301 0.14756264
-0.29085678 0.0140657 0.14524601
-0.17325479 0.0140657 0.1427398
-0.16564989 0.0140657 0.14181009
-0.1416837 0.0140657 0.14541537
0.040765449 0.0140657 0.14648074
0.06089998 0.0140657 0.14662316
0.13552746 0.0140657 0.14787003
0.17156146 0.014065701 0.1412176
0.19669747 0.0140657 0.14960632
0.2929821 0.0140657 0.14076287
0.35039937 0.011713056 0.14321318
-0.24063146 0.007116599 0.154984
-0.13343075 0.0030936301 0.15375005
-0.11254864 0.0030936301 0.15186459
-0.061989263 0.0042709806 0.154984
-0.017648194 0.0051936498 0.154984
0.035301492 0.0055450737 0.154984
0.20029916 0.003903789 0.154984
0.21631628 0.0055096429 0.154984
0.2238438 0.0031682206 0.154984
0.30745775 0.0090965638 0.154984
-0.30963683 0.015315596 0.15487565
-0.24316999 0.0140657 0.15262327
-0.06700965 0.0140657 0.15365291
-0.031821564 0.0140657 0.15375568
0.0043468699 0.012199666 0.154984
0.21156493 0.012693856 0.154984
0.23747653 0.0140657 0.15076745
0.30233446 0.014065699 0.1528869
-0.3396247 0.023554618 0.15413879
