# .PCD v0.7 - Point Cloud Data file format
VERSION 0.7
FIELDS x y z
SIZE 4 4 4
TYPE F F F
COUNT 1 1 1
WIDTH 901
HEIGHT 1
VIEWPOINT 0 0 0 1 0 0 0
POINTS 901
DATA ascii
-0.23136613 0.023802841 -0.12063807
0.0216754 0.022601455 -0.1201282
0.057522438 0.024074115 -0.12060739
0.098338693 0.023593852 -0.12055151
0.20316625 0.025484536 -0.1205549
0.2784012 -0.037441809 -0.11716999
-0.29306519 0.017851699 -0.11226017
-0.21492445 0.019917568 -0.11094335
0.3273147 0.017919987 -0.11002879
-0.34377575 0.0203664 -0.11638211
-0.31536859 0.026412692 -0.11046527
-0.29972905 0.026973791 -0.11248837
-0.26772466 0.029871203 -0.11496066
-0.23254421 0.020527575 -0.11760835
-0.20251065 0.020003594 -0.11231856
-0.19184816 0.029946359 -0.11441784
-0.15772125 0.020573286 -0.11771877
-0.13375531 0.020018365 -0.11221004
-0.12618694 0.029912826 -0.11364403
-0.11290302 0.029267592 -0.11846601
-0.086946428 0.029775564 -0.11047649
-0.074988946 0.028789369 -0.11908937
-0.047408246 0.029966261 -0.1148771
-0.023313515 0.020047937 -0.11289234
-0.0059360391 0.020358276 -0.11719941
0.0027067363 0.029890619 -0.11313155
0.099600561 0.029763803 -0.11020514
0.19927716 0.027894154 -0.11989316
0.22282189 0.029798184 -0.11099849
0.25152722 0.029921643 -0.11384753
0.26224497 0.020013031 -0.11208694
0.28045323 0.029071722 -0.11840498
0.30595222 0.027063498 -0.11603565
0.36633161 0.026164344 -0.11063715
-0.3932147 0.039089553 -0.11440647
-0.38503504 0.037110437 -0.11753688
-0.37778711 0.041447438 -0.11433318
0.40370813 0.040139686 -0.11188181
-0.27533439 -0.072429359 -0.10485201
-0.26276612 -0.069727138 -0.10620432
-0.26800379 -0.043908846 -0.10854124
0.29178703 -0.046012446 -0.10798158
0.30917466 -0.044677034 -0.10569137
0.26569065 -0.0351591 -0.10394827
0.27324635 -0.033120357 -0.10274673
0.29850259 -0.030559983 -0.108426
0.28275573 -0.027435614 -0.10703596
0.29502353 -0.013194619 -0.1031449
-0.25212321 0.0196629 -0.10687631
-0.24048926 0.019461628 -0.10329478
-0.18938191 0.019645313 -0.10601104
-0.17489651 0.019398153 -0.10161124
-0.12117991 0.019468315 -0.10234277
0.019280143 0.019806091 -0.10731212
0.024985999 0.019805562 -0.10729991
0.069378898 0.019813504 -0.10748317
0.15942588 0.019830823 -0.10788275
0.16521263 0.01984876 -0.10829665
0.18867941 0.019738441 -0.10575121
0.22222683 0.019726336 -0.10547188
0.26652133 0.019792667 -0.10700238
-0.35117546 0.022764007 -0.10206158
-0.24851444 0.029523961 -0.10734372
-0.22172637 0.029165395 -0.10091089
-0.21491812 0.029618502 -0.10867548
-0.20867413 0.029515628 -0.10684281
-0.14327285 0.029389378 -0.1040763
-0.091871336 0.029431686 -0.10434644
-0.052710578 0.029585879 -0.10665857
0.043618955 0.029555455 -0.10539727
0.15883517 0.029754728 -0.10999573
0.24522667 0.029523365 -0.10465677
0.30553535 0.027684502 -0.10115834
0.36979109 0.027067462 -0.10068747
-0.37655452 0.031205168 -0.108
0.36346087 0.035247225 -0.10490271
0.40181085 0.045258105 -0.10356738
-0.42468774 0.050323024 -0.10012569
-0.27737668 -0.041861381 -0.098751843
0.27524269 -0.043786231 -0.095408328
-0.27380553 -0.03670577 -0.095268317
-0.27857262 0.019079968 -0.096924119
-0.24999744 0.019207327 -0.098986268
-0.22018579 0.019108981 -0.09702041
-0.11403885 0.019317411 -0.099671684
-0.049391326 0.018970795 -0.092330262
-0.035863712 0.019192163 -0.096808307
-0.006526649 0.018998209 -0.092440516
0.0071932897 0.0192902 -0.0981168
0.046918277 0.019348927 -0.098775953
0.10321934 0.019323433 -0.097831756
0.12887187 0.019140031 -0.093954414
0.13444719 0.019225899 -0.095363736
0.1815839 0.019421909 -0.098831959
0.25830168 0.01918059 -0.092543736
-0.36676002 0.027947478 -0.092230909
-0.27805045 0.028746113 -0.09349516
-0.26534873 0.028755732 -0.093697719
-0.20800698 0.028887643 -0.095855229
-0.12795122 0.028943546 -0.096158959
-0.1163728 0.02893872 -0.095930196
0.04973574 0.029187163 -0.09885443
0.078705534 0.02907161 -0.096599147
0.15835263 0.02900956 -0.094417274
0.16757163 0.028932877 -0.092692725
0.28391469 0.028992342 -0.091477007
0.36574209 0.026010444 -0.094020635
0.34717429 0.030995533 -0.090841137
0.38309386 0.030540148 -0.093971729
0.39672139 0.034097549 -0.091167055
0.42337713 0.041055903 -0.094729468
-0.43751061 0.054554194 -0.091654785
-0.28372583 -0.07158795 -0.083566934
0.29289103 -0.070025116 -0.088490531
-0.27826291 -0.054190449 -0.08223892
0.27148116 -0.050888985 -0.082602277
-0.26410758 -0.040236399 -0.083588302
0.24603683 -0.041408423 -0.084296942
0.27377105 -0.048922658 -0.083588302
-0.26399738 -0.039826389 -0.083588302
0.31054074 -0.0363672 -0.087143436
0.30619362 -0.02392911 -0.08415319
-0.28297248 -0.0102418 -0.087896705
-0.27903765 -0.0093537997 -0.082872003
-0.31556463 0.016584121 -0.083215237
-0.30849007 0.016596215 -0.083255097
-0.074496865 0.018825397 -0.089535572
0.13534769 0.018772982 -0.084318079
0.14405641 0.018711153 -0.082344897
0.25917402 0.01882381 -0.082466811
-0.33707729 0.028679926 -0.089914486
-0.30272812 0.02671263 -0.088648722
-0.27694696 0.028482538 -0.087924063
-0.22821918 0.02828352 -0.083319306
-0.16803786 0.028175643 -0.08025565
-0.007137645 0.028492171 -0.084907904
0.027208455 0.02852682 -0.084973514
0.10640468 0.028728938 -0.088568442
0.11563682 0.028486343 -0.081488565
0.16015515 0.02860507 -0.083653316
0.18565696 0.028674223 -0.084925592
0.22397932 0.028756443 -0.086226054
0.2795639 0.028874986 -0.088170514
0.28702509 0.028602401 -0.080490381
0.29630318 0.028524984 -0.083840609
-0.34936187 0.031993099 -0.088964239
0.37040564 0.037060186 -0.081215598
0.41642368 0.039240737 -0.082819089
-0.43608487 0.050922375 -0.087670222
-0.42429304 0.056915615 -0.082458556
-0.2755003 -0.061355576 -0.076700799
-0.29449823 -0.058037251 -0.077034302
0.30030277 -0.054849312 -0.076720603
-0.25933722 -0.04663574 -0.076700799
-0.28449976 -0.032856703 -0.078338593
-0.25878161 -0.030051928 -0.076700799
0.25337011 -0.036810949 -0.076716051
-0.28367031 -0.028116859 -0.076700799
0.27606684 -0.027013609 -0.070815913
0.25638166 -0.019455694 -0.079298519
-0.090987585 0.018369386 -0.078946874
-0.088263549 0.018140435 -0.07102599
0.07902877 0.018533517 -0.079063565
0.11813562 0.018360749 -0.071973503
0.13552663 0.018536558 -0.077651121
0.28571576 0.018565308 -0.073984727
0.33698094 0.019056305 -0.079512537
-0.29664937 0.027276184 -0.079684898
-0.23213328 0.028053766 -0.078510471
-0.12452869 0.028193453 -0.079603963
0.0062764809 0.028118333 -0.073079757
0.10704345 0.028198082 -0.072533727
0.19035427 0.028373526 -0.076054528
0.25543523 0.028459437 -0.076599315
0.32361856 0.027497299 -0.073409155
-0.38520104 0.034081094 -0.079914503
0.39798284 0.034426842 -0.074186504
-0.42299935 0.046653025 -0.074518114
-0.37955901 0.042036798 -0.071784087
-0.45393205 0.05848711 -0.072189353
-0.40756431 0.051351663 -0.077220537
0.4434199 0.056120396 -0.074522816
-0.27293783 -0.053340487 -0.067928061
-0.28556415 -0.040144779 -0.067017876
-0.25653353 -0.036035694 -0.062371626
0.29082412 -0.035642184 -0.068672344
-0.20937335 0.017805526 -0.066096894
-0.07859236 0.018083831 -0.069142595
0.10375159 0.018000089 -0.060575712
0.19560623 0.018163016 -0.062167954
0.22729571 0.018199783 -0.062410899
0.28881851 0.01843445 -0.069238894
-0.37292412 0.029997686 -0.066685364
-0.25582179 0.027372461 -0.060492355
-0.0035023838 0.027777743 -0.062791422
0.059021786 0.027874388 -0.063258365
0.12588434 0.028099671 -0.068320855
0.14706545 0.027933381 -0.061821893
0.15500154 0.027961479 -0.062314287
0.17045666 0.028080435 -0.066101953
0.20563002 0.028044919 -0.063613117
0.22851798 0.028036054 -0.062510483
0.24357724 0.028253224 -0.069874212
0.32498518 0.027565481 -0.06818755
0.37262037 0.027806053 -0.06284824
0.40714899 0.036819618 -0.06709329
-0.43235463 0.049764581 -0.066218227
-0.38575959 0.044099178 -0.065998383
-0.44092426 0.052614886 -0.065809779
-0.27189916 -0.053203806 -0.058121383
0.28849977 -0.048028782 -0.050233159
-0.25896284 -0.025971046 -0.058094569
0.28720319 -0.02270082 -0.05570253
-0.27723753 0.017451407 -0.058264099
-0.23408143 0.017371148 -0.054021239
-0.22537938 0.017387288 -0.05421466
0.058392212 0.017640168 -0.050100066
0.3385627 0.019294597 -0.050084617
-0.31249827 0.026356649 -0.050628394
-0.28051791 0.027171697 -0.054326817
-0.276833 0.027275207 -0.058180697
-0.1679002 0.027247511 -0.052499074
-0.14521462 0.027344927 -0.055107668
-0.070665278 0.02732861 -0.050885282
-0.04108499 0.027556818 -0.058088191
0.010938082 0.027678421 -0.059595454
0.090199962 0.027756574 -0.058982436
0.10914624 0.027759012 -0.058394805
0.26077193 0.027932441 -0.05783464
0.31771427 0.027298983 -0.051550705
-0.35552517 0.034043036 -0.055028643
0.36357531 0.035277098 -0.057127476
-0.40513319 0.040710747 -0.053644266
0.38254356 0.04022871 -0.055840701
-0.45668209 0.067688361 -0.053942855
-0.27668381 -0.052720975 -0.04459735
0.28405678 -0.051884755 -0.04087875
-0.25223118 -0.038422313 -0.04320481
-0.25782686 -0.022424195 -0.0458657
0.25994408 -0.023718083 -0.047227748
-0.32146215 0.016852038 -0.041388907
-0.30341321 0.016839996 -0.045510445
-0.29070932 0.017070679 -0.044101596
-0.28792381 0.016977198 -0.040545501
-0.24486658 0.017186521 -0.047521107
-0.18476078 0.017126454 -0.042333193
-0.16683562 0.017304735 -0.048247054
-0.15157212 0.017315399 -0.047915258
0.0024162382 0.017486636 -0.04658417
0.079419009 0.017594989 -0.046201292
0.10347474 0.017560856 -0.042631801
0.16696486 0.017750856 -0.047424391
0.19517839 0.017844057 -0.04999911
0.24839856 0.017907543 -0.049155939
-0.30329004 0.026679546 -0.040684707
-0.19039091 0.026968939 -0.042991936
-0.17467211 0.027041201 -0.044980593
-0.11209474 0.027225409 -0.048962332
-0.029265605 0.027345855 -0.049540747
0.042258244 0.027275331 -0.041327439
0.069111004 0.027300455 -0.040551625
0.10597298 0.027426898 -0.044151768
0.21871489 0.027686074 -0.048691906
0.25357985 0.027621208 -0.042738687
0.31578016 0.027274653 -0.043428764
0.32747281 0.027765455 -0.049123444
-0.42693666 0.047962565 -0.047816381
-0.41141924 0.042801507 -0.047797702
0.46913069 0.053111125 -0.040691994
-0.43969864 0.062039524 -0.041606456
0.25467309 -0.035409085 -0.032574281
-0.32143065 0.016850188 -0.034920894
-0.29821068 0.0126259 -0.030745976
-0.2585125 0.016802464 -0.030021328
-0.21110459 0.016995525 -0.037513155
-0.1956922 0.017058397 -0.03998372
-0.18018559 0.016939897 -0.030554924
-0.056335028 0.017245382 -0.038828555
-0.035509329 0.017215652 -0.033776455
-0.0058426131 0.017223077 -0.030627884
0.0041812211 0.01735408 -0.039722465
0.082853258 0.017427584 -0.036637217
0.23853135 0.017641356 -0.034899417
0.27973425 0.015376864 -0.031658899
0.30844626 0.017663479 -0.038734008
-0.37086549 0.029312987 -0.038365856
-0.34088317 0.029461008 -0.037423186
-0.33698305 0.028663188 -0.038803384
-0.31064624 0.026386509 -0.037258938
-0.27897301 0.026717085 -0.035951708
-0.091744795 0.026965182 -0.033930585
-0.027707823 0.027053263 -0.033229813
0.061938316 0.027193867 -0.03370785
0.1582211 0.027367253 -0.036122277
0.163046 0.027378649 -0.036472626
0.18952721 0.027392155 -0.034239318
0.22711928 0.027426932 -0.032391835
0.27908584 0.027527083 -0.034574971
0.30050778 0.027529804 -0.034804881
0.34302235 0.02994048 -0.035143644
-0.39460731 0.037209731 -0.031237753
-0.37034899 0.038973495 -0.039434381
0.37197343 0.037469465 -0.039782323
0.40407875 0.036018148 -0.033009481
-0.40911686 0.042035751 -0.036583357
0.41965601 0.049916636 -0.037676565
-0.44911471 0.055339105 -0.036283515
0.42250371 0.050660063 -0.034429893
-0.47521341 0.067908563 -0.03015754
-0.44545764 0.063955039 -0.03533639
0.2711426 -0.050629538 -0.021367161
0.28129661 -0.052902266 -0.024165742
-0.2861208 -0.036923416 -0.027867546
0.25291747 -0.030406706 -0.020897336
0.29348895 -0.026398661 -0.028248824
-0.28365037 -0.012293389 -0.025874756
-0.25009811 -0.018419251 -0.026654426
-0.3380594 0.019022087 -0.026616365
-0.29067686 0.016830036 -0.024036203
-0.2396854 0.012625901 -0.025358781
-0.22518563 0.0126259 -0.022128493
-0.15100974 0.016848696 -0.021716308
-0.10373431 0.016993364 -0.025963159
-0.017033044 0.017079979 -0.022405326
0.024079554 0.017148275 -0.022446731
0.030289762 0.017200638 -0.025122706
0.040391702 0.017178539 -0.022664353
0.05634959 0.017242057 -0.025030136
0.11880311 0.017340835 -0.024777355
0.22590625 0.0127128 -0.027326956
0.23022696 0.017725268 -0.029793356
0.24088071 0.017726859 -0.029928517
-0.35076231 0.022626586 -0.025559744
-0.3287071 0.027371144 -0.029076938
-0.21144558 0.026577489 -0.021465156
-0.18944508 0.026653692 -0.024001194
-0.17656738 0.026744893 -0.028444879
-0.13688561 0.026798058 -0.02767553
-0.0023891684 0.026996316 -0.026214104
0.10296836 0.027106261 -0.022189703
0.24083447 0.027307065 -0.020537607
0.34170914 0.029697668 -0.026377521
-0.39233404 0.036453612 -0.026366213
-0.37156409 0.039377633 -0.026913021
-0.35138065 0.032664545 -0.026969191
0.39062339 0.032505695 -0.020596588
-0.39137003 0.045965273 -0.026367497
0.40708536 0.046634927 -0.028775319
0.42346048 0.041077662 -0.021637445
-0.26580897 -0.050893869 -0.018573284
-0.23719174 -0.031008573 -0.013314175
-0.25436142 -0.023123864 -0.016169978
-0.23633297 -0.023008078 -0.016935891
0.24766715 -0.029629365 -0.01986254
0.26267692 -0.024110392 -0.015326987
-0.25033176 -0.01703731 -0.016501086
-0.2485905 -0.016702635 -0.019651748
-0.22669625 -0.017517412 -0.013453471
-0.27705497 -0.0092415363 -0.013445427
-0.21762013 -0.0044902889 -0.013150726
-0.28638244 0.00027289928 -0.015513511
0.2651121 0.005041251 -0.016110528
-0.300603 0.013899705 -0.011529977
-0.29343924 0.0126259 -0.016469264
-0.25253388 0.0126259 -0.017216161
-0.21503186 0.014645411 -0.014236289
-0.19363144 0.016715838 -0.014571353
-0.18912797 0.016730808 -0.016001968
-0.13663593 0.016825592 -0.017591452
-0.056846119 0.016925164 -0.011583552
-0.019648232 0.016979629 -0.010305578
0.10186537 0.017182698 -0.010208678
0.1468059 0.017291291 -0.017445995
0.19837099 0.017357472 -0.013106349
0.23137945 0.015145464 -0.016381189
0.25382885 0.0127128 -0.017463768
0.26692587 0.0127128 -0.013394462
0.27535132 0.010450603 -0.018420899
0.28428757 0.017545592 -0.01951623
0.3060348 0.012079834 -0.013310221
-0.2280736 0.026470434 -0.010572017
-0.13230461 0.0266599 -0.016644787
-0.030468069 0.026833424 -0.017780203
0.020883253 0.026884532 -0.01142263
0.049067818 0.026945509 -0.014203403
0.08994136 0.02702995 -0.017476249
0.093849666 0.027021021 -0.014447467
0.12778279 0.027089328 -0.016926415
0.23949192 0.027272495 -0.016407095
0.32813272 0.027820401 -0.016195534
0.33637166 0.028796878 -0.010007072
0.35134378 0.022251701 -0.014810093
0.36152321 0.024909087 -0.019727856
-0.34353852 0.030056233 -0.016977474
0.35881692 0.0340349 -0.018028684
0.37758213 0.038933612 -0.012064824
-0.40812516 0.041705895 -0.012298122
-0.38000578 0.042185403 -0.017123219
-0.45406294 0.056984939 -0.012704473
-0.46691877 0.061260693 -0.016881049
-0.28084344 -0.050394416 -0.00011429656
-0.26935956 -0.031838994 -0.0053032506
-0.2450083 -0.034356032 -0.002144634
0.26592562 -0.02395591 -0.0029818953
-0.25842851 -0.011182581 -0.0089987302
0.29093361 -0.0026240458 -0.0060232957
0.30294514 -0.0022203103 -0.007512779
-0.26576844 0.0062347054 -0.001082873
0.28617871 0.0020607288 -0.0091096843
0.30531198 0.0086443732 -0.0086187162
-0.28461957 0.014597507 -0.0091709476
-0.27034536 0.0126259 -3.0467752e-05
-0.14764713 0.016749039 -0.006531327
-0.12620111 0.016767101 -0.0027078728
-0.0042593479 0.017002001 -0.0097672381
0.055046555 0.017072681 -0.0023786111
0.093950436 0.017145474 -0.00414187
0.18967973 0.017315201 -0.006089543
0.19728273 0.017340124 -0.0091573
0.28518105 0.015100737 -0.0076415818
-0.34519935 0.020776333 -0.0048051532
-0.33867529 0.028979156 -0.007655818
-0.32698035 0.027173106 -0.0050094426
-0.30561534 0.026405752 -0.0099499254
-0.2732648 0.026368417 -0.002840745
-0.15860024 0.026546512 -0.0031191197
-0.086839296 0.026657993 -0.00059167587
-0.058624305 0.026730403 -0.0068546599
-0.0074337274 0.026813798 -0.0060341517
0.0028721001 0.026814595 -0.0018092567
0.021338016 0.026855789 -0.0043337136
0.048652798 0.02691065 -0.006527741
0.09496782 0.026995055 -0.0080593061
0.1038883 0.026979987 -0.00039982129
0.13158268 0.027039506 -0.0036128554
0.2028808 0.027169243 -0.0059210677
0.22723947 0.027217502 -0.0077078352
0.2994591 0.027303953 -0.0084436303
0.31363937 0.027281143 -0.0035188834
0.34289733 0.02008507 -0.0086338967
0.35237047 0.022519726 -0.0045281295
0.3718698 0.027610112 -0.00022362173
-0.38277274 0.033273414 -0.0094784722
-0.36942869 0.038667396 -0.0046327692
0.34781873 0.031163765 -0.0077870749
0.3670274 0.036178283 -0.0077709742
-0.38594446 0.044160668 -0.0037169009
0.44478875 0.056477733 -0.0011277422
0.28009394 -0.053060658 0.0089103039
-0.26934868 -0.048812397 0.005331642
-0.26824588 -0.034594454 0.0082055703
-0.25420067 -0.032886267 0.0054321163
-0.24631311 -0.03694351 0.0009674516
-0.22464973 -0.022416508 0.0021464787
-0.26110929 -0.014088667 0.0060514933
0.25043863 -0.01046172 0.0005937122
-0.300603 0.015965326 0.0044844379
-0.28977415 0.012625901 0.0017029424
-0.15715683 0.016728012 0.0055238735
0.12839735 0.017194118 0.0016772765
0.19171888 0.017317289 0.0057420405
0.20321757 0.017335143 0.0053305114
0.21822388 0.017342636 0.00076926209
0.2413577 0.012712801 0.0019001528
-0.32390609 0.026872063 0.0023251437
-0.30862686 0.026397722 0.0084210252
-0.21287796 0.026450211 0.0019596592
-0.17547321 0.026546342 0.008545992
-0.13600415 0.026596362 0.0057043238
-0.052812256 0.026730217 0.0043100468
-0.0018730462 0.026824541 0.0063736611
0.008372277 0.026828926 0.0030843511
0.049233273 0.02689448 0.0021730301
0.28363881 0.027299292 0.007260046
0.30794284 0.027282704 0.003048325
0.33939075 0.029269002 0.0029053446
0.35946646 0.02437216 0.0092313886
0.35893404 0.034065474 0.0097838379
0.3896907 0.032262221 0.0010647289
0.38393724 0.040592507 0.0097074863
0.40389252 0.045801476 0.00034525618
-0.42436847 0.056940697 2.2642314e-05
0.42980599 0.052566424 0.008260861
0.47520828 0.054517038 0.0092296684
-0.46201956 0.069463581 0.0090977419
-0.44178924 0.062734887 0.0076688901
0.46265543 0.061141811 0.0026923269
0.2772578 -0.053089775 0.016975362
-0.2865136 -0.034650255 0.017314535
-0.25866592 -0.03467558 0.016773621
0.25839832 -0.030924942 0.0173846
-0.25283605 -0.027682157 0.014102666
0.24075171 -0.021058496 0.015331552
-0.28928626 -0.018604808 0.011645626
0.23561609 -0.017512638 0.016253574
0.24709241 -0.01218312 0.017712159
-0.285945 -0.0082458248 0.013029473
-0.23397836 -0.0066929804 0.018420899
0.25176638 -0.0097786877 0.019159641
-0.28403914 0.0057971552 0.018420899
-0.26293489 0.0047772527 0.017931985
0.22193441 0.00054792967 0.015816156
0.27956823 0.0072936434 0.018420899
0.2865864 0.0019404166 0.012516379
0.30477187 0.0060772062 0.011728846
-0.34183836 0.019837165 0.01529601
-0.30868092 0.016575973 0.01043953
-0.26903519 0.0126259 0.01038437
-0.24835584 0.012625901 0.011071431
-0.23827052 0.0126259 0.016091339
-0.22244896 0.012625899 0.012805642
-0.098453879 0.016854286 0.01114956
-0.0026622415 0.017043274 0.017100189
0.050828256 0.0171289 0.016654551
0.085298911 0.017160093 0.01159391
0.1187226 0.017218493 0.012054909
0.16640779 0.017327564 0.018247314
0.3070842 0.017483735 0.011521767
0.3248933 0.017728597 0.016597528
-0.26961267 0.026443629 0.01716342
-0.076076701 0.0267534 0.016832128
-0.055218115 0.026807019 0.019719658
-0.00058345124 0.026874043 0.016151549
0.10528418 0.027028013 0.011995343
0.1166676 0.027062144 0.01523331
0.15498903 0.027142746 0.018575242
0.19142568 0.02717869 0.01324212
0.24358255 0.027268862 0.013727756
0.33556733 0.02867572 0.016288597
-0.365848 0.037476439 0.012045192
-0.44047296 0.052464768 0.014913647
-0.42845488 0.058299825 0.0167381
0.44930038 0.057655487 0.016309608
-0.46838364 0.061747886 0.019514047
-0.27507949 -0.053075377 0.025578564
0.2508797 -0.03013297 0.028147649
-0.2797142 -0.011170955 0.021966528
-0.22113441 0.0072584399 0.027153524
-0.33417311 0.018331714 0.021443885
-0.29592848 0.014945677 0.022697289
-0.25391629 0.016785657 0.028473338
-0.22651015 0.0126259 0.022010263
0.099091366 0.017286144 0.023358569
0.21886399 0.015086628 0.026463076
0.22560871 0.017673526 0.02541611
0.2792227 0.0127128 0.024098009
0.31032193 0.017568747 0.023895081
-0.29661816 0.025650671 0.029364215
-0.25364846 0.026535448 0.023204792
-0.24615422 0.026571313 0.024697164
-0.17043918 0.026641145 0.021223558
-0.070989124 0.02690077 0.027308436
-0.0208648 0.026912643 0.022830993
0.029244617 0.026985956 0.022251509
0.069261767 0.027061993 0.022897776
0.085805587 0.027146991 0.026710104
0.24067789 0.0273249 0.02204676
0.27296203 0.027380453 0.022634929
-0.36751169 0.03802979 0.028702073
-0.34845054 0.031689994 0.02696421
0.38523883 0.031100079 0.023274645
0.40956122 0.037449323 0.022499055
0.41661885 0.03929168 0.022591237
-0.39489037 0.047136173 0.020454854
0.4447557 0.056469113 0.028854745
-0.47057509 0.062476791 0.027735654
-0.452981 0.066457368 0.023670968
-0.25831783 -0.018466242 0.032488175
0.27891561 -0.015967052 0.034498774
-0.17752771 0.016954584 0.031210085
-0.13484684 0.017090552 0.035842609
-0.061974034 0.017201519 0.035951152
0.065789789 0.017351232 0.032347951
0.18636382 0.017535243 0.032561958
0.22942983 0.017673073 0.038706135
0.2577655 0.017659821 0.034012236
0.26236093 0.015267662 0.03298723
-0.30752525 0.026463466 0.032021437
-0.2676549 0.026623312 0.030008271
-0.23083422 0.026764307 0.035342194
-0.1195598 0.026872817 0.030608229
-0.056629919 0.026985601 0.031198289
-0.017627399 0.027034879 0.030398974
0.045493715 0.027188122 0.035318941
0.056675985 0.027143473 0.030112999
0.083953947 0.027187092 0.030330544
0.24687007 0.027480382 0.034409411
0.33645344 0.028809194 0.038218342
-0.37078011 0.039116882 0.039036982
0.41756549 0.039538804 0.038097348
-0.41985369 0.045606788 0.031486508
0.42769274 0.052014742 0.037448529
0.27225628 -0.051483877 0.046791255
0.25674799 -0.035667457 0.044397138
0.25642449 -0.02640079 0.041508418
-0.33177167 0.017960433 0.042956434
-0.30233389 0.016903309 0.046766222
-0.29624969 0.016967498 0.040173687
-0.27619565 0.017077668 0.04437327
-0.15027195 0.017227286 0.044502061
0.014877364 0.017488435 0.045724027
0.048881076 0.017443229 0.040832564
0.099786952 0.017687079 0.049319278
0.10303769 0.017679593 0.048691191
0.198669 0.017679524 0.041383032
0.25025356 0.017814469 0.044291124
0.30423439 0.017907897 0.047014557
0.31111723 0.017530341 0.044630036
-0.29713768 0.027025245 0.04875185
-0.25243384 0.026928853 0.044465631
-0.21879245 0.02707731 0.048485745
-0.099920228 0.027243264 0.049053505
-0.085158169 0.027093302 0.041822448
-0.047354683 0.027135052 0.041053835
0.026319407 0.027368173 0.047255248
0.18627106 0.027504653 0.041965283
0.29835474 0.027674282 0.043668535
0.32627046 0.027665336 0.046651017
0.3470158 0.021121856 0.044487223
0.36729729 0.026416449 0.045534275
0.36613196 0.035944525 0.041947339
0.39964694 0.034861252 0.045483075
0.41743779 0.04933754 0.041948918
-0.42477018 0.057074293 0.047184415
0.45890188 0.060161948 0.041132856
-0.28497562 -0.043550633 0.059207007
-0.25505066 -0.033345826 0.055207096
-0.27142218 -0.023091782 0.057558432
-0.26328945 -0.024291292 0.056104932
-0.32637408 0.017281368 0.051272918
-0.19763231 0.01749533 0.056983016
0.045160867 0.017897096 0.059800565
0.077882536 0.017730827 0.052629277
0.098741479 0.017737197 0.051863879
0.2804451 0.018027268 0.053076815
-0.36456907 0.027218768 0.053676736
-0.35691565 0.024673214 0.05334245
-0.30742341 0.026449401 0.056908645
-0.27509189 0.027198393 0.055342145
-0.21382201 0.027334947 0.0576417
-0.19291057 0.027307391 0.055984776
-0.0050663203 0.027395807 0.050271556
0.058628518 0.027581463 0.05425436
0.072761148 0.02750821 0.050785977
0.094599038 0.027666008 0.05573165
0.27020985 0.027823325 0.051723357
0.29404801 0.027862214 0.053207207
0.32758451 0.027774755 0.056757636
-0.35959488 0.035396636 0.058953512
0.37587458 0.038487881 0.052955344
0.38420963 0.030831417 0.054520577
-0.41426587 0.043748289 0.050991055
-0.38168108 0.042742629 0.050064348
0.41252536 0.04805509 0.051098086
-0.45243472 0.056443371 0.058650214
-0.43442389 0.050452806 0.050665893
-0.41690117 0.054457083 0.05249716
-0.40641356 0.050968904 0.054262169
0.43069288 0.052797962 0.052606549
-0.27232227 -0.053259492 0.069069952
0.27200884 -0.051294014 0.066869527
-0.25785094 -0.043348916 0.062474385
0.26333973 -0.039232768 0.067971013
-0.26894778 -0.024570871 0.060977321
-0.21084997 0.017805669 0.066151805
-0.20715794 0.017804034 0.065979987
-0.095044993 0.017980471 0.066903248
-0.082668968 0.017987812 0.066675566
-0.075828888 0.018102992 0.069567792
0.13873217 0.018204246 0.065594986
0.18741897 0.018138073 0.061555862
0.25126833 0.018287566 0.06477686
0.26476717 0.018335886 0.066068679
0.29317752 0.018348891 0.066137217
-0.35242337 0.023179071 0.068207599
-0.3410587 0.029499315 0.064530432
-0.31759009 0.026457204 0.067440949
-0.28870881 0.027426586 0.062291063
-0.21943352 0.027756063 0.069655195
-0.11247125 0.027796172 0.067052953
0.015367098 0.027854107 0.064214535
0.14908116 0.028123021 0.068376482
0.23710197 0.028167836 0.066997997
0.31790471 0.027302159 0.068360209
0.35508317 0.023227889 0.060104012
-0.38253516 0.0331944 0.064948186
-0.37482157 0.030628769 0.064806946
-0.35161826 0.032743581 0.069809884
0.35371768 0.03270372 0.062686622
0.39598548 0.033905439 0.065054156
0.4143326 0.03869487 0.064066239
-0.45373303 0.05687521 0.065417215
-0.43908739 0.052003931 0.062703282
-0.41058907 0.052357696 0.064723894
0.43129423 0.052954953 0.060190141
-0.28937387 -0.0671895 0.079266652
-0.27091685 -0.067790374 0.076861791
-0.26331651 -0.068058625 0.077566706
-0.29482061 -0.053162895 0.076701298
0.2736721 -0.052131999 0.075975575
0.28664726 -0.056446105 0.076701298
-0.26058021 -0.04502036 0.077635363
-0.25494954 -0.043929547 0.076701298
0.26731098 -0.046902269 0.073773518
0.30243796 -0.046267219 0.076701298
-0.26369709 -0.032159217 0.076954328
-0.27854618 -0.028084012 0.077743158
0.24984166 -0.028891429 0.079937302
0.26643568 -0.018156406 0.076722413
0.28002587 -0.014309241 0.076843061
-0.13375191 0.018243471 0.076315068
-0.12036151 0.01821507 0.07482814
-0.095537707 0.018400259 0.07993757
-0.057386957 0.018343985 0.077340089
-0.00087283552 0.018220657 0.070953682
0.017583281 0.018223457 0.070425488
0.022607788 0.018316794 0.07363905
0.071926683 0.018343871 0.072938338
0.083502911 0.018357882 0.073051453
0.16639091 0.018561704 0.077314667
0.17557654 0.018550474 0.076894425
0.21527624 0.018554686 0.075692527
0.24188349 0.018538876 0.074211277
-0.32131812 0.026675913 0.077818133
-0.28890926 0.028005643 0.077857085
-0.27699628 0.027990986 0.077548437
-0.22293201 0.027875587 0.073022254
-0.0088435449 0.028123558 0.073785454
0.023001123 0.028090347 0.071493983
0.079468347 0.028323635 0.077863172
0.18940958 0.028357543 0.07550703
0.30515358 0.027716359 0.079790719
-0.40176985 0.039592061 0.072281376
-0.39917749 0.038729809 0.07837458
0.34352583 0.03004308 0.074869767
0.37465468 0.038169421 0.079443462
-0.43233252 0.049757216 0.071803398
-0.40563303 0.040876985 0.075579002
0.40993765 0.047379531 0.070219621
-0.4430182 0.063143648 0.076588042
-0.29789358 -0.061704874 0.085352041
0.29977232 -0.065439217 0.084840752
-0.24536355 -0.058127105 0.08494053
0.24634005 -0.043712255 0.086166635
0.31112728 -0.041164584 0.089756921
-0.26427379 -0.034862023 0.083588704
-0.25023302 -0.017854793 0.083342388
-0.32863528 0.017528877 0.088632591
-0.28806531 0.018303161 0.080591686
-0.23946369 0.018536963 0.085250139
-0.20688838 0.018651567 0.08731325
-0.16321665 0.018689467 0.087636039
-0.057452708 0.018513408 0.082116172
-0.019744612 0.018859487 0.089657038
-0.0029887706 0.018883951 0.08999034
0.12110958 0.018690364 0.082367666
0.15102601 0.018721312 0.082446426
0.17734577 0.018787678 0.083618671
0.19120073 0.018692411 0.080566682
0.20694347 0.018949438 0.087392211
-0.2474249 0.028516453 0.088448524
-0.22608241 0.028427841 0.086343594
-0.18306708 0.028502792 0.087455258
-0.17235167 0.02852983 0.087908886
-0.16864654 0.028500648 0.087252036
-0.015327528 0.028674934 0.089253463
0.027935751 0.028376726 0.080725387
0.094113164 0.02873314 0.089013033
0.10487191 0.028442841 0.080548301
0.15019426 0.028555617 0.082524203
0.22510999 0.028642088 0.0829743
0.3438279 0.030121939 0.086103395
0.3965219 0.034045469 0.085115306
-0.40790319 0.041632071 0.087291598
0.38531071 0.040951028 0.080116674
-0.29345834 -0.066100799 0.099463642
0.30186132 -0.063699313 0.092143625
-0.24314332 -0.053413101 0.092952013
-0.27147943 -0.045254469 0.09101785
0.28276339 -0.042461492 0.098193191
-0.27589679 -0.037703648 0.099967144
-0.24703348 -0.0218536 0.091512643
0.2679826 -0.010408704 0.095841616
-0.33751959 0.018926192 0.096122779
-0.14393534 0.01912594 0.096631244
-0.043558732 0.01892627 0.091326892
-0.031191528 0.019222757 0.097295269
-0.0098705934 0.019156534 0.095819168
0.018391855 0.018930294 0.090734906
0.04081057 0.019121036 0.094516084
0.052506916 0.019237779 0.096805982
0.073468111 0.019091684 0.093539625
0.09037336 0.019327901 0.098024242
0.1046978 0.019352846 0.09832707
0.1791425 0.019462399 0.099553771
0.21048275 0.019197969 0.094285898
0.33940411 0.019439174 0.097320348
-0.26423359 0.028685044 0.092192791
-0.21621779 0.028886732 0.095925942
-0.15515372 0.028729973 0.091946982
-0.1318288 0.029107109 0.099098861
-0.10543114 0.029108219 0.098881513
-0.061866626 0.028784649 0.092079967
0.073029071 0.028835539 0.091677323
0.14369485 0.028878959 0.091807008
0.21760231 0.029220117 0.097919866
0.242016 0.028922066 0.090414658
0.37508321 0.028448988 0.095529735
-0.38514271 0.034061689 0.092466444
0.39320278 0.033179037 0.090792567
-0.41556251 0.044179548 0.091010869
0.43145743 0.046805002 0.095610328
-0.43030882 0.05662442 0.094913632
-0.29208151 -0.064228512 0.10659545
-0.28782803 -0.069904186 0.10077125
-0.27115864 -0.064613804 0.10842599
-0.27927625 -0.053770643 0.10771044
-0.26990893 -0.054729871 0.101348
-0.28481323 -0.048892379 0.10501061
-0.24387312 -0.044862635 0.10709661
0.27975807 -0.046668082 0.10534896
0.28194058 -0.043887414 0.10556077
-0.27301228 -0.034818392 0.101538
0.25503504 -0.032493662 0.108426
0.27501038 -0.035840455 0.10480529
-0.29548359 -0.027188968 0.10834374
-0.26844692 -0.027673518 0.10184314
0.25637528 -0.02417098 0.10794476
0.26109487 -0.024410626 0.10842599
0.26420969 -0.012092613 0.10133236
-0.28170735 0.018984918 0.10779557
-0.26504526 0.019273328 0.10026124
-0.18693209 0.019741777 0.10765582
-0.17911032 0.019602766 0.10518409
-0.1152473 0.019599879 0.10456289
-0.074076667 0.019838678 0.1083203
-0.033559337 0.01982414 0.10772874
0.02079976 0.019568618 0.10280558
0.046943337 0.019602623 0.10315922
0.08209911 0.019844005 0.10818716
0.12891239 0.019628484 0.10321444
0.13402238 0.019775465 0.10660575
0.17171086 0.019713491 0.1051758
0.19451919 0.019880116 0.10902032
0.24200518 0.019619791 0.10301387
0.31857938 0.017481066 0.10907234
0.33631599 0.018956134 0.10201013
-0.32643223 0.027119432 0.10854875
-0.20786969 0.029527098 0.10703374
-0.1538275 0.029607523 0.1079386
-0.14748006 0.029151242 0.10000128
-0.1263748 0.029499277 0.10582308
-0.040604889 0.029349264 0.10246378
0.051842734 0.029561218 0.10553052
0.066612594 0.02926315 0.10001585
0.092210464 0.02969921 0.10871479
0.15756547 0.029457169 0.10312953
0.24733981 0.029716544 0.10911474
0.28458673 0.029342089 0.10047395
0.34787321 0.021345688 0.1084386
-0.36013186 0.035575248 0.10323328
0.37722933 0.038841505 0.1019441
-0.39368841 0.046736389 0.10705611
0.39880556 0.044473629 0.10019781
-0.12482563 0.019960541 0.11087976
0.29250517 0.0191362 0.11673547
-0.36308748 0.026725981 0.1152851
-0.32111943 0.026664257 0.11355534
-0.29056072 0.027955463 0.11306886
-0.24255732 0.020175092 0.11582628
-0.18109065 0.029894285 0.11321621
-0.17782068 0.021652861 0.11940069
-0.1617118 0.020432718 0.11737922
-0.11140946 0.020078521 0.11359812
-0.079015464 0.022245191 0.11985558
-0.040514562 0.027846776 0.11993022
-0.029608831 0.021446403 0.1191502
-0.0046247244 0.020166289 0.11562318
0.045883901 0.02020815 0.1161249
0.073359683 0.029945986 0.11440931
0.083155163 0.020329161 0.11704166
0.11047491 0.022255242 0.11986329
0.12202755 0.029729825 0.11744356
0.14510657 0.029843185 0.11203715
0.19539905 0.029782373 0.11731665
0.22612551 0.029937264 0.1164545
0.2494792 0.029893996 0.11320959
0.33981144 0.029346794 0.1113651
0.35549271 0.024321396 0.1186269
0.36714193 0.027606156 0.11883198
0.37281728 0.037689757 0.11438032
0.38209033 0.035768718 0.11680141
0.401353 0.039547861 0.11261867
-0.3055734 0.023074664 0.12057547
-0.29553005 0.023105793 0.12073305
-0.10392908 0.027752392 0.1200027
-0.09988533 0.024503518 0.12073644
-0.076791927 0.024165876 0.12069213
0.18268114 0.02628939 0.12065719
0.2762714 0.027147856 0.12032369
-0.36719418 0.031527359 0.12014907
