# .PCD v0.7 - Point Cloud Data file format
VERSION 0.7
FIELDS x y z
SIZE 4 4 4
TYPE F F F
COUNT 1 1 1
WIDTH 933
HEIGHT 1
VIEWPOINT 0 0 0 1 0 0 0
POINTS 933
DATA ascii
-0.17573516 -0.021983899 -0.16123222
-0.13688886 -0.021983899 -0.1623027
-0.10248648 -0.021983899 -0.16231635
-0.055262126 -0.021983899 -0.16341734
0.040192589 -0.021983899 -0.16103122
0.109966 -0.021983899 -0.16337226
0.19225678 -0.021983899 -0.16354819
0.22098678 -0.021983899 -0.16219793
0.23992993 -0.021983899 -0.16344334
-0.29172397 -0.012071176 -0.16413605
-0.26452917 -0.012636369 -0.16419093
-0.18748309 -0.013650369 -0.16432863
-0.16330796 -0.01638386 -0.16426124
-0.065819338 -0.015495518 -0.16428587
-0.016209051 -0.017951371 -0.16421779
0.0076602101 -0.018968318 -0.16418961
0.038270399 -0.010528493 -0.16442357
0.13560739 -0.017358385 -0.16423422
0.14305446 -0.013733452 -0.16433471
-0.32281649 -0.0068143522 -0.16186328
-0.31254837 -0.0078729223 -0.16320482
-0.25642666 -0.0013029897 -0.16420072
-0.19978006 -0.0095511451 -0.16431876
-0.14886259 -0.0032764729 -0.16441688
-0.13548857 -0.0057455692 -0.16444524
-0.046440668 -0.0085025914 -0.16447973
0.14507261 -0.0064349445 -0.16453704
-0.28413177 0.0021219417 -0.16414341
-0.23996761 0.0038129105 -0.16423091
-0.14574169 0.0035155695 -0.1644197
-0.11662748 0.0023745587 -0.16447848
0.0038861707 0.0035236226 -0.16471875
0.025166318 0.0059011243 -0.16475993
0.061052315 0.0051789125 -0.16483097
0.076001965 0.0044840043 -0.16483974
0.22065231 0.0096982894 -0.1649843
0.33603242 0.00088771537 -0.16036102
-0.22204463 0.015485263 -0.16426048
-0.14985873 0.012723822 -0.16440648
0.0071787424 0.014831908 -0.16471972
0.2219376 0.017388063 -0.16514701
0.33682555 0.012914437 -0.16026314
-0.24345176 0.021122601 -0.16112396
-0.23572034 0.021122601 -0.1623868
-0.22169164 0.021122601 -0.16206531
-0.18135799 0.021122601 -0.16171014
-0.094169974 0.021122601 -0.16345826
0.04486547 0.021122601 -0.16479008
0.077503458 0.021122601 -0.16432777
0.083929673 0.020101357 -0.16487052
0.18518324 0.021122601 -0.16250232
-0.29202241 -0.021983897 -0.1543138
-0.22201569 -0.021983897 -0.15532109
-0.18533249 -0.021983899 -0.15376782
-0.01008641 -0.021983899 -0.15144496
0.13177228 -0.021983899 -0.15084323
0.16987383 -0.021983899 -0.15083584
0.2096981 -0.021983901 -0.15286697
0.23378697 -0.021983899 -0.15685
-0.32200569 -0.015469434 -0.15217301
0.30776042 -0.01574572 -0.15549225
0.35193196 -0.0039703296 -0.15731329
-0.3566674 0.002220354 -0.15458189
-0.33315152 0.011221156 -0.15993489
-0.19378866 0.021122601 -0.15902098
-0.18787974 0.021122601 -0.15009798
0.063342333 0.021122601 -0.15682772
0.11281925 0.021122601 -0.15030254
0.17957315 0.021122601 -0.15774605
0.20224452 0.021122601 -0.15761104
0.2661202 0.021122601 -0.155853
0.34087828 0.027119044 -0.15972213
-0.35930473 0.033533085 -0.15016915
-0.29958135 -0.021477755 -0.14455503
-0.20280188 -0.021983901 -0.14110486
-0.17258656 -0.021983899 -0.14764285
-0.024161525 -0.021983899 -0.14461237
0.14480083 -0.021983899 -0.14217752
0.26134524 -0.021983897 -0.14213789
-0.31312916 -0.01784806 -0.14557795
-0.297692 -0.016201887 -0.14087421
-0.37492505 -0.0012889178 -0.14646839
-0.36800656 -0.0031427995 -0.14778924
-0.30318612 0.00061556936 -0.14268962
-0.38095862 0.013431801 -0.14365953
-0.365466 0.015453479 -0.14964214
-0.36895597 0.020078808 -0.14774972
-0.27003926 0.021122601 -0.14411816
-0.26406801 0.021122601 -0.14333773
-0.053333126 0.021122601 -0.14312361
0.019732207 0.021122601 -0.14781211
0.11526813 0.021122601 -0.14849339
0.14627655 0.021122601 -0.14083464
0.21187976 0.021122601 -0.14995082
-0.37871534 0.036766879 -0.1420553
-0.36319736 0.038674463 -0.14178237
-0.25156534 -0.021983899 -0.13688417
-0.2142708 -0.021983899 -0.13453597
-0.17848906 -0.021983899 -0.13329318
-0.14259811 -0.021983899 -0.13475755
0.13704319 -0.021983899 -0.13986221
0.17458916 -0.021983899 -0.13494022
0.20669338 -0.021983899 -0.13785741
0.28811261 -0.021983899 -0.13489668
0.29797727 -0.016599795 -0.13462821
-0.3488251 -0.0082826708 -0.13725379
-0.297692 -0.0054459339 -0.13171977
0.30329239 0.0054154345 -0.13383059
-0.2983194 0.01878088 -0.13151246
0.30228385 0.010192054 -0.13024923
-0.39480847 0.023624616 -0.13275169
-0.284657 0.021122601 -0.13612185
-0.24801975 0.021122601 -0.13463384
-0.22905849 0.021122601 -0.13369283
-0.077010937 0.021122601 -0.13129558
-0.045331806 0.021122601 -0.13679317
0.027265538 0.021122601 -0.13650239
0.036315739 0.021122601 -0.13558091
0.19539717 0.021122601 -0.13973731
0.21116853 0.021122601 -0.13513076
0.3706755 0.040066026 -0.13420679
-0.25659311 -0.021983899 -0.12869552
-0.22613759 -0.021983899 -0.12577926
-0.20601268 -0.021983899 -0.12640391
-0.047228377 -0.021983899 -0.1258571
-0.0033364668 -0.021983899 -0.12860233
0.015429735 -0.021983899 -0.12275738
0.077402718 -0.021983899 -0.12806311
0.20430668 -0.021983899 -0.12558183
0.23045795 -0.021983899 -0.12415835
0.27635401 -0.021983899 -0.12667903
-0.32809418 -0.013837905 -0.12019356
-0.31796062 -0.016553378 -0.12753379
-0.37037688 -0.0025076419 -0.12423829
0.3447772 -0.0093673822 -0.12474182
-0.29810613 0.01957692 -0.12459694
0.40229565 0.012919093 -0.12979597
-0.15550351 0.021122601 -0.12211376
-0.038058668 0.021122601 -0.1247
-0.02462206 0.021122601 -0.1219201
0.097974442 0.021122601 -0.12056322
0.16574469 0.021122601 -0.1284785
0.19151166 0.021122601 -0.1263635
0.2016317 0.021122601 -0.12938483
0.27329344 0.021122601 -0.12518069
0.40157378 0.024715003 -0.1288038
0.40050128 0.048057761 -0.12383045
-0.23273423 -0.021983899 -0.11561612
-0.1620231 -0.021983899 -0.11711007
-0.11334993 -0.021983899 -0.11875486
0.020654693 -0.021983899 -0.11799216
0.17209747 -0.021983899 -0.11364268
0.2978386 -0.021944631 -0.11983021
-0.30805686 -0.01756289 -0.11688153
0.30761763 -0.015069622 -0.11124785
0.2987518 -0.0019818018 -0.11262564
0.30616593 -0.0081939753 -0.11047632
0.30237222 0.0097737769 -0.11409658
0.40321136 0.0062904707 -0.1104669
0.29971993 0.016289443 -0.11559819
-0.32223362 0.027697977 -0.11195581
-0.30428603 0.022889324 -0.11917496
-0.26303378 0.021122601 -0.11968612
-0.10164635 0.021122601 -0.11285727
-0.093945682 0.021122601 -0.11291219
-0.047986977 0.021122601 -0.11861812
0.033576626 0.021122601 -0.11871938
0.071523532 0.021122601 -0.112687
0.16211233 0.021122601 -0.11254518
0.31049314 0.02442646 -0.11133146
0.33657509 0.03120116 -0.11625834
-0.39694795 0.047717873 -0.11339958
-0.41284922 0.051978704 -0.11105724
-0.22449684 -0.021983899 -0.10596603
-0.12954497 -0.021983899 -0.10185788
-0.11283374 -0.021983899 -0.10232989
-0.04393512 -0.021983899 -0.10681558
-0.030640764 -0.021983899 -0.104847
0.030066872 -0.021983899 -0.10987457
0.077356033 -0.021983899 -0.10732703
0.082318522 -0.021983899 -0.10146692
0.26064172 -0.021983899 -0.10474611
0.27284738 -0.021983899 -0.10008188
0.30755371 -0.014766718 -0.10406012
-0.38827193 0.0022875105 -0.10984894
0.39973029 0.0053577367 -0.10853471
-0.42586923 0.020755498 -0.10641375
-0.3134025 0.025331881 -0.10955426
-0.297692 0.021016041 -0.10436198
-0.25181699 0.021122601 -0.10979841
-0.16507986 0.021122601 -0.10985019
-0.0244125 0.021122601 -0.10205019
0.17735435 0.021122601 -0.10859615
0.25441268 0.021122601 -0.10661496
-0.41997194 0.038504962 -0.10785078
0.41675466 0.052412886 -0.10803496
-0.23058556 -0.021983899 -0.098889112
-0.19936381 -0.021983899 -0.098678745
-0.16526301 -0.021983899 -0.09472584
-0.077015735 -0.021983899 -0.092962421
-0.031689003 -0.021983899 -0.095393412
-0.0081899762 -0.021983899 -0.099170238
0.01873564 -0.021983899 -0.094675943
0.10363373 -0.021983899 -0.096172653
0.18040413 -0.021983899 -0.098385841
0.19151503 -0.021983899 -0.09655419
0.29093695 -0.021983899 -0.093552299
0.31352431 -0.017742172 -0.099741235
0.32052317 -0.015866693 -0.094767064
-0.297692 -0.0092091002 -0.091078758
-0.30067298 0.009996267 -0.098456144
0.39912662 0.0051959837 -0.090353392
-0.2616654 0.021122601 -0.096607298
-0.25812405 0.021122601 -0.098220252
-0.13877456 0.021122601 -0.093693122
-0.076226503 0.021122601 -0.098959424
-0.064016052 0.021122601 -0.095299356
0.014840979 0.021122601 -0.099449895
0.048739109 0.021122601 -0.095841855
0.1991211 0.021122601 -0.092499286
0.22536916 0.021122601 -0.091095656
0.27943018 0.021122601 -0.096503206
-0.40179163 0.049015954 -0.091672316
-0.39177012 0.046330467 -0.096512586
-0.28992611 -0.021983899 -0.083691895
-0.22914909 -0.021983899 -0.080787189
-0.095947057 -0.021983899 -0.08885707
0.038937166 -0.021983899 -0.084583446
0.066575892 -0.021983899 -0.088786714
0.13312823 -0.021983899 -0.081851028
0.16485187 -0.021983899 -0.087597713
0.26249039 -0.021983899 -0.086057886
0.36003006 -0.0052801757 -0.08397004
0.39797431 0.0048872237 -0.089370668
0.40386805 0.0064664376 -0.085911445
0.2992852 0.01647117 -0.08145839
0.44370779 0.017140457 -0.084575199
-0.28649548 0.021122601 -0.084188849
-0.13623299 0.021122601 -0.08832141
-0.047481935 0.021122601 -0.083843544
0.022029452 0.021122601 -0.085768662
0.06325677 0.021122601 -0.08117941
-0.34937412 0.034970347 -0.088036396
0.39283985 0.046261448 -0.083914407
0.40794057 0.050051488 -0.083209619
-0.23678717 -0.021983899 -0.076466143
-0.17428729 -0.021983899 -0.078789569
-0.14977384 -0.021983899 -0.07581415
-0.075329334 -0.021983899 -0.071604446
-0.057270397 -0.021983899 -0.075377971
0.038867868 -0.021983899 -0.074463539
0.05208968 -0.021983899 -0.070675485
0.11875847 -0.021983899 -0.077366166
0.28155977 -0.021983899 -0.073905751
-0.33412549 -0.012221705 -0.071145564
0.33570454 -0.011798565 -0.079983577
-0.35818672 -0.0057741217 -0.079967454
0.30580947 -0.0065058302 -0.07554058
0.36020169 -0.0052341903 -0.077894911
-0.30266884 0.0025468259 -0.073686287
-0.43902725 0.015886702 -0.078627512
-0.29776281 0.021141572 -0.0713365
-0.19208004 0.021122601 -0.075552993
-0.17227265 0.021122601 -0.078694679
-0.063058704 0.021122601 -0.072389737
0.013342885 0.021122601 -0.078218751
0.044994168 0.021122601 -0.072370291
0.081877537 0.021122601 -0.077919908
0.24957342 0.021122601 -0.075531721
0.29489818 0.021122601 -0.075848825
-0.35471624 0.036401663 -0.074575566
-0.37338442 0.041403741 -0.071586132
0.444143 0.044534717 -0.074152522
0.44320127 0.051605657 -0.073054805
-0.26195717 -0.021983899 -0.060424704
-0.11743259 -0.021983899 -0.062556155
-0.051529884 -0.021983899 -0.060961939
0.015225733 -0.021983899 -0.065925248
0.13041677 -0.021983899 -0.068348184
0.34713626 -0.008735219 -0.06215116
-0.39273727 0.0034839769 -0.069937408
0.41264334 0.0088177398 -0.063540936
-0.4495267 0.018699814 -0.065624774
-0.30389285 0.023137497 -0.064040378
-0.2830689 0.021122601 -0.063357309
-0.2382012 0.021122601 -0.064617172
-0.13904403 0.021122601 -0.065117173
0.024216741 0.021122601 -0.062618688
0.057430077 0.021122601 -0.069155455
0.12902148 0.021122601 -0.067926705
0.16509584 0.021122601 -0.064945512
0.25404993 0.021122601 -0.061842825
0.28424937 0.021122601 -0.06876488
-0.33444285 0.030969813 -0.069143131
0.34896982 0.034862347 -0.067475937
-0.44670439 0.044698432 -0.063888468
-0.38276458 0.043917287 -0.061004393
0.40448394 0.049394652 -0.065151006
0.44862151 0.043268632 -0.064120986
0.41938621 0.053118363 -0.063285634
0.44655225 0.055616744 -0.063211963
-0.23417743 -0.021983899 -0.053043004
-0.22372276 -0.021983901 -0.05028135
-0.14378165 -0.021983899 -0.050402265
-0.13272479 -0.021983899 -0.057152472
-0.059286486 -0.021983899 -0.057940993
-0.032914005 -0.021983899 -0.053645518
-0.024416551 -0.021983899 -0.05885347
0.0062604193 -0.021983899 -0.058672387
-0.32269678 -0.015284241 -0.054941278
-0.30664721 -0.019584879 -0.059729747
-0.35118547 -0.0076501793 -0.055266175
-0.40373945 0.0064319745 -0.054632448
0.30278903 0.0077996249 -0.054702044
0.38175797 0.00054203509 -0.056539372
-0.42887324 0.013166276 -0.057055324
-0.41928998 0.010598686 -0.056320488
-0.29946977 0.014487327 -0.055310804
0.297692 0.019549184 -0.054652426
0.43352813 0.014413252 -0.052053384
-0.24695095 0.021122601 -0.055971913
-0.22918034 0.021122601 -0.053335592
-0.11334565 0.021122601 -0.054669544
0.071603462 0.021122601 -0.051512934
0.081108183 0.021122601 -0.054514173
0.12434593 0.021122601 -0.055685222
0.15548113 0.021122601 -0.054841802
0.26442295 0.021122601 -0.057840332
0.307165 0.023660863 -0.056499582
0.45732605 0.024193611 -0.052454166
-0.36302674 0.038628276 -0.0563384
-0.33994392 0.032797225 -0.059661709
-0.3786068 0.042803153 -0.057625279
-0.36804894 0.040328279 -0.055793881
0.37996835 0.043168217 -0.058982387
0.39005318 0.045870349 -0.058412679
0.45097998 0.042484537 -0.058893565
-0.44994724 0.050662354 -0.052600268
0.42558348 0.054778799 -0.051824793
0.43027824 0.056036815 -0.059360236
-0.29330495 -0.021983899 -0.045438375
-0.2438668 -0.021983899 -0.049259454
-0.08501026 -0.021983899 -0.04061779
-0.017820302 -0.021983899 -0.047486022
0.015238415 -0.021983899 -0.041190103
0.19697753 -0.021983899 -0.045138162
0.25474459 -0.021983899 -0.043078657
0.26351145 -0.021983899 -0.044166181
0.32404447 -0.014923101 -0.044784453
0.29880884 0.0051401504 -0.046471789
0.39949769 0.0052954056 -0.048629075
0.297692 0.019355848 -0.04445624
-0.31620717 0.026083322 -0.046257243
-0.25531724 0.021122601 -0.04060768
-0.10195207 0.021122601 -0.041310068
-0.081721343 0.021122601 -0.04065657
0.23831087 0.021122601 -0.043542266
0.26012349 0.021122601 -0.042926438
0.27167955 0.021122601 -0.04064849
0.31101656 0.024692893 -0.042339906
0.33147976 0.030175893 -0.048741471
0.34482878 0.033752531 -0.041594952
0.40060872 0.048698753 -0.041722685
0.45676118 0.04257717 -0.045130268
0.4298622 0.055925347 -0.048500448
0.45484549 0.051302601 -0.045564182
-0.24772567 -0.021983899 -0.032333083
-0.21352053 -0.021983899 -0.031401847
-0.18049902 -0.021983899 -0.038878608
-0.16883899 -0.021983899 -0.030433429
-0.077345975 -0.021983899 -0.031831458
0.10434152 -0.021983899 -0.038147692
0.13461578 -0.021983899 -0.035323933
0.24202453 -0.021983899 -0.030798245
0.28114158 -0.021983899 -0.033318706
-0.3388679 -0.010950886 -0.030348603
-0.31163719 -0.018247854 -0.038359076
-0.30732155 -0.014819134 -0.037731722
-0.3682296 -0.0030830349 -0.031345483
-0.39679855 0.0045721801 -0.033178374
0.41156393 0.0085285185 -0.033167128
-0.44796926 0.018282486 -0.037174553
-0.297692 0.018815622 -0.036149569
-0.46271718 0.023776492 -0.034445126
-0.30525231 0.023501769 -0.034625791
-0.29846168 0.02132882 -0.039411057
-0.26418054 0.021122601 -0.032364283
-0.23086315 0.021122601 -0.035017278
-0.13307166 0.021122601 -0.03474886
-0.10337786 0.021122601 -0.030217957
-0.031541146 0.021122601 -0.036240693
0.031210534 0.021122601 -0.034100689
0.041604567 0.021122601 -0.036362927
0.15061155 0.021122601 -0.031242598
0.28053331 0.021122601 -0.032313108
0.31527129 0.025832931 -0.031273142
-0.33166724 0.030226123 -0.039555259
-0.45642751 0.047557771 -0.033842657
-0.37693352 0.042531915 -0.033179507
-0.36775613 0.040249642 -0.032596756
-0.03246231 -0.021983899 -0.020737668
-0.022942528 -0.021983899 -0.020887136
0.042682759 -0.021983899 -0.023994043
0.16354683 -0.021983899 -0.020370627
0.18288542 -0.021983899 -0.029761227
0.21925682 -0.021983899 -0.021014065
0.25173438 -0.021983899 -0.02519965
0.3659997 -0.0036805612 -0.029015489
0.29891291 0.0052059386 -0.023271374
-0.3259123 0.029037666 -0.025161099
-0.27380419 0.021122601 -0.023801547
-0.22932002 0.021122601 -0.025594871
-0.21217421 0.021122601 -0.029431313
-0.20638883 0.021122601 -0.02565678
-0.19659141 0.021122601 -0.02399772
-0.16480672 0.021122601 -0.024760431
-0.067718655 0.021122601 -0.023698539
-0.023197696 0.021122601 -0.022604384
-0.0074788854 0.021122601 -0.026736025
0.084141038 0.021122601 -0.028946143
0.15948452 0.021122601 -0.020811662
0.23445064 0.021122601 -0.023377435
0.34473613 0.03372816 -0.028861005
0.45912066 0.044741847 -0.02953849
-0.12511769 -0.021983899 -0.017454382
-0.11081176 -0.021983899 -0.017443283
-0.075547978 -0.021983899 -0.012761872
-0.033358574 -0.021983899 -0.01588138
-0.027744837 -0.021983899 -0.010732127
0.028863162 -0.021983899 -0.018864963
0.10175499 -0.021983899 -0.017303851
0.25248834 -0.021983899 -0.01994116
-0.297692 0.0054209987 -0.014172569
0.40245801 0.0060886238 -0.01950454
-0.297692 0.01824094 -0.01987892
0.297692 0.015496748 -0.014909983
0.44548714 0.017617164 -0.012133179
-0.30704129 0.023627533 -0.012702804
-0.28982723 0.021122601 -0.013443053
-0.2566826 0.021122601 -0.019076057
-0.2243311 0.021122601 -0.014312141
-0.20695701 0.021122601 -0.014877677
0.038341105 0.021122601 -0.017129876
0.051925085 0.021122601 -0.011842057
0.11924472 0.021122601 -0.013393939
0.24961317 0.021122601 -0.010441852
0.28631848 0.021122601 -0.011566281
0.39584431 0.04742201 -0.010403609
-0.27943635 -0.021983899 -0.0063232528
-0.043634966 -0.021983899 -0.0070382701
-0.0083197542 -0.021983899 -0.0041328203
0.19054525 -0.021983899 -0.0082682725
-0.34431416 -0.0094914613 -0.0026237294
-0.381248 0.00040538827 -0.0042427145
0.30373901 0.0033002519 -0.0088592693
0.297692 0.013535874 -0.0004545711
-0.45528379 0.020242477 -0.002897325
-0.297692 0.020031119 -0.0054775514
0.003561981 0.021122601 -0.0031966455
0.017870337 0.021122601 -0.0067382865
0.02311714 0.021122601 -0.0071941093
0.063206099 0.021122601 -0.00021694973
0.10422246 0.021122601 -0.0073484629
0.14358455 0.021122601 -0.0010780711
0.2436035 0.021122601 -0.0079130987
0.30002594 0.021748006 -0.00071355049
0.32065484 0.027275447 -0.0064076893
0.46373934 0.03537422 -0.009584506
0.40331537 0.049423721 -0.0021506294
-0.41669744 0.053010292 -0.0081501249
-0.29064634 -0.021983899 0.0083728991
-0.27819684 -0.021983899 0.0060700364
-0.078938276 -0.021983899 0.0091694277
-0.052970462 -0.021983899 0.0068781497
0.0031156987 -0.021983899 0.008074278
0.036758408 -0.021983899 0.0086282687
0.04500892 -0.021983899 9.5541589e-05
0.06915383 -0.021983899 0.0016515264
0.094487131 -0.021983899 0.0040780394
-0.33650726 -0.011583462 0.0030965079
0.32266104 -0.015293816 0.007884644
0.40675268 0.0072393585 0.0059143081
0.29834524 0.018684503 0.0016500028
-0.13037819 0.021122601 0.0055554807
-0.10002746 0.021122601 0.0031824447
0.037005223 0.021122601 0.0081599429
0.059180737 0.021122601 0.0042087696
0.23022471 0.021122601 0.0057922117
0.27504963 0.021122601 0.0087918267
0.28278539 0.021122601 0.0065725856
0.46624178 0.02490494 0.0081939111
-0.361972 0.038699586 0.0026446125
-0.37102693 0.040772013 0.0077536218
-0.45825899 0.053934582 0.009058279
-0.076889433 -0.021983899 0.011188719
-0.062784903 -0.021983899 0.012807849
-0.052804828 -0.021983899 0.011621595
0.027368143 -0.021983899 0.017808449
0.041747198 -0.021983899 0.017652363
-0.297692 -0.0012444146 0.019368306
0.30644569 -0.0095189838 0.014212608
-0.40596241 0.0070276144 0.014583781
-0.38809407 0.0022398457 0.019312562
-0.297692 0.0034043589 0.01612433
0.44324496 0.017016465 0.011139218
-0.46366364 0.028881721 0.018658526
-0.32645077 0.02882809 0.01253777
-0.30943373 0.02426854 0.017527144
-0.28388306 0.021122601 0.010687403
-0.27283296 0.021122601 0.019326344
-0.22831792 0.021122601 0.012168568
-0.16840301 0.021122601 0.014870716
-0.057174884 0.021122601 0.019839242
0.10557827 0.021122601 0.019710235
0.24011888 0.021122601 0.018901598
0.45738524 0.020805484 0.018972633
-0.36437318 0.039342932 0.010900298
-0.34883463 0.035179749 0.017354464
0.37895238 0.042895779 0.012770968
-0.43447897 0.057774812 0.011659302
0.41119981 0.051346362 0.013425695
0.44272697 0.05937231 0.012546407
-0.15056418 -0.021983899 0.028724408
-0.10088612 -0.021983899 0.028722417
-0.086811222 -0.021983899 0.023217605
-0.070097655 -0.021983899 0.025338024
-0.012068704 -0.021983899 0.025238857
0.01349213 -0.021983899 0.022802871
0.032514766 -0.021983899 0.024710432
0.1089917 -0.021983899 0.021763764
0.12942816 -0.021983899 0.023426475
0.14102502 -0.021983899 0.024019066
0.15246357 -0.021983899 0.02259732
0.30452338 -0.020153834 0.027613156
-0.30385834 -0.0018922677 0.02721905
-0.297692 -0.00354558 0.024523808
0.37038994 -0.0025041471 0.02578285
-0.42098129 0.01105187 0.029940197
0.42070806 0.010978663 0.027014848
-0.46369138 0.027486695 0.021197446
-0.20852399 0.021122601 0.027097013
-0.18583128 0.021122601 0.025733486
-0.14087705 0.021122601 0.026799548
-0.080628924 0.021122601 0.023905538
-0.076407917 0.021122601 0.027175542
0.23683892 0.021122601 0.022249797
0.26866734 0.021122601 0.027833523
0.2996136 0.021637488 0.020238874
0.46232203 0.022128403 0.026745245
-0.34598285 0.034061722 0.02591829
-0.45789942 0.045210131 0.02884974
0.45975852 0.046438519 0.021956727
0.42808056 0.055447962 0.022279549
0.44294798 0.059431516 0.021353528
-0.27010894 -0.021983899 0.034517687
-0.24040052 -0.021983899 0.035031993
-0.2014869 -0.021983899 0.035695985
-0.1931746 -0.021983899 0.03577365
-0.12756647 -0.021983899 0.032302126
-0.057944685 -0.021983899 0.035214074
-0.025466725 -0.021983899 0.037858866
-0.010281309 -0.021983899 0.035391204
0.055679187 -0.021983899 0.039008208
0.15259185 -0.021983899 0.033270836
0.25695667 -0.021983899 0.03470565
-0.33425108 -0.01218805 0.03330861
-0.31815064 -0.016502455 0.03293369
0.3523261 -0.0073445365 0.032656096
-0.38516933 0.0014561368 0.032381859
-0.46093506 0.021756761 0.031194551
-0.27099019 0.021122601 0.037594255
-0.24665807 0.021122601 0.030524679
-0.20557594 0.021122601 0.034308665
-0.15565388 0.021122601 0.035077564
-0.074142329 0.021122601 0.033130549
-0.0638116 0.021122601 0.037319243
0.21181636 0.021122601 0.038841754
0.46025932 0.021575665 0.03325839
-0.45853281 0.039472744 0.035482522
-0.33858195 0.032433078 0.039915539
-0.37267268 0.041390374 0.036142111
0.44379547 0.059658572 0.032022245
-0.13021177 -0.021983899 0.04248523
0.061009929 -0.021983899 0.04439136
0.2443223 -0.021983899 0.048103269
-0.30758131 -0.015788242 0.04356334
0.32700574 -0.014129573 0.049768113
0.3313292 -0.012971026 0.040554799
-0.35725313 -0.0060242908 0.044636369
-0.34491962 -0.0093292175 0.04537937
0.35261753 -0.0072664404 0.04754445
-0.3002966 0.011401322 0.043191995
-0.297692 0.013342544 0.04327726
0.41961908 0.01068686 0.049429923
-0.29342413 0.021122601 0.043322388
-0.2419751 0.021122601 0.043032598
-0.2264777 0.021122601 0.041907206
-0.21279646 0.021122601 0.040721457
-0.029964641 0.021122601 0.040634155
0.036428556 0.021122601 0.04400596
0.085936636 0.021122601 0.046451677
0.17487615 0.021122601 0.040999815
0.26315746 0.021122601 0.042955734
0.45961642 0.021403389 0.042310972
-0.35677087 0.037306421 0.043506466
-0.45324683 0.049203046 0.047012061
-0.39499393 0.047194384 0.049021859
0.40267962 0.049019024 0.043604646
0.42159152 0.053709317 0.043216586
-0.44611758 0.060892947 0.045210857
-0.27280706 -0.021983899 0.057233352
-0.26579258 -0.021983899 0.050977983
-0.20642163 -0.021983899 0.050858214
-0.17495188 -0.021983899 0.052898996
-0.14371936 -0.021983899 0.052378323
-0.060996577 -0.021983899 0.051059872
-0.019713426 -0.021983899 0.05048338
0.12569559 -0.021983899 0.05360835
-0.30594873 -0.0096945688 0.052756563
-0.297692 -0.00892286 0.054970492
0.297692 -0.0016873798 0.057660483
0.297692 0.0023952834 0.052506212
-0.45283854 0.019587247 0.055709526
-0.297692 0.013673781 0.05570076
0.43846563 0.015736045 0.056984186
-0.45474985 0.026866794 0.057462674
-0.32137817 0.027822733 0.059383776
-0.28806818 0.021122601 0.057162162
-0.27272859 0.021122601 0.052009631
-0.26882923 0.021122601 0.057694595
-0.25530779 0.021122601 0.053650774
-0.16708511 0.021122601 0.056230724
-0.15556335 0.021122601 0.05072996
-0.10623029 0.021122601 0.052086793
-0.03313265 0.021122601 0.054312691
0.015195307 0.021122601 0.053584989
0.033934817 0.021122601 0.055959128
0.16886511 0.021122601 0.05307154
0.18558617 0.021122601 0.058118947
-0.45241946 0.034911972 0.057870276
-0.34849775 0.034735546 0.059287399
-0.30266151 -0.020652611 0.065313049
-0.041736294 -0.021983899 0.068050958
0.04659434 -0.021983899 0.068042822
0.070561506 -0.021983899 0.064503692
0.15091686 -0.021983899 0.068062492
0.17554218 -0.021983899 0.063359618
0.24252489 -0.021983899 0.067293733
0.26535475 -0.021983899 0.069237515
-0.33344698 -0.012403524 0.067606345
-0.31894535 -0.016289506 0.067648083
-0.37081265 -0.0023908869 0.060726482
-0.36649415 -0.0035480638 0.065708138
0.40849882 0.0077072289 0.063221395
-0.45097896 0.019088967 0.062428962
-0.29845157 0.018287625 0.060587745
0.29845262 0.018283758 0.06136879
-0.23332895 0.021122601 0.062334836
-0.15264946 0.021122601 0.06216469
-0.11566057 0.021122601 0.066266075
-0.047248609 0.021122601 0.065166339
0.014092013 0.021122601 0.067588821
0.069449164 0.021122601 0.062435843
0.17035455 0.021122601 0.063003235
0.21341541 0.021122601 0.065490194
0.26466054 0.021122601 0.064235106
-0.34569776 0.034162037 0.062480278
-0.40215215 0.049112681 0.062058046
-0.38924259 0.045653161 0.06162449
-0.26199996 -0.021983899 0.072955266
-0.13818032 -0.021983899 0.071470656
-0.018420517 -0.021983899 0.070913084
0.078970969 -0.021983899 0.071518242
0.1938421 -0.021983899 0.07150244
0.2766653 -0.021983899 0.077387154
-0.31225726 -0.018081702 0.07465177
-0.30617839 -0.010551699 0.073497221
0.29813957 -0.013537262 0.076128975
0.30719671 -0.013075897 0.075191326
0.31429821 -0.017534792 0.070945553
-0.34387556 -0.0096089924 0.077179134
0.34499016 -0.0093103154 0.070675537
-0.30175486 0.0059585809 0.072317019
0.38451591 0.0012810461 0.079842776
0.39905858 0.0051777535 0.070899814
0.43409926 0.014566259 0.07394895
-0.25007582 0.021122601 0.072808988
-0.24152118 0.021122601 0.070943199
-0.2252063 0.021122601 0.071833208
-0.21273522 0.021122601 0.077155419
-0.11660368 0.021122601 0.074962258
0.20040394 0.021122601 0.078959472
0.21608028 0.021122601 0.078886479
0.31012258 0.024453349 0.075826481
0.32328191 0.027979359 0.071546391
0.44762936 0.020638883 0.078198075
0.4438442 0.048454292 0.072449341
-0.30092394 -0.021118091 0.08882232
-0.28899574 -0.021983899 0.08814995
-0.22251113 -0.021983899 0.082850434
-0.20094338 -0.021983899 0.082435802
-0.19655679 -0.021983899 0.080559812
-0.14266011 -0.021983899 0.082094923
0.053243682 -0.021983899 0.080826968
0.081146061 -0.021983899 0.080981068
0.12803459 -0.021983899 0.085805431
0.18604842 -0.021983899 0.084951699
0.20833993 -0.021983899 0.088988245
0.24914433 -0.021983899 0.087731123
0.25174758 -0.021983899 0.083368994
-0.37474346 -0.0013375778 0.081496678
-0.3648288 -0.0039943154 0.085133761
-0.30423555 -0.0033001062 0.08251255
0.30285048 0.0018693244 0.08107087
0.39148617 0.0031487453 0.087815255
-0.30039728 0.011025585 0.087919697
-0.28344277 0.021122601 0.08842238
-0.12501559 0.021122601 0.080162287
0.0067042857 0.021122601 0.089645304
0.12561706 0.021122601 0.087226674
0.15852603 0.021122601 0.085343465
0.19196153 0.021122601 0.084825411
0.37553102 0.041850556 0.084387287
-0.26428071 -0.021983899 0.094993457
-0.25621179 -0.021983899 0.091453388
-0.22156495 -0.021983899 0.091623329
-0.17389044 -0.021983899 0.099421054
0.039886799 -0.021983899 0.092701219
0.055640839 -0.021983899 0.093434013
0.13020299 -0.021983899 0.090642795
0.19337741 -0.021983899 0.09011808
0.31039605 -0.018580448 0.097236536
0.32032973 -0.015918521 0.092711553
-0.35238403 -0.007329009 0.097926944
-0.297692 0.0061554057 0.092528388
-0.43354487 0.019573944 0.098344125
-0.28139648 0.021122603 0.092596225
-0.27532202 0.021122601 0.095137008
-0.23363286 0.021122601 0.091402218
-0.16041154 0.021122601 0.091881692
-0.049804702 0.021122601 0.090364069
-0.0096254796 0.021122601 0.092331514
0.015368463 0.021122601 0.098868668
0.15948419 0.021122601 0.099801533
0.18322116 0.021122601 0.095995314
0.29604959 0.021122601 0.096870042
0.43374184 0.022913503 0.097304776
0.35447651 0.036088035 0.095237814
0.43592331 0.034110159 0.091202185
-0.4243356 0.055056855 0.09288422
0.42784888 0.054281756 0.095446423
-0.24971652 -0.021983899 0.10736646
-0.1655668 -0.021983899 0.10656815
-0.14241968 -0.021983899 0.10116685
0.0062427372 -0.021983899 0.10329348
0.024712056 -0.021983899 0.1027726
0.18736488 -0.021983899 0.10313927
-0.36908537 -0.0028537246 0.1033847
0.37346348 -0.0016805605 0.10648613
-0.30299672 0.001323557 0.10740139
0.29924312 0.015333244 0.10186306
0.42691845 0.01414822 0.10857561
-0.32076114 0.027303467 0.10731632
-0.19527178 0.021122601 0.10553141
-0.14352049 0.021122601 0.10074136
-0.044444453 0.021122601 0.1010894
-0.017814875 0.021122601 0.10086825
0.050253831 0.021122601 0.10785796
0.12383731 0.021122601 0.10640531
0.18726343 0.021122601 0.10201867
0.21370308 0.021122601 0.10416614
0.30720302 0.023352947 0.10997657
0.32037058 0.026988434 0.10167705
-0.42637286 0.030007171 0.10385369
-0.33105811 0.030062871 0.10402316
0.42495972 0.034181993 0.10509829
-0.42180723 0.044311535 0.1047763
-0.39595231 0.047451086 0.10529611
-0.37831238 0.042724267 0.10974745
0.42448798 0.048511613 0.10143092
-0.26360306 -0.021983899 0.11014862
-0.19969214 -0.021983899 0.11886562
-0.18262355 -0.021983899 0.11178632
-0.025866643 -0.021983899 0.1194313
0.23592949 -0.021983899 0.11037013
-0.30784899 -0.016786819 0.11844689
-0.36952665 -0.0027354741 0.11475535
-0.42085227 0.027784675 0.11155263
-0.20324704 0.021122601 0.11770711
-0.16181432 0.021122601 0.11056606
-0.1227931 0.021122601 0.11451332
-0.051708773 0.021122601 0.11049823
0.2314916 0.021122601 0.11480486
0.25105813 0.021122601 0.11234517
-0.38353074 0.044122651 0.11131533
0.38955343 0.0451244 0.11787695
0.41073379 0.041124508 0.11905349
-0.16958602 -0.021983899 0.12650113
-0.025992855 -0.021983899 0.12203532
-0.013161048 -0.021983899 0.12015412
0.15959302 -0.021983899 0.12358902
0.20154114 -0.021983899 0.12902978
0.27498224 -0.021983899 0.1244001
-0.32047701 -0.015879067 0.12987015
0.32346368 -0.015078735 0.12216793
-0.35269815 -0.0072448407 0.12941556
-0.41363472 0.016961262 0.12131618
-0.30058804 0.01031357 0.12335727
-0.297692 0.019776337 0.12316405
-0.28417203 0.021122601 0.12511247
-0.20263085 0.021122601 0.12046535
-0.030393988 0.021122601 0.12631117
0.055459388 0.021122601 0.12821624
0.080807932 0.021122601 0.124957
0.22547784 0.021122601 0.12460536
0.24594277 0.021122601 0.12166075
0.26569006 0.021122601 0.12130181
0.33214518 0.029791741 0.12867621
-0.34363195 0.033431854 0.12057711
0.3712807 0.040228195 0.12974621
-0.25684324 -0.021983899 0.13750501
-0.21427907 -0.021983899 0.13318194
0.043662265 -0.021983899 0.13223271
0.094444729 -0.021983899 0.1313857
0.12200507 -0.021983899 0.13246395
0.14466749 -0.021983899 0.13059932
0.19233969 -0.021983899 0.13623391
0.30773658 -0.015632818 0.136654
0.32246864 -0.01534537 0.13817948
0.33734304 -0.0113595 0.13998309
0.30482924 -0.0055158767 0.133118
-0.40257749 0.0080495272 0.13128124
-0.297692 7.5652206e-05 0.13712592
0.3923009 0.0033670517 0.13865007
0.38992563 0.013969893 0.13961455
-0.20361538 0.021122601 0.13933001
-0.19037569 0.021122601 0.13564807
-0.086332865 0.021122601 0.13268514
-0.046216346 0.021122601 0.13168223
-0.033330679 0.021122601 0.13406244
0.081196517 0.021122601 0.1363526
0.26459169 0.021122601 0.1336486
-0.3881011 0.034473713 0.13676316
-0.3879033 0.04054942 0.13570322
0.37817219 0.042074751 0.13131402
0.38868639 0.043430589 0.1350323
-0.28922766 -0.021983899 0.14669207
-0.27614352 -0.021983899 0.14321657
-0.26713336 -0.021983899 0.14420289
-0.1768215 -0.021983899 0.14631414
-0.11303037 -0.021983899 0.14557241
-0.094838701 -0.021983899 0.14732569
0.00064450502 -0.021983899 0.14345345
0.017347395 -0.021983899 0.14990865
0.069938801 -0.021983899 0.14644319
0.1093135 -0.021983899 0.14289984
0.14941065 -0.021983899 0.14630449
0.26872975 -0.021983899 0.14383279
-0.35608879 -0.0063362811 0.14429934
-0.36970317 0.016871965 0.1489892
-0.28956553 0.021122601 0.1454998
-0.27000952 0.021122601 0.145944
-0.059000771 0.021122601 0.14867842
0.021974787 0.021122601 0.14273547
0.16705982 0.021122601 0.14376266
0.18356664 0.021122601 0.14534377
0.22021949 0.021122601 0.14813201
0.27871585 0.021122601 0.14760454
0.29523289 0.021122601 0.14820021
0.34906134 0.034274541 0.14347066
-0.23793326 -0.021983899 0.15481299
0.10034626 -0.021983899 0.15941593
0.11289293 -0.021983899 0.15809567
0.15830579 -0.021983899 0.15230343
0.2556774 -0.021983899 0.15402099
0.27495292 -0.021983899 0.15592599
0.30219695 -0.020777056 0.1590697
-0.32759696 -0.013971144 0.15704253
0.34030479 -0.010565844 0.15185675
0.30624861 -0.0091905585 0.1545465
-0.37030572 0.0014579177 0.15040074
-0.297692 0.0049642203 0.1535427
0.29929221 0.0082175871 0.15563877
0.3629536 0.0026349432 0.15316914
-0.29381081 0.021122601 0.15615565
-0.21922679 0.021122601 0.15862763
-0.06854213 0.021122601 0.15895507
-0.039566293 0.021122601 0.15033644
0.029656 0.021122601 0.15868726
0.27729693 0.021122601 0.15531923
-0.33173114 0.030243432 0.15685652
-0.21148536 -0.02095099 0.16527234
-0.07095708 -0.021983899 0.16163903
0.20105118 -0.021983899 0.16042505
-0.32432249 -0.014848601 0.16262703
-0.29735279 -0.015615815 0.16528085
-0.24319811 -0.014984291 0.16517434
-0.23823901 -0.01175866 0.16516462
-0.22272515 -0.015663344 0.16514668
-0.20119742 -0.016490201 0.16514857
-0.18404418 -0.015906014 0.16513236
-0.09033487 -0.018631896 0.16520798
0.0078144111 -0.014652723 0.16509759
0.092839979 -0.011185007 0.16500138
0.11640534 -0.012062442 0.16502571
0.16729227 -0.012708073 0.16504364
0.17709279 -0.013494294 0.16506544
0.18833774 -0.017001862 0.16516276
0.30976161 -0.018750459 0.1622255
-0.19769736 -0.0019923276 0.16508892
-0.14706406 -0.0053077247 0.16498561
-0.080614097 -0.0089462232 0.16493927
0.047966056 -0.0019501422 0.16474515
0.13239726 -0.005819174 0.1648525
0.15027866 -0.0056362459 0.16484743
0.18018353 -0.0073866849 0.164896
0.22717498 -0.0031398591 0.16477817
0.27825534 -0.0031878669 0.16477948
-0.31952983 0.0012483541 0.16320117
-0.297692 0.0034411941 0.16108659
0.0085065421 0.0023116488 0.16467826
0.22805949 0.009475207 0.16442816
0.23886353 0.0013877908 0.16465256
0.30909494 0.0019911907 0.16405699
-0.21502867 0.015412189 0.16513272
-0.12769008 0.011237024 0.16495588
-0.10893762 0.01988752 0.16492294
-0.049528748 0.015348372 0.16480178
0.027469017 0.011181473 0.16464543
0.22064173 0.011016039 0.16438541
-0.18555987 0.021122601 0.16093205
0.040043198 0.021122601 0.16305889
0.14379342 0.021122601 0.16196144
