# .PCD v0.7 - Point Cloud Data file format
VERSION 0.7
FIELDS x y z
SIZE 4 4 4
TYPE F F F
COUNT 1 1 1
WIDTH 898
HEIGHT 1
VIEWPOINT 0 0 0 1 0 0 0
POINTS 898
DATA ascii
-0.16503735 0.0058552111 -0.13497999
-0.13509518 0.004106821 -0.13497999
-0.10798808 0.00350347 -0.13156058
-0.063020878 0.0039008497 -0.13497999
-0.011732876 0.00350347 -0.13409649
0.053569656 0.0074679647 -0.13497999
0.27854696 0.0055174334 -0.13497999
0.30117777 0.0056068129 -0.13497999
-0.41438287 0.015142606 -0.13368474
-0.35002968 0.011482358 -0.13429652
-0.16528897 0.012850357 -0.13362944
-0.12121598 0.010613073 -0.13497999
-0.092772648 0.013387462 -0.13193357
-0.085806027 0.011177544 -0.13497999
-0.068057418 0.011918573 -0.13497999
-0.049668103 0.013705838 -0.13286626
0.012138009 0.014163908 -0.13170031
0.02107054 0.014230017 -0.13465999
0.18147233 0.015416909 -0.13068645
0.36273673 0.016758692 -0.13445252
-0.4250232 0.023404665 -0.13029669
-0.29453835 0.00350347 -0.12817693
-0.28616795 0.00350347 -0.12384386
-0.1651971 0.00350347 -0.12222856
0.015424043 0.00350347 -0.12375824
0.080866404 0.0035034698 -0.12706214
0.29740846 0.00350347 -0.12257408
0.3851718 0.0073745544 -0.12671378
-0.39186406 0.014172058 -0.12632431
-0.26477185 0.012114495 -0.12401207
-0.21534374 0.012480314 -0.12198923
-0.19468038 0.012633243 -0.12569581
-0.11516844 0.013221046 -0.12540993
-0.084102266 0.013451032 -0.1241882
-0.075132817 0.01351741 -0.12595418
0.020157784 0.014223262 -0.12571543
0.052140385 0.014459966 -0.12796657
0.17803615 0.015391506 -0.12753969
0.18842772 0.015468629 -0.12910229
0.19032273 0.015482654 -0.12461282
0.25544214 0.015964603 -0.12667768
0.27897865 0.016138796 -0.12004188
0.41722149 0.01961961 -0.12622906
0.3925077 0.021880224 -0.12939417
-0.44156772 0.035229471 -0.12078257
-0.046754465 0.00350347 -0.11161043
-0.032348268 0.0035034698 -0.1174677
-0.37155589 0.011648353 -0.11793607
-0.23776186 0.012314396 -0.11698394
-0.22447278 0.012411995 -0.11759506
-0.1905985 0.012662726 -0.11998951
-0.016310796 0.013953358 -0.11333697
0.036031663 0.014340432 -0.11570188
0.11511099 0.014926012 -0.11335494
0.13635823 0.015083082 -0.11840357
0.14447124 0.015143192 -0.11366096
0.18609963 0.015451333 -0.11531082
0.19149178 0.01549126 -0.11429848
0.24662483 0.015899347 -0.11399024
0.25916004 0.015992129 -0.11916806
0.26677889 0.016048428 -0.11090575
0.36177006 0.016751539 -0.117962
0.38136381 0.019335575 -0.11972104
0.40928167 0.029430382 -0.11684136
-0.44345835 0.039250232 -0.11833869
-0.45179683 0.042683959 -0.11125889
-0.34769985 0.00350347 -0.10511429
-0.30239499 0.0035034702 -0.10765405
-0.24318266 0.00350347 -0.10385249
-0.12158001 0.00350347 -0.10296231
-0.012083314 0.0035034698 -0.10692675
0.17671113 0.00350347 -0.10432618
0.18673895 0.0035034702 -0.10595033
0.23599562 0.00350347 -0.10358383
0.24198231 0.00350347 -0.10278953
0.33142963 0.0035034698 -0.10880642
-0.26395407 0.012120547 -0.10786296
-0.25682241 0.012173021 -0.10101182
-0.10572875 0.013291575 -0.1077444
-0.066415913 0.01358253 -0.10931191
0.056277379 0.014490583 -0.10580949
0.14424235 0.015141613 -0.10078969
0.19674456 0.015530169 -0.10463621
0.26820481 0.01605906 -0.10737012
0.29090339 0.016226813 -0.10065167
0.31289437 0.01638981 -0.10558732
0.3375181 0.016572051 -0.10105242
0.38967264 0.021162136 -0.10970305
0.4317047 0.026947908 -0.10315232
-0.42930973 0.033814605 -0.10331058
0.43358141 0.041726682 -0.10619231
-0.34486502 0.0035034702 -0.097764663
-0.33682185 0.0035034702 -0.091720454
-0.19789281 0.00350347 -0.096873395
-0.13061982 0.0035034698 -0.096861355
-0.1098555 0.0035034702 -0.090339243
0.10630699 0.00350347 -0.090453818
0.36878034 0.0043560942 -0.098255023
-0.38252002 0.012670916 -0.092549622
-0.22652544 0.012397036 -0.096373394
-0.19526452 0.012628463 -0.095136538
-0.13100569 0.013104116 -0.097922951
-0.013961649 0.013970686 -0.092592299
-0.0060616173 0.014029108 -0.090898454
0.023997126 0.014251562 -0.096231654
0.035640281 0.01433781 -0.096357077
0.067375705 0.014572702 -0.093974203
0.11079787 0.014894091 -0.097119734
0.26173052 0.016011143 -0.092987902
0.32924366 0.016510811 -0.093811393
0.38469717 0.019943576 -0.098527424
0.38567448 0.020149449 -0.091403067
0.42962158 0.025893889 -0.098283842
0.44006801 0.031179775 -0.097860053
-0.44569123 0.044174764 -0.097152553
0.45916766 0.040844157 -0.092214219
-0.45860666 0.052343462 -0.096208103
-0.32399982 0.00350347 -0.087144203
-0.14980921 0.00350347 -0.080118462
0.22111431 0.0035034702 -0.082806952
0.24458435 0.0035034702 -0.088008292
0.32152903 0.00350347 -0.081722081
-0.36261398 0.011389186 -0.082112871
-0.35834426 0.011420785 -0.081191085
-0.33219433 0.0116155 -0.088496834
-0.19888972 0.012602089 -0.081341371
-0.18745625 0.012686323 -0.089801215
-0.16250572 0.012871106 -0.082385004
-0.13808985 0.013051786 -0.087864198
-0.10714648 0.013281082 -0.086421125
-0.092111655 0.013392141 -0.088279776
-0.076600827 0.013506949 -0.08946906
-0.039243445 0.013783632 -0.089672849
-0.029267658 0.013857463 -0.08483769
-0.0044239014 0.014041339 -0.084083423
0.0084552765 0.014136583 -0.089881204
0.019079655 0.014215282 -0.082409717
0.075380191 0.014631964 -0.084762268
0.090799138 0.014746079 -0.086025536
0.22419287 0.015733326 -0.083591215
0.28392938 0.01617502 -0.083322257
0.34392604 0.016619474 -0.086486787
0.35417944 0.016695401 -0.087721549
0.39921924 0.011083441 -0.087997869
-0.4373377 0.027276222 -0.089224152
-0.42777476 0.021227803 -0.086983003
0.40097827 0.025228847 -0.082357273
-0.44319779 0.030982479 -0.082625911
0.4163788 0.033021603 -0.089418717
-0.45152628 0.047864988 -0.086263224
-0.37514353 0.0037574149 -0.074194476
-0.3483201 0.0035034702 -0.077772945
0.013870479 0.00350347 -0.078823902
0.10762797 0.0035034698 -0.079274714
0.19895901 0.00350347 -0.072588928
0.28407824 0.00350347 -0.070314154
-0.33922893 0.011562256 -0.071986198
-0.3273344 0.011650579 -0.070662029
-0.3185423 0.011716056 -0.076487921
-0.28087974 0.01199528 -0.07256785
-0.12047303 0.013182302 -0.078434497
-0.052641973 0.013684476 -0.074342057
0.0050474033 0.014111431 -0.07817775
0.032544244 0.014314911 -0.074980423
0.045907021 0.014413833 -0.075631082
0.11583821 0.014931394 -0.073514879
0.13302799 0.015058615 -0.075540319
0.16187835 0.015271828 -0.07185521
0.19656186 0.015528831 -0.072759129
0.21467207 0.015662864 -0.078544758
0.25758174 0.015980218 -0.076732278
0.26993293 0.016071342 -0.07270544
0.27807844 0.016131666 -0.07765995
0.28127837 0.016155818 -0.070968725
0.30587217 0.016337836 -0.075293407
0.31208593 0.016383803 -0.071633428
0.32980332 0.016515151 -0.071253113
0.36578381 0.01707717 -0.073050112
-0.42223299 0.02933888 -0.079554252
0.38861677 0.020894699 -0.074434072
0.43652755 0.02938807 -0.074530676
-0.44779837 0.03389208 -0.078195281
-0.39583635 0.0058863014 -0.068689272
-0.22371101 0.0035034702 -0.0619261
-0.064853534 0.0035034702 -0.064424291
0.071786091 0.00350347 -0.062416211
0.25371954 0.00350347 -0.062432416
0.29105628 0.00350347 -0.061408382
0.38721794 0.0078124627 -0.062039759
0.39452073 0.0097535383 -0.062107343
-0.41292039 0.011832489 -0.065976173
-0.3250016 0.011668256 -0.060118593
-0.31234795 0.011761466 -0.061776526
-0.28676432 0.011951729 -0.068977661
-0.2612339 0.01214068 -0.067812555
-0.18400097 0.012712156 -0.067039058
-0.12039201 0.013183037 -0.066353209
-0.10486325 0.01329798 -0.061220221
-0.075681657 0.013514007 -0.062943392
-0.056648955 0.013654836 -0.063403703
0.052547604 0.01446298 -0.069035955
0.13463895 0.015070538 -0.063712962
0.15697813 0.01523545 -0.060958892
0.17519058 0.015370257 -0.065685883
0.27674454 0.016121939 -0.063367382
0.31503227 0.016405631 -0.060661726
0.36909381 0.017451147 -0.062743902
0.39891836 0.02418654 -0.06529469
0.43035957 0.026267257 -0.064673588
-0.4319036 0.035455041 -0.065483876
-0.42818573 0.033103835 -0.064368248
0.45193201 0.051012162 -0.069779932
0.27588931 -0.037187196 -0.054433897
0.2842375 -0.023633789 -0.050262291
-0.28119609 0.00350347 -0.051607642
-0.26527888 0.00350347 -0.050085012
-0.23698768 0.00350347 -0.0552871
-0.19593388 0.0035034702 -0.059797257
-0.15514572 0.0035034698 -0.054105591
-0.062577918 0.0035034702 -0.054808754
-0.028564099 0.00350347 -0.05625806
0.067779049 0.0035034702 -0.051307574
0.082826011 0.0035034702 -0.056598209
0.12716299 0.00350347 -0.054255404
0.22303596 0.00350347 -0.055301774
0.28521663 0.00350347 -0.05579412
-0.40401369 0.017815361 -0.058130659
-0.39013278 0.013800286 -0.053183556
-0.32703656 0.011653673 -0.053898133
-0.23929827 0.012303025 -0.055065468
-0.2278447 0.012387713 -0.056639902
-0.17875741 0.012751127 -0.053196538
-0.13705906 0.013059698 -0.056004193
-0.074635901 0.013521669 -0.054483041
-0.065444648 0.01358971 -0.059246533
-0.033870861 0.013823282 -0.055157464
-0.026474116 0.013878139 -0.052892178
-0.012347549 0.01398257 -0.058363363
0.021966606 0.014236406 -0.053313352
0.12390202 0.01499068 -0.05749758
0.21909636 0.015695609 -0.056410115
0.26247123 0.0160159 -0.051725738
0.27861306 0.016136091 -0.054785505
0.42826086 0.025205361 -0.056345891
-0.44288588 0.042400908 -0.055997107
-0.47238055 0.054873466 -0.052335545
0.28662801 -0.022567024 -0.040704425
-0.13994771 0.0035034702 -0.042341445
-0.095458873 0.0035034698 -0.04842272
-0.082434282 0.00350347 -0.047674105
-0.019126922 0.00350347 -0.046828657
0.01808022 0.0035034702 -0.049617261
0.023299128 0.0035034698 -0.041606165
0.23011969 0.0035034698 -0.041140847
0.28481084 0.00350347 -0.046791628
0.29509899 0.00350347 -0.045514297
0.35836041 0.0035034698 -0.042811923
0.37487373 0.0052793799 -0.042601522
-0.35430139 0.011450707 -0.043176927
-0.29245219 0.011909633 -0.041222647
-0.210991 0.012512527 -0.046815485
-0.17119168 0.012807082 -0.04065394
-0.16208827 0.012874457 -0.040142313
-0.10126503 0.01332461 -0.041047417
-0.085866943 0.013438571 -0.042147778
-0.042488277 0.013759429 -0.046855703
0.048664741 0.014434243 -0.042759117
0.063158207 0.014541107 -0.046197988
0.12219267 0.014977849 -0.041087724
0.17899393 0.01539881 -0.043588892
0.23175137 0.015788533 -0.045589983
0.25721556 0.015977345 -0.046985514
0.28744197 0.016201159 -0.047502607
0.36026913 0.01674043 -0.042894643
0.37466511 0.018113729 -0.045791376
-0.43988007 0.028883656 -0.048934106
0.45696926 0.039731756 -0.044896051
-0.46470946 0.056204014 -0.049806338
0.47067803 0.055892855 -0.045831479
0.26954699 -0.03092877 -0.031459637
0.28662801 -0.024769012 -0.031275064
-0.33130264 0.00350347 -0.033754978
-0.31889057 0.0035034698 -0.032489248
-0.13702106 0.00350347 -0.039174765
-0.075218223 0.0035034698 -0.037579462
-0.051842898 0.00350347 -0.03429627
0.058076762 0.0035034698 -0.033122197
0.065849014 0.0035034702 -0.032242782
0.12585536 0.00350347 -0.035296313
0.16924061 0.00350347 -0.034218576
0.23660617 0.00350347 -0.033188011
0.27129954 0.000107945 -0.03086511
-0.17803611 0.012756428 -0.03197182
-0.13764547 0.013055256 -0.037947752
-0.11588898 0.013216224 -0.037075743
-0.077409938 0.013501162 -0.031901844
-0.068319038 0.013568168 -0.034391016
-0.051578216 0.013692344 -0.038309641
0.018655431 0.014212143 -0.032700628
0.045673572 0.014412105 -0.037019879
0.096980684 0.014791829 -0.036407609
0.10537009 0.014853595 -0.035016201
0.20090777 0.015560994 -0.039722353
0.26795962 0.016056426 -0.037628584
0.32003623 0.016442867 -0.035662562
0.35750389 0.016719989 -0.038438663
0.36184567 0.016752098 -0.030613668
0.37174335 0.017750498 -0.037365437
0.41753462 0.033606902 -0.035024986
0.44513729 0.03374492 -0.035608046
0.44076365 0.045360658 -0.034660473
-0.46311188 0.055193093 -0.038314834
0.46688414 0.058577962 -0.036466517
0.28557026 -0.028449446 -0.021055322
-0.28146839 0.00180546 -0.025982939
-0.23059849 0.0035034702 -0.023141941
0.01635373 0.0035034702 -0.022228714
0.041861027 0.00350347 -0.027957048
0.074584812 0.00350347 -0.022211423
0.084797062 0.00350347 -0.027971279
0.30687886 0.00350347 -0.027634844
0.33768034 0.00350347 -0.023442131
0.35725898 0.00350347 -0.024405262
-0.36007124 0.011408004 -0.029237311
-0.32994711 0.011632131 -0.020625059
-0.31434804 0.011747581 -0.023824297
-0.30541602 0.011812502 -0.020308916
-0.29801616 0.011868453 -0.027077269
-0.27666372 0.012026483 -0.022644103
-0.15451179 0.012930206 -0.024587622
-0.12005348 0.013185191 -0.027509961
-0.095878139 0.013364297 -0.029825205
-0.021398269 0.013915636 -0.023085808
0.1160258 0.014932415 -0.026841566
0.12578256 0.01500445 -0.028802164
0.14319092 0.015133832 -0.021978753
0.24300975 0.015872398 -0.028805193
0.28538027 0.016186655 -0.029633904
0.30116767 0.016303018 -0.028237246
0.36568856 0.017066408 -0.021439377
0.40723208 0.014564309 -0.020261943
-0.41360742 0.023883 -0.029654529
0.40468383 0.0271038 -0.02034127
-0.44170815 0.0300398 -0.026444856
0.45107406 0.03674902 -0.024600722
-0.44471386 0.043557357 -0.02571667
0.47322732 0.056869827 -0.020879565
-0.34171453 0.0035034698 -0.011765169
-0.24605839 0.00350347 -0.018024672
-0.2213247 0.0035034702 -0.017680354
0.028522437 0.0035034698 -0.019559512
0.08971408 0.0035034698 -0.016187502
0.22517844 0.00350347 -0.013122041
0.27282715 0.000107945 -0.015853144
-0.35506767 0.011446214 -0.014255121
-0.27333835 0.012050292 -0.011361671
-0.26346445 0.012124171 -0.016088888
-0.23636732 0.012324784 -0.011045242
-0.21327189 0.012495407 -0.014732094
-0.20341505 0.01256875 -0.014621601
-0.19640461 0.012619982 -0.017458351
-0.17794541 0.01275727 -0.012531349
-0.15505134 0.012926631 -0.014468661
-0.12927547 0.013117305 -0.011977604
-0.09475553 0.013373017 -0.014031405
-0.05309955 0.013681343 -0.014908731
-0.0024794629 0.014055723 -0.011698531
0.056701619 0.014494061 -0.010327749
0.1627364 0.015278098 -0.018703889
0.21472949 0.015663289 -0.01501658
0.33880818 0.016581597 -0.012037557
0.34622839 0.016636591 -0.011483354
0.37678954 0.018501218 -0.018545359
0.39596683 0.010162846 -0.014309738
-0.41173235 0.022696678 -0.01915529
-0.46635294 0.045627274 -0.017030759
-0.47612244 0.054412484 -0.01097537
0.28546321 -0.025530046 -0.0047223857
0.28662801 -0.019253356 -0.0044062128
0.26954699 -0.0057308474 -0.0027387952
-0.4069545 0.0081745517 -0.0014326647
-0.38273314 0.0041814786 -0.0013770461
-0.32946151 0.00350347 -0.0025453642
-0.29440355 0.0018054601 -0.00026749074
-0.20058264 0.00350347 -0.0033404995
-0.17198999 0.00350347 -0.0095354291
0.0022659795 0.00350347 -0.0020366102
0.15657966 0.0035034698 -0.0033356734
0.16357237 0.0035034702 -0.0011312077
0.17656343 0.00350347 -0.005136149
0.19226751 0.00350347 -0.0060606496
0.30566889 0.00350347 -0.0023689009
-0.42448509 0.01914729 -0.0041561313
-0.41399658 0.012513197 -0.0089239599
-0.39434949 0.014750976 -0.0094509125
-0.37753108 0.012040208 -0.0086299628
-0.3431676 0.011533106 -0.0066182651
-0.27282757 0.012054415 -0.002199416
-0.25145286 0.012213068 -0.0041553378
-0.21447757 0.012486723 -8.4981322e-05
-0.1898025 0.012669507 -0.0043449388
-0.17554553 0.01277486 -0.0073429272
-0.12371599 0.01315866 -0.0075353067
-0.11770177 0.013203068 -0.0027658236
-0.10125222 0.013324705 -0.0067044906
-0.080932766 0.01347509 -0.0020795865
-0.055252977 0.013665147 -0.0030281907
-0.036552303 0.013803821 -0.0075112805
-0.02069344 0.013921204 -0.0063549308
0.030832326 0.014302264 -0.0060971724
0.097273573 0.014793997 -0.0083118258
0.11992463 0.014961638 -0.0065986551
0.14759429 0.015166822 -0.0081516383
0.16540664 0.015298251 -0.0055600144
0.20338029 0.015579341 -0.0024766987
0.23677218 0.01582667 -0.0083925528
0.26864308 0.016062304 -0.0030859075
0.30454981 0.01632805 -0.0073430557
0.35824144 0.016725445 -0.0038901567
-0.44896355 0.034628816 -0.0084770918
-0.43830633 0.039504092 -0.0056738369
0.46251693 0.042539369 -0.0067062713
0.47419214 0.056408979 -0.0039792992
-0.40121132 0.0069925427 0.0010760291
-0.38501552 0.0044502867 0.0037258044
-0.30471626 0.0018054601 0.0069547519
0.15268286 0.0035034702 0.0047992319
0.1640161 0.0035034698 0.0016817106
0.21834256 0.0035034698 0.0051058242
0.23963681 0.00350347 0.00090897083
0.26129749 0.000107945 0.002314223
0.33812165 0.00350347 0.0028006099
-0.34392384 0.011528689 0.007009808
-0.25782081 0.012165939 0.0051950812
-0.058857143 0.013638471 0.0043950947
-0.042836241 0.013757043 0.0051052733
-0.031686515 0.013839699 0.0058379415
-0.008152578 0.014013776 0.0070626773
0.052993983 0.014466283 0.0073033026
0.089980602 0.014740022 0.0042138854
0.14644955 0.015157949 0.00080682337
0.15733361 0.015238501 0.0080976952
0.1715783 0.015343927 0.0061290823
0.1917969 0.015493446 0.0018726836
0.2319757 0.01579093 0.0098472014
0.30747941 0.016349994 0.0018193573
0.35817727 0.01672497 0.0043164315
-0.43864626 0.028103931 0.0058331639
0.39637235 0.0228981 0.0057183756
0.27122509 -0.027548719 0.017771723
0.26954699 -0.0097247837 0.011312759
-0.27429348 0.0018054598 0.016491011
-0.17632493 0.0035034702 0.011287604
-0.14042498 0.00350347 0.012379066
-0.42132196 0.017146531 0.01684146
-0.41591328 0.013725435 0.016917288
-0.40460557 0.018189479 0.010291595
-0.30616325 0.011808157 0.018049527
-0.22323799 0.012421907 0.01478375
-0.17603895 0.012771208 0.01299629
-0.048559308 0.013714388 0.01660968
0.023526957 0.014248198 0.018860362
0.14467511 0.015144263 0.013931569
0.16769692 0.015315201 0.017015187
0.18445301 0.015439212 0.017246624
0.1922839 0.015497169 0.013887061
0.23321092 0.01580007 0.011120934
0.25961325 0.015995475 0.010758694
0.30481699 0.016330302 0.010812927
0.32651007 0.016490579 0.016238183
-0.41319266 0.023620315 0.019401677
-0.40914094 0.021057785 0.015303772
0.40297806 0.026241049 0.01608032
-0.46013069 0.04169165 0.013242768
-0.47503871 0.056079865 0.011937357
0.26954699 -0.017664988 0.025017701
-0.33111 0.0035034702 0.021176735
-0.21347554 0.00350347 0.025734758
-0.1822381 0.0035034702 0.022242321
-0.084516391 0.00350347 0.022186587
-0.076113537 0.0035034698 0.029538035
-0.042469367 0.00350347 0.020022575
0.068327159 0.00350347 0.024398945
0.13824725 0.00350347 0.024318129
0.18046765 0.00350347 0.025549665
0.23427488 0.0035034702 0.020412918
0.25135249 0.00350347 0.026953945
0.33487988 0.0035034702 0.023616994
0.38269514 0.0068445085 0.027294505
-0.35250691 0.011463988 0.029598713
-0.3130658 0.011757071 0.023608945
-0.29378799 0.01189856 0.028067477
-0.20458063 0.012559799 0.025965238
-0.15544252 0.012923643 0.022971805
-0.058866158 0.013638405 0.021616912
-0.028441153 0.013863581 0.023028174
0.048824273 0.014435172 0.027133802
0.1088317 0.014879312 0.029266223
0.16012189 0.015259137 0.026585449
0.19195558 0.015494525 0.029177658
0.24945068 0.015920095 0.028845195
0.3101086 0.01636919 0.028019484
0.37195235 0.017774111 0.026579628
-0.4283793 0.02161048 0.020351745
0.41133189 0.03046814 0.027348712
0.28268814 -0.032556705 0.031610575
-0.30767301 0.0030369889 0.03485655
0.020619079 0.0035034702 0.037358731
0.064463489 0.00350347 0.038333818
0.084113657 0.0035034698 0.037155949
0.2336562 0.00350347 0.037196647
0.27807775 0.000107945 0.032284819
0.28819746 0.0016414353 0.035654701
-0.33089697 0.01162392 0.032396305
-0.32481071 0.011669752 0.03603952
-0.27691191 0.012024647 0.035283759
-0.22422203 0.012414612 0.034168988
-0.21710528 0.012467211 0.038945269
-0.16715749 0.01283694 0.032408319
-0.078980736 0.013489537 0.036787543
0.0042649731 0.014105638 0.032827422
0.017765034 0.014205553 0.033891071
0.034895442 0.014332335 0.032883164
0.04589393 0.014413233 0.034430593
0.073019415 0.014614492 0.03589971
0.083784945 0.014694167 0.033952795
0.11790419 0.014946032 0.035196856
0.12494515 0.014998794 0.032791439
0.15909386 0.015250742 0.039197419
0.188573 0.015468847 0.039996304
0.27722496 0.01612642 0.031278342
0.29258955 0.016239781 0.031072136
0.30677587 0.016344525 0.033745024
0.34964254 0.016661782 0.034731209
0.3744849 0.018080853 0.031991646
-0.44124407 0.029747166 0.032989606
-0.40767908 0.020133073 0.035300307
0.45824724 0.040378477 0.0373969
-0.30931804 0.00350347 0.040211692
-0.27839646 0.00350347 0.0437603
-0.19936785 0.00350347 0.046335541
-0.096301153 0.00350347 0.04989418
0.040082425 0.00350347 0.047585316
0.13138671 0.0035034698 0.045844555
0.19221684 0.0035034698 0.043274596
0.21871422 0.00350347 0.047549263
0.24900985 0.00350347 0.048800353
0.26789656 0.00350347 0.043642234
0.28241268 0.00350347 0.048777856
0.38685828 0.0077354899 0.045010932
-0.40047044 0.016176684 0.042109381
-0.37296578 0.011740813 0.041416734
-0.3533611 0.011458255 0.045121312
-0.29479659 0.011891096 0.046017658
-0.20614438 0.012548178 0.048263893
-0.17857189 0.012752461 0.047926087
-0.1649435 0.01285325 0.042659655
-0.14884561 0.012972124 0.049031742
-0.079639226 0.013484663 0.044081613
-0.058603324 0.013639932 0.042387687
-0.01317497 0.013976566 0.04858344
-0.0026157461 0.014054716 0.045576558
0.0047664568 0.014109045 0.045384422
0.066073939 0.014563088 0.04564121
0.091780335 0.01475334 0.043133955
0.13164282 0.015047492 0.04849875
0.15804669 0.015243779 0.04266819
0.20599249 0.015598728 0.04836987
0.24993446 0.015924046 0.040436663
0.28077349 0.016152298 0.049917351
0.34740296 0.016645208 0.041657619
0.40591052 0.013895612 0.040048134
-0.41538122 0.025004316 0.047878176
0.38886032 0.020956382 0.040345371
0.43336055 0.027786303 0.046902988
-0.45438179 0.038055394 0.048615426
-0.43075719 0.034728799 0.040543947
-0.42800444 0.032987885 0.040757637
0.47227457 0.052736543 0.045836285
0.27313054 -0.031448692 0.056142498
0.28503686 -0.037114792 0.054160908
0.27113801 -0.023654751 0.052543707
-0.28736582 0.00350347 0.059577618
-0.25066623 0.0035034698 0.051633731
-0.19544721 0.00350347 0.057088129
-0.11355383 0.0035034698 0.053941824
-0.099982619 0.00350347 0.053876769
-0.056373261 0.00350347 0.052950237
0.25662756 0.0035034698 0.053608432
-0.29781425 0.011868763 0.052072469
-0.27806443 0.012015866 0.05968605
-0.23640266 0.012324455 0.057307117
-0.22300491 0.012423613 0.054556396
-0.21608594 0.012474819 0.052913859
-0.2073781 0.012538994 0.052001573
-0.18094282 0.012734561 0.054006968
-0.16942951 0.012820126 0.059792954
-0.14368355 0.013010295 0.050623402
-0.099430278 0.013337611 0.058734588
-0.086690262 0.013432479 0.052350264
-0.062881261 0.013608688 0.050203599
-0.026953392 0.01387388 0.058363903
0.0092483014 0.014142521 0.054801811
0.15797411 0.015243242 0.052915014
0.16518687 0.015296634 0.054396883
0.20459898 0.015588313 0.05244562
0.23924446 0.015844844 0.057096414
0.2767587 0.016122367 0.05530452
0.339872 0.01658947 0.054783043
0.38346884 0.019719532 0.050677404
0.40076232 0.025119571 0.051485669
-0.42766118 0.032770932 0.055735223
0.44565099 0.034005065 0.056192413
-0.44245571 0.042128123 0.054340042
-0.40196091 0.0071468181 0.067746952
-0.17171726 0.00350347 0.063859679
-0.13445956 0.00350347 0.065270208
0.091153741 0.0035034702 0.060391523
0.10869099 0.0035034698 0.06337297
0.13588956 0.00350347 0.06126241
0.14131998 0.00350347 0.064071424
0.16538587 0.00350347 0.064669169
0.26356673 0.0035034698 0.062832214
0.39383191 0.0095585557 0.062585197
-0.34998333 0.011483844 0.063716948
-0.3265118 0.011656375 0.063037239
-0.27154902 0.012064019 0.063475139
-0.21459131 0.012485499 0.060440321
-0.19492935 0.01263086 0.068647802
-0.18513292 0.012703903 0.068776548
-0.1482465 0.012976313 0.06576217
-0.10550614 0.013293223 0.069515646
-0.045711599 0.013735397 0.065930821
-0.0087601915 0.014009239 0.061324544
0.012357268 0.014165126 0.061779119
0.057806991 0.01450107 0.067103535
0.063747481 0.014544885 0.06513346
0.10267733 0.01483399 0.062997855
0.12569252 0.015004221 0.067067489
0.17290077 0.015353714 0.064722776
0.182322 0.015423433 0.068212777
0.26888847 0.01606412 0.065960929
0.2906431 0.016225128 0.066467635
0.38695136 0.020472869 0.065543421
0.43244845 0.027324371 0.065939084
-0.45235756 0.036776498 0.062471043
-0.46374634 0.055594482 0.062832996
-0.40914288 0.0094435979 0.076605193
-0.33759874 0.00350347 0.077932045
-0.3043786 0.0035034702 0.073792078
-0.2312337 0.0035034702 0.076248258
-0.15682206 0.00350347 0.076673418
-0.092882983 0.00350347 0.074257195
-0.065462925 0.0035034704 0.075841561
-0.059092045 0.0035034702 0.078995168
-0.034095827 0.00350347 0.074087173
-0.026916023 0.0035034698 0.073759668
0.0092198905 0.00350347 0.079969108
0.06451878 0.0035034698 0.070039354
0.10861336 0.0035034702 0.079675972
0.25888801 0.00350347 0.077492461
0.27091104 0.00350347 0.073760033
0.3306905 0.00350347 0.073137954
0.3738898 0.0051072794 0.07527186
-0.40491891 0.01838761 0.074823409
-0.32014549 0.011704674 0.073257297
-0.31423211 0.011747256 0.072290815
-0.30083242 0.011847224 0.071997501
-0.28169274 0.011989031 0.073372066
-0.25399256 0.012193788 0.072632626
-0.1714111 0.012804712 0.079689667
-0.14434059 0.013005808 0.074677959
-0.12406161 0.013155095 0.077017918
-0.11713095 0.013206809 0.074337229
-0.065308616 0.013590724 0.079223655
-0.045023322 0.013739884 0.078596748
-0.031393491 0.01384173 0.070915997
-0.019892966 0.013925887 0.074425623
-0.007298586 0.014019089 0.073341027
0.0018917173 0.014088074 0.072013676
0.080766194 0.014671825 0.074152172
0.1239232 0.014991164 0.075364456
0.16917457 0.015326137 0.077791072
0.23377138 0.015804218 0.077976592
0.31289601 0.016390003 0.07100898
0.39843181 0.010860557 0.075818136
0.41169879 0.016824044 0.075235911
0.44464895 0.047327254 0.078877099
-0.46460772 0.056138165 0.078849405
0.46023458 0.055213947 0.078613341
0.27983543 -0.035222456 0.086911038
-0.29912001 0.0035034702 0.082296968
-0.2823374 0.00350347 0.081334159
-0.14867984 0.00350347 0.08723177
-0.12512614 0.0035034698 0.084095582
-0.097932011 0.00350347 0.085389696
-0.076418042 0.0035034702 0.083028451
-0.068535432 0.00350347 0.089871481
-0.039429892 0.00350347 0.089143306
0.05595243 0.00350347 0.088789999
0.12759033 0.0035034698 0.088038027
0.34476551 0.00350347 0.086235501
-0.41032887 0.010193934 0.080253981
-0.36971992 0.011527947 0.089310631
-0.35433039 0.011450492 0.085816242
-0.29441893 0.011894765 0.087032393
-0.26799566 0.012090636 0.086191133
-0.20577036 0.012550453 0.081880972
-0.14962879 0.012965759 0.088110223
-0.12503757 0.013147715 0.087959111
-0.078815907 0.013490757 0.087388024
-0.017200708 0.013946772 0.083239019
0.054275192 0.014475486 0.081562728
0.072626904 0.014611341 0.080614574
0.09414956 0.014770876 0.088081762
0.15772037 0.015241364 0.087666199
0.18154803 0.015417612 0.088058561
0.20975254 0.015626455 0.087138295
0.21008912 0.015628895 0.087071508
0.26337004 0.016023278 0.080707908
0.28200993 0.016161297 0.087765113
0.31100658 0.01637594 0.089573383
0.3273721 0.016496956 0.084392034
0.36233377 0.016755709 0.080668747
0.41259018 0.017275102 0.080332406
-0.4544577 0.038104318 0.087119535
0.44354457 0.032939687 0.083863415
-0.44726712 0.045171123 0.08139886
0.46516219 0.043877374 0.089029215
0.29040158 -0.052872814 0.096589953
0.25369534 -0.022721136 0.092195839
0.26760221 -0.024475116 0.096828401
0.30232257 -0.021927245 0.097937636
0.26877767 -0.0042290166 0.095937908
0.29085922 -0.0052687246 0.097240746
0.11408 0.00350347 0.099111721
0.33764929 0.0035034698 0.091910191
0.36420909 0.0036840274 0.09580183
-0.4042601 0.017971063 0.093062602
-0.36670893 0.01135888 0.094869152
-0.34099758 0.011550347 0.09135925
-0.23792589 0.012313183 0.091103904
-0.1749315 0.012778462 0.093585782
-0.085986987 0.013437394 0.096529841
-0.050335877 0.013701046 0.092366032
-0.034820214 0.013815884 0.097024009
-0.017240725 0.01394601 0.098796546
-0.0053497255 0.01403448 0.096295409
0.016591199 0.014196465 0.096518457
0.026702695 0.014271701 0.092257589
0.05493059 0.014480616 0.091271102
0.1375038 0.015091741 0.098156974
0.15912445 0.015251756 0.090630479
0.18835256 0.015468074 0.096272938
0.21931326 0.015697213 0.099361248
0.30744478 0.016349535 0.098853327
0.36291069 0.01675998 0.094382614
0.40305057 0.012448798 0.099493563
-0.41802704 0.026677601 0.096185587
0.40477693 0.027151328 0.093536541
0.42356789 0.022830136 0.091970831
0.46068054 0.042451702 0.097347312
0.24893422 -0.024717333 0.10124497
-0.40168229 0.0070894714 0.10467617
-0.35966808 0.00350347 0.10868526
-0.34551111 0.0035034702 0.10086495
-0.17845635 0.00350347 0.1067639
0.0099676698 0.00350347 0.10979825
0.13072114 0.0035034698 0.10150807
0.1936218 0.0035034702 0.10008325
0.21289274 0.0035034698 0.10931658
0.2978664 0.0035034702 0.10722546
-0.38488907 0.013022367 0.1084384
-0.37351885 0.011777083 0.10149483
-0.34956834 0.011485735 0.10109217
-0.31158212 0.011767264 0.10086704
-0.17867534 0.012751697 0.10346164
-0.11167165 0.013247591 0.10578239
-0.078551523 0.013492115 0.10736172
-0.057903014 0.013645533 0.10254222
-0.032734081 0.013831808 0.10499623
0.025423065 0.01426223 0.10876348
0.13719608 0.015089463 0.10793718
0.14815818 0.015170595 0.10932662
0.17729765 0.015386255 0.10235499
0.22313394 0.015725384 0.10618659
0.26711589 0.016050963 0.10664868
0.28613484 0.01619176 0.10453987
0.29089904 0.016227046 0.10044808
0.43349946 0.027855564 0.1078503
0.4203169 0.035014935 0.10505034
-0.45668334 0.047813646 0.10305483
-0.29541436 0.00350347 0.11232846
-0.26971146 0.00350347 0.11392924
-0.21233167 0.0035034698 0.11846007
-0.16287953 0.00350347 0.11292378
-0.0089358985 0.00350347 0.11115134
0.068646088 0.00350347 0.11278401
0.11076054 0.0035034698 0.1194915
0.14622083 0.0035034698 0.11834215
0.22516045 0.00350347 0.11940129
0.23993339 0.0035034698 0.11433349
0.32150957 0.00350347 0.11607435
0.36406115 0.0036622749 0.11648977
-0.38812029 0.013501726 0.11594076
-0.26697117 0.012098217 0.11904357
-0.25852183 0.012160752 0.11282367
-0.20108423 0.012585007 0.11822107
-0.17375329 0.012787338 0.11550126
-0.1326699 0.013092183 0.11774692
-0.12346245 0.013160327 0.11414844
-0.075124234 0.013518079 0.11519578
-0.023565084 0.013899669 0.11355676
-0.016930386 0.013948772 0.11970899
0.10176589 0.014827245 0.11908808
0.31275859 0.016388804 0.11539458
0.32209718 0.016457932 0.11563399
0.34142143 0.016600989 0.11426442
-0.41510993 0.024832506 0.1123825
0.38685673 0.020448903 0.1166003
0.39851841 0.023984065 0.11815204
-0.44578362 0.03261859 0.11654118
0.27188408 -0.058310632 0.12713416
0.28802711 -0.055663433 0.128425
0.29838413 -0.052757654 0.12179285
0.25484559 -0.048645888 0.120599
0.28347477 -0.020264072 0.125692
0.25200161 -0.016864654 0.12188346
0.3051118 -0.016677164 0.12378601
0.27237505 -0.0018033599 0.12234744
-0.34619522 0.00350347 0.12784183
-0.33486673 0.00350347 0.12406323
-0.3093639 0.0035034702 0.12120193
-0.28519306 0.00350347 0.12491284
-0.23467594 0.0035034702 0.12066367
-0.15909943 0.0035034702 0.12915814
-0.0061635673 0.0035034698 0.12129557
0.022697136 0.00350347 0.12210701
0.10203768 0.00350347 0.12975135
0.13252193 0.0035034702 0.12279186
0.15418911 0.00350347 0.12478514
0.20125905 0.0035034698 0.1239673
0.28213054 0.00350347 0.12500107
0.29797429 0.00350347 0.12379047
0.31709045 0.00350347 0.12524334
0.34351334 0.0035034702 0.12185068
0.3540628 0.00350347 0.12211816
-0.35238335 0.011465045 0.12338565
-0.23217627 0.012355275 0.12762734
-0.22788742 0.012387477 0.12146409
-0.21922055 0.012450729 0.12330415
-0.17503053 0.012777856 0.12204888
-0.16796404 0.012830172 0.12084378
-0.15635863 0.012916055 0.12769173
-0.14023888 0.013036164 0.12563172
-0.12402073 0.013155825 0.12346052
-0.072740227 0.013535723 0.12070432
-0.06595467 0.013585312 0.12022302
-0.018680319 0.013935242 0.12600064
0.031177476 0.014304819 0.12049481
0.045390278 0.014409766 0.12727411
0.06259504 0.01453734 0.12656939
0.10688017 0.014865096 0.12039853
0.11924127 0.014956228 0.12498331
0.15321635 0.015207874 0.12701938
0.17814982 0.015392562 0.12882766
0.25130424 0.015933832 0.12700915
0.27094766 0.016079361 0.12587073
0.28580219 0.0161893 0.12456258
0.35614499 0.016709939 0.12328621
0.40525624 0.027393872 0.1218529
0.41948834 0.020765522 0.12568375
0.42277461 0.030043358 0.12728201
0.25985041 -0.048269656 0.13203053
0.25193319 -0.032958463 0.13042426
0.25190061 -0.028513286 0.13188645
0.30413792 -0.020067109 0.13039336
-0.34505868 0.0041957856 0.13277543
-0.30421343 0.0035632753 0.13497999
-0.19323345 0.005382434 0.13497999
-0.13853784 0.0069800527 0.13497999
-0.057646468 0.00350347 0.13176841
0.031953499 0.0037188861 0.13497999
0.24396154 0.0088815652 0.13497999
-0.33986464 0.011557612 0.13170576
-0.30626279 0.010547876 0.13497999
-0.21851605 0.012455905 0.13294187
-0.16784072 0.012608565 0.13497999
-0.094267294 0.011655115 0.13497999
-0.051361665 0.013693279 0.13456699
0.051942453 0.014458501 0.13385102
0.13194922 0.015050447 0.13335562
0.25703824 0.012671423 0.13497999
0.29418367 0.015417282 0.134745
0.32060847 0.0164469 0.13265437
0.38494244 0.019988321 0.133881
-0.41906798 0.027335757 0.13076255
0.38968438 0.021165116 0.13465932
