# .PCD v0.7 - Point Cloud Data file format
VERSION 0.7
FIELDS x y z
SIZE 4 4 4
TYPE F F F
COUNT 1 1 1
WIDTH 936
HEIGHT 1
VIEWPOINT 0 0 0 1 0 0 0
POINTS 936
DATA ascii
0.30884287 -0.039950065 -0.16137965
0.28216541 0.019004045 -0.16243243
0.31775811 0.012322949 -0.1637166
0.25827789 0.029843349 -0.16122235
0.29134977 0.032068219 -0.16289769
0.31551239 0.031145308 -0.16389731
0.27270767 -0.054808944 -0.1573627
0.28322583 -0.046027668 -0.15551558
0.34149638 -0.049940903 -0.15741172
0.26410773 -0.037594721 -0.15238596
0.27686346 -0.03477525 -0.15813066
0.3436994 -0.02724967 -0.15953165
0.26411051 0.0074541802 -0.15433462
0.31975815 0.0074541797 -0.15158163
0.32246163 0.0038337817 -0.15612766
0.087042443 0.017564375 -0.152548
0.049653217 0.029274184 -0.15065396
0.38045165 0.039203629 -0.15151924
0.28800246 -0.071197003 -0.14910865
0.32550043 -0.069998324 -0.14191204
0.26376775 -0.039912231 -0.14709732
0.33338633 -0.0014921906 -0.14594999
-0.086964279 0.0074541802 -0.14252537
-0.020436764 0.0074541802 -0.14615126
0.0090614706 0.0079737585 -0.14859769
0.014731899 0.0074541802 -0.14521155
0.025817245 0.0074541802 -0.1409137
0.30508429 0.0094416821 -0.14438376
0.31348854 0.0083861882 -0.1477582
0.37507617 0.0074541802 -0.14740375
-0.1112114 0.013032691 -0.14250498
-0.044366002 0.013616494 -0.14589119
0.012678728 0.01809952 -0.14878093
-0.032314137 0.028832845 -0.14650171
0.31492075 0.029733395 -0.14193168
-0.1449953 0.031246247 -0.14079356
-0.06293346 0.032852199 -0.1417273
-0.020450309 0.032852199 -0.14157705
0.18794614 0.032852203 -0.14448282
0.23316674 0.032852199 -0.14993906
0.2401641 0.032852199 -0.14269556
0.30914059 -0.074766874 -0.13207467
0.31066617 -0.074523479 -0.13850096
-0.28698933 -0.054241527 -0.13213594
-0.22285998 -0.031398103 -0.13270505
-0.27723372 -0.0056612864 -0.13262992
0.33975074 -0.0078846896 -0.13240372
-0.32772243 0.0090552466 -0.13153709
-0.27796391 0.0090008043 -0.13405772
-0.20713133 0.0087257652 -0.13764592
-0.19161752 0.0074541802 -0.13328099
-0.090091877 0.0074541802 -0.13277596
0.053402476 0.0074541802 -0.13927783
0.075420834 0.0074541802 -0.13019697
0.094800703 0.0074541802 -0.13513818
0.1226008 0.0074541802 -0.13166378
0.29439962 0.0074541802 -0.13396825
0.30681321 0.0082430337 -0.1325793
-0.30747834 0.019020688 -0.13256261
-0.23420596 0.012928387 -0.1362744
-0.20032142 0.018763363 -0.13799089
-0.31366906 0.024546558 -0.132249
-0.2944361 0.028592635 -0.13322328
-0.26144955 0.028981149 -0.1348943
-0.22300117 0.028569086 -0.136842
-0.21329069 0.021079622 -0.1373339
-0.27606148 0.031506777 -0.1341541
-0.18410085 0.032852199 -0.13463408
-0.023821414 0.032852199 -0.13317707
0.068281308 0.032852199 -0.13351278
0.084386259 0.032852199 -0.13494797
0.1416789 0.032852199 -0.13335267
0.16586091 0.032852199 -0.13446009
0.18240099 0.032852199 -0.13710022
0.24028163 0.032852199 -0.13971718
0.32324848 0.034465957 -0.13443053
0.40327859 0.048512645 -0.1388368
-0.3001892 -0.048972856 -0.12016086
-0.26693231 -0.047815464 -0.12467504
-0.25888368 -0.043855295 -0.12634794
-0.22034955 -0.042070664 -0.12268171
0.2658332 -0.043967612 -0.12649828
-0.28816497 -0.035041638 -0.12888403
0.3479766 -0.037339903 -0.12810706
0.34658295 -0.020612372 -0.12826285
-0.24717695 -0.015936714 -0.12644072
0.2796748 -0.00057692535 -0.12014544
-0.35927439 0.0078228712 -0.12589321
-0.33729738 0.0095854094 -0.12995119
-0.28697813 0.0074541802 -0.12758182
-0.24163164 0.0074541802 -0.1240303
-0.23672476 0.00048702763 -0.12681724
-0.22105584 0.0074541802 -0.12370507
-0.20294572 0.0074541802 -0.12175299
-0.12190773 0.0074541802 -0.12309076
-0.093789227 0.0074541802 -0.12951486
-0.013069361 0.0074541802 -0.12621176
0.017711669 0.0074541802 -0.12651388
0.054608397 0.0074541802 -0.12737322
0.16784544 0.0074541802 -0.12248573
0.2430498 0.0074541802 -0.1212329
0.27790156 0.0074541802 -0.12195493
0.29534519 0.0080474298 -0.12735328
0.31560445 0.0082895551 -0.12048922
0.32571435 0.0046544825 -0.12043827
-0.34253174 0.014158345 -0.12905397
-0.32864085 0.016809212 -0.12853776
-0.37280864 0.02361504 -0.1219596
-0.35807148 0.038066644 -0.12354229
-0.12222688 0.032852199 -0.12300753
-0.11410356 0.032852199 -0.12341312
0.017652862 0.032852199 -0.12022052
0.11629887 0.032852199 -0.12827986
0.12582958 0.032852199 -0.12631939
0.19376895 0.032852199 -0.1281762
0.20822072 0.032852199 -0.12734753
0.21208198 0.032852199 -0.12002572
0.22085845 0.032852199 -0.12557206
0.25659001 0.032852199 -0.12167235
0.36135837 0.042376652 -0.12412614
0.38230294 0.047452234 -0.12152804
0.42359662 0.059435278 -0.12328973
0.33615309 -0.04303997 -0.11190154
0.29963639 -0.032912768 -0.11034735
0.31154364 -0.020694239 -0.11065564
0.32664722 -0.028174557 -0.1114202
0.29918957 -0.015651152 -0.11002898
0.30657586 -0.017464714 -0.11040348
0.30362976 -0.0061008367 -0.1102541
-0.39069355 0.0074541802 -0.11186019
-0.34445548 0.0074541802 -0.11283427
-0.16393799 0.0074541802 -0.11464947
-0.0029045716 0.0074541802 -0.11513107
0.068312198 0.0074541802 -0.11503375
0.12385282 0.0074541806 -0.11764837
0.14418545 0.0074541802 -0.11410004
0.15640163 0.0074541802 -0.11596265
0.25299916 0.0074541802 -0.11943281
0.27715683 0.0074541802 -0.11076044
0.29721624 0.0044720829 -0.11320575
0.42779955 0.0098942779 -0.11759757
-0.38754082 0.027550248 -0.11507574
-0.38188756 0.033927519 -0.11785958
-0.37939417 0.039482053 -0.11912668
-0.29365888 0.032852199 -0.11701365
-0.23290937 0.032852199 -0.1119899
-0.17592689 0.032852203 -0.11340687
-0.03173019 0.032852203 -0.11675962
0.11705656 0.032852199 -0.11359933
0.15190722 0.032852199 -0.11997847
0.18911606 0.032852199 -0.1185732
0.25641078 0.032852199 -0.11259211
0.27531207 0.032852199 -0.11486712
0.29908857 0.032852199 -0.11778887
0.32146472 0.033944193 -0.1189175
0.4263787 0.03643059 -0.11977439
0.43236056 0.041090839 -0.11270856
-0.30169103 -0.022950884 -0.10478896
0.27778986 -0.029897889 -0.10894459
-0.22650903 -0.0084785549 -0.10750702
-0.39832586 0.0074541797 -0.10836298
-0.37370554 0.0074541802 -0.1083226
-0.32188192 0.0074541802 -0.10908403
-0.28089976 0.0042842124 -0.10972071
-0.24422657 0.0057686428 -0.10603199
-0.23640586 0.0074541806 -0.10999313
-0.11659842 0.0074541802 -0.10462909
-0.050086468 0.0074541802 -0.10879358
0.23501065 0.0074541802 -0.10549137
0.30354834 0.0074541802 -0.10979883
0.3330639 0.0074541802 -0.10754029
0.40400076 0.0074541802 -0.10788141
-0.32759061 0.012857812 -0.10780442
0.31654906 0.024097715 -0.10979004
-0.32440868 0.032852199 -0.10047442
-0.24530292 0.032852199 -0.10081352
-0.20332782 0.032852199 -0.10703
-0.19180089 0.032852199 -0.10619166
-0.055465162 0.032852199 -0.1096793
0.047095664 0.032852199 -0.10185364
0.079393312 0.032852199 -0.10061859
0.087140784 0.032852199 -0.10761465
0.2289941 0.032852199 -0.10009299
0.31660724 0.032816436 -0.10299522
0.32797492 0.035140026 -0.10666458
-0.40694225 0.042402275 -0.10434376
0.37779173 0.046133317 -0.10381688
0.42635891 0.060060363 -0.10170978
0.43248522 0.062352419 -0.10160761
-0.2845214 -0.067240089 -0.09990529
-0.3006798 -0.021118924 -0.093938783
-0.31328985 0.0074541802 -0.098444894
-0.29208818 0.0074541802 -0.097270921
-0.27313223 0.0074541802 -0.099798188
-0.19772713 0.0074541802 -0.090982169
-0.13464892 0.0074541802 -0.091886751
-0.063633136 0.0074541802 -0.092730857
-0.033207022 0.0074541802 -0.094884753
0.10110441 0.0074541802 -0.09798114
0.11934856 0.0074541802 -0.096132919
-0.32701826 0.010201356 -0.096505329
-0.41550255 0.02896677 -0.09666431
-0.32709581 0.025797606 -0.098035872
-0.35783023 0.039107915 -0.096524462
-0.322943 0.032852199 -0.097728208
-0.24291077 0.032852199 -0.091962188
-0.021504551 0.032852199 -0.098914362
0.063869938 0.032852199 -0.090393916
0.1501886 0.032852199 -0.092555463
0.20305046 0.032852199 -0.095776998
-0.37746537 0.043625824 -0.092299223
0.37115157 0.044385619 -0.093424112
0.44601834 0.059562925 -0.096773461
-0.28394926 -0.053849611 -0.081428632
-0.29684967 -0.048543807 -0.086874321
-0.27795064 -0.049398426 -0.081732482
-0.25189218 -0.044280924 -0.083052747
-0.29865408 -0.036352068 -0.085139349
-0.2545312 -0.023907591 -0.083808534
-0.292061 -0.01247932 -0.084121346
-0.22456793 -0.015567626 -0.088920161
-0.26021305 -0.0040111197 -0.082630597
-0.37880307 0.0074541802 -0.081960715
-0.3556335 0.0074541802 -0.085198328
-0.32366371 0.0074541802 -0.087076209
-0.2042859 0.0074541802 -0.088393778
-0.1716034 0.0074541802 -0.08600428
-0.089096099 0.0074541802 -0.080997631
0.015304454 0.0074541802 -0.086974844
0.035458922 0.0074541802 -0.085724987
0.24262761 0.0074541802 -0.084226266
0.31773072 0.022475872 -0.086465023
-0.21354499 0.032852199 -0.089100488
-0.20364407 0.032852199 -0.081549101
-0.055244915 0.032852199 -0.087230355
-0.040197313 0.032852199 -0.088679157
0.016607292 0.032852199 -0.080097087
0.072644979 0.032852199 -0.08624205
0.080175824 0.032852199 -0.08805237
0.096260346 0.032852199 -0.080506876
0.10507734 0.032852199 -0.089713007
0.23510219 0.032852199 -0.081457213
0.27645907 0.032852199 -0.086241074
0.4528113 0.036645755 -0.081549741
-0.4255746 0.045141239 -0.08842358
-0.37273416 0.042577401 -0.083767578
0.41294605 0.055591263 -0.089088857
0.43512383 0.062964633 -0.081791714
-0.26501742 -0.037493873 -0.078227811
-0.39549702 0.0074541802 -0.074117333
-0.38823423 0.0074541802 -0.072314136
-0.30339125 0.0074541802 -0.078599773
-0.29321942 0.0074541802 -0.076322511
-0.19008832 0.0074541802 -0.078477725
-0.14320396 0.0074541802 -0.073647738
-0.094790936 0.0074541802 -0.073545016
-0.079683647 0.0074541802 -0.07441406
0.1693843 0.0074541802 -0.071889013
0.18942846 0.0074541802 -0.074830234
0.24857152 0.0074541802 -0.077255979
0.33633918 0.0074541802 -0.072985366
0.34772941 0.0074541802 -0.077730402
0.41764796 0.0074541802 -0.076810017
-0.34463236 0.036608916 -0.078960538
-0.18083362 0.032852199 -0.072408497
-0.0010524169 0.032852199 -0.078884333
0.075535931 0.032852199 -0.072591379
0.15228081 0.032852199 -0.073344983
-0.43490899 0.048823565 -0.07859911
0.39176664 0.049241792 -0.079569332
-0.25880828 -0.040297516 -0.069296189
-0.26575184 -0.033715319 -0.061344989
-0.25288838 -0.027903795 -0.061160211
-0.23066987 0.0074541802 -0.068317086
-0.13783064 0.0074541802 -0.066005625
0.012864335 0.0074541802 -0.065921038
0.069755159 0.0074541802 -0.069093756
0.088499621 0.0074541802 -0.060385987
0.17481928 0.0074541802 -0.066814929
0.26920134 0.0074541802 -0.063097402
0.28762513 0.0074541802 -0.065026149
0.34738854 0.0074541802 -0.061907198
0.35302591 0.0074541802 -0.06322962
-0.27007139 0.032852199 -0.067841478
-0.16576076 0.032852199 -0.066982962
-0.10429936 0.032852199 -0.062004793
-0.072523743 0.032852199 -0.067732126
-0.020249169 0.032852199 -0.060475599
0.0063892826 0.032852199 -0.060345177
0.052626804 0.032852199 -0.068086833
0.14702865 0.032852199 -0.062224191
0.16715206 0.032852199 -0.066548951
0.23623759 0.032852199 -0.06926997
0.24587184 0.032852199 -0.068376474
0.30524936 0.032852199 -0.061038978
0.3021166 -0.052825201 -0.055727448
0.31672531 -0.052825198 -0.05597797
0.29759926 -0.018666552 -0.056665897
0.33282048 -0.00089792442 -0.054035705
-0.40335596 0.0074541806 -0.057376914
-0.39750752 0.0074541802 -0.059447363
-0.31694511 0.0074541802 -0.052055571
-0.28707048 0.0074541802 -0.059528314
-0.22759096 0.0074541802 -0.05266868
-0.20863722 0.0074541802 -0.051703319
-0.13061206 0.0074541802 -0.05991026
-0.089762643 0.0074541806 -0.054199196
0.058411032 0.0074541802 -0.050656594
0.083233744 0.0074541802 -0.056238998
0.12240928 0.0074541802 -0.052773494
0.16333008 0.0074541802 -0.050424933
0.24946541 0.0074541802 -0.056917705
0.26815376 0.0074541802 -0.051558763
0.37028784 0.0074541802 -0.052641049
-0.45262995 0.026908385 -0.052121315
-0.15733373 0.032852199 -0.057306208
-0.056947563 0.032852199 -0.052083187
-0.013034608 0.032852199 -0.052527122
0.035004035 0.032852199 -0.057090871
0.27514094 0.032852199 -0.057607099
-0.36327916 0.040629428 -0.05616175
0.35753757 0.040640701 -0.057864904
-0.41558689 0.054235592 -0.053231459
-0.45078373 0.063148208 -0.055394486
-0.43540424 0.060417529 -0.057635128
-0.4222039 0.0074541802 -0.040897071
-0.37518054 0.0074541802 -0.040270161
-0.28700036 0.0074541802 -0.049647842
-0.22923705 0.0074541802 -0.046782941
-0.19425429 0.0074541802 -0.041884311
-0.090527147 0.0074541802 -0.041983407
-0.036395129 0.0074541802 -0.046436094
-0.012452058 0.0074541802 -0.040393848
0.013909787 0.0074541802 -0.044212393
0.12285788 0.0074541802 -0.040715519
0.22086351 0.0074541802 -0.045383759
0.27268869 0.0074541802 -0.043597464
0.28584984 0.0074541802 -0.043293722
0.29747173 0.0074541802 -0.04320617
0.32269967 0.0074541802 -0.041966457
0.42836171 0.0074541802 -0.044980492
0.46301839 0.020350819 -0.047026336
-0.30360425 0.032852199 -0.043547835
-0.27908784 0.032852199 -0.049762063
-0.21080922 0.032852199 -0.044479471
-0.16385391 0.032852199 -0.0445824
-0.12392081 0.032852199 -0.046000902
-0.11551414 0.032852199 -0.045325115
-0.071382061 0.032852199 -0.044623815
-0.049497858 0.032852199 -0.048293192
0.090578459 0.032852199 -0.041264214
0.16657287 0.032852199 -0.045414023
0.17575714 0.032852199 -0.041574579
0.22925387 0.032852199 -0.049369387
0.27299923 0.032852203 -0.044644296
0.46287048 0.042727888 -0.049946837
0.4228802 0.057916343 -0.048341665
0.46324509 0.065458238 -0.042549662
0.29953903 -0.042545546 -0.035569653
0.31500039 -0.038997117 -0.035437867
-0.30195084 0.0074541802 -0.031080542
-0.19281727 0.0074541802 -0.03273489
-0.13216203 0.0074541802 -0.033711888
-0.12696558 0.0074541802 -0.032096766
-0.072266802 0.0074541802 -0.03550056
-0.039620869 0.0074541802 -0.030372281
0.075166963 0.0074541802 -0.0339389
0.18726516 0.0074541802 -0.035274576
0.34329408 0.0074541802 -0.036230087
0.4596799 0.0074541802 -0.031455562
-0.32371539 0.013872726 -0.031300411
-0.46033356 0.031754658 -0.031483009
-0.27770132 0.032852199 -0.033253353
-0.22101626 0.032852199 -0.039785564
-0.074259907 0.032852199 -0.033487685
0.015059218 0.032852199 -0.037803128
0.034830954 0.032852199 -0.037081107
0.1206168 0.032852199 -0.031801559
0.16888413 0.032852199 -0.03946384
0.26945484 0.032852199 -0.037681881
0.29399991 0.032852199 -0.035302803
-0.41133851 0.053264581 -0.034247916
0.30071083 -0.04392948 -0.022825846
0.33480522 -0.046096254 -0.021848902
0.33501172 -0.03511833 -0.020254109
-0.25889909 -0.025772331 -0.027540874
-0.30529496 0.0074541802 -0.027447967
-0.28188545 0.0074541797 -0.024830639
-0.21839674 0.0074541802 -0.023459442
-0.20362261 0.0074541802 -0.026989549
-0.19322246 0.0074541806 -0.024508717
-0.14709468 0.0074541802 -0.020167584
-0.13767402 0.0074541802 -0.025202921
-0.10440393 0.0074541802 -0.023608223
0.012364969 0.0074541802 -0.020369951
0.034830853 0.0074541802 -0.027056016
0.044538401 0.0074541802 -0.028347682
0.057951391 0.0074541802 -0.023540907
0.16818783 0.0074541802 -0.020502644
0.24928232 0.0074541802 -0.02515636
-0.46277934 0.011208056 -0.024149397
-0.34164357 0.036536045 -0.027042355
-0.16241691 0.032852199 -0.026083846
-0.037757274 0.032852199 -0.021712013
0.1487707 0.032852199 -0.026135806
0.16294208 0.032852199 -0.02700197
0.20626909 0.032852199 -0.022464573
0.21816783 0.032852199 -0.027207237
0.22956653 0.032852199 -0.023246646
0.31468055 0.032852199 -0.025204374
0.33575171 0.035868026 -0.02393024
0.46414614 0.037472352 -0.024758551
0.36059254 0.040977046 -0.025963455
-0.46152166 0.059717327 -0.028093761
-0.45344651 0.068076089 -0.027784761
-0.44403297 0.064302824 -0.023158841
0.30138692 -0.031122046 -0.015473008
-0.23520549 -0.001199126 -0.018153569
-0.45362392 0.0074541802 -0.015637022
-0.21711464 0.0074541802 -0.013724009
-0.16678458 0.0074541802 -0.014185634
-0.14093664 0.0074541802 -0.019473955
-0.055627856 0.0074541802 -0.01149852
0.025293192 0.0074541802 -0.019095073
0.14582255 0.0074541802 -0.010156555
0.19781256 0.0074541802 -0.016226031
0.2291348 0.0074541802 -0.012988646
0.44765499 0.0074541802 -0.018193554
0.45777303 0.0074541802 -0.01314942
-0.32366848 0.033024043 -0.013665752
-0.1390751 0.032852199 -0.019524205
-0.021729723 0.032852199 -0.015599728
0.034571826 0.032852199 -0.012152195
0.13954064 0.032852199 -0.01576169
-0.4660778 0.045925982 -0.012970723
0.37302116 0.043895595 -0.016854435
0.40182137 0.051187813 -0.014460563
0.43583852 0.06190262 -0.011689181
-0.46340105 0.073633283 -0.016530801
0.33061576 -0.050526012 -0.0013927944
-0.26270431 -0.035304405 -0.0082491934
-0.44727856 0.0074541802 -0.0071813427
-0.43330395 0.0074541802 -0.009651104
-0.38874823 0.0074541802 -0.0098306872
-0.29392761 0.0074541802 -0.0035029575
-0.18009838 0.0074541802 -0.00040566362
-0.17052525 0.0074541802 -0.0028020516
0.00019522011 0.0074541802 -0.0017542019
0.078258015 0.0074541802 -0.0014318824
0.10615516 0.0074541802 -0.0044154292
0.15301344 0.0074541802 -0.0014230423
0.28748861 0.0074541802 -0.0010758936
0.29558253 0.0074541802 -0.0024436298
0.30568141 0.0074541802 -0.0089597274
0.41555512 0.0074541802 -0.0040425025
0.46196818 0.0074541802 -0.0025721435
0.3216098 0.013934223 -0.0098946467
-0.33610207 0.035652891 -0.0035148747
-0.31864583 0.032852199 -0.0074324459
-0.087694339 0.032852199 -0.008228112
0.035136044 0.032852199 -0.0090574808
0.057711884 0.032852199 -0.0056270212
0.13034974 0.032852199 -0.0072833169
0.18129846 0.032852199 -0.0093437284
-0.385773 0.046707924 -0.0068177748
-0.46553984 0.051783241 -0.0023478265
-0.23330782 -0.028252896 0.0024868427
-0.23322421 -0.011084506 0.0033960585
-0.37434608 0.0074541802 0.0090228096
-0.36351854 0.0074541797 0.0014912486
-0.15447678 0.0074541802 6.4317137e-06
-0.04118982 0.0074541802 0.0022433326
0.033225775 0.0074541802 0.0030522496
0.13625738 0.0074541802 0.0013514385
0.30451322 0.0074541802 0.0031718656
0.31970787 0.0074541806 0.0057445765
0.35546592 0.0074541802 0.004031769
0.39710313 0.0074541802 0.0046354579
0.41420799 0.0074541802 0.0043218136
0.4560397 0.0074541802 0.0005066311
-0.46540374 0.025641777 0.00033933017
-0.32505596 0.032619946 0.0059648827
-0.29236037 0.032852199 0.0057887137
-0.027450096 0.032852199 0.0097682849
0.025181815 0.032852199 0.0050818482
0.1073756 0.032852199 0.0020192359
0.13513264 0.032852199 0.0091919526
0.1892046 0.032852199 0.0073934384
0.31944188 0.032852199 0.0054637087
0.34318775 0.037073713 0.0056393053
-0.37246847 0.043668244 0.0097715035
0.46561497 0.051748533 0.0042444048
0.46546176 0.068338424 0.0012183739
-0.25784737 -0.051689126 0.015840767
0.30588049 -0.031867404 0.010507859
0.33739114 -0.032534484 0.016428228
-0.2661548 -0.019943992 0.016282259
0.30457002 -0.014834948 0.019145036
-0.4506925 0.0074541802 0.016605193
-0.41833642 0.0074541802 0.010824268
-0.38200438 0.0074541802 0.017217441
-0.12707241 0.0074541802 0.01241981
0.1644679 0.0074541802 0.016107408
0.22983903 0.0074541802 0.010592669
0.2983686 0.0074541802 0.019615471
0.30539328 0.0074541802 0.014543643
0.41274017 0.0074541802 0.01146958
0.32264373 0.012003932 0.010514222
0.46588391 0.023503082 0.015788002
-0.29522124 0.032852199 0.01864641
-0.28747493 0.032852199 0.018135892
-0.19961922 0.032852199 0.015490953
-0.16403857 0.032852199 0.010480942
-0.15964925 0.032852199 0.018266391
-0.053481862 0.032852199 0.01810988
0.050151169 0.032852199 0.017125096
0.1427708 0.032852199 0.011219651
0.15551114 0.032852199 0.014081053
0.18826693 0.032852199 0.018116849
0.22936124 0.032852199 0.010227118
0.26836812 0.032852199 0.017644923
0.29749039 0.032852199 0.017018614
-0.38834834 0.047637895 0.017620234
-0.37663791 0.044694304 0.010519363
-0.42207003 0.057105213 0.010523669
0.45595688 0.069648385 0.015075773
-0.45717847 0.071023658 0.011285441
0.45757061 0.070637882 0.010903639
-0.24690996 -0.033721045 0.020801084
0.30498651 -0.036721271 0.02329818
0.31030306 -0.033587486 0.023125678
-0.26553124 -0.02092411 0.025895318
-0.3509683 0.0074541802 0.025489561
0.018504582 0.0074541802 0.021430742
0.086985275 0.0074541802 0.026113268
0.11003038 0.0074541802 0.022118639
0.17819798 0.0074541802 0.024646096
0.36803299 0.0074541802 0.020522049
0.38409215 0.0074541802 0.023610067
0.39408642 0.0074541802 0.021927103
0.43245909 0.0074541802 0.027599268
0.46338421 0.017762439 0.023012441
0.32333118 0.02174153 0.024083707
-0.2608327 0.032852199 0.029620335
-0.094634265 0.032852199 0.026882129
-0.042493641 0.032852199 0.021831982
-0.01086621 0.032852199 0.027152352
0.0077290852 0.032852199 0.027680537
0.02865324 0.032852199 0.028249932
0.064947188 0.032852199 0.025874551
0.099990726 0.032852199 0.026929412
0.10519455 0.032852199 0.028945684
0.12306988 0.032852199 0.02253063
0.32613069 0.033458374 0.020414341
0.33797354 0.035777114 0.028764982
0.46333638 0.031316448 0.023216229
-0.39831603 0.050305676 0.025115646
-0.43954697 0.063490987 0.02259798
0.45304346 0.067845419 0.023210768
0.46382701 0.066591971 0.021785624
-0.45688099 0.071291469 0.026910791
-0.23422942 -0.051807899 0.034052595
-0.25902119 -0.049844146 0.033179209
-0.25855619 -0.038306084 0.034982365
-0.26482484 -0.028078331 0.036785405
-0.25967336 -0.028448794 0.030872818
-0.41316617 0.0074541802 0.030977
-0.36567643 0.0074541802 0.03303878
-0.12957905 0.0074541802 0.036219299
-0.11344241 0.0074541802 0.034725811
-0.014738828 0.0074541802 0.03547553
0.011911545 0.0074541802 0.036820535
0.08257243 0.0074541802 0.030719044
0.15209778 0.0074541802 0.034887433
0.23207712 0.0074541802 0.03732866
0.3440271 0.0074541802 0.038820721
0.40610734 0.0074541802 0.033831738
-0.088035442 0.032852199 0.038378961
0.042764626 0.032852199 0.030720415
0.058517247 0.032852199 0.037517555
0.078859903 0.032852199 0.031969581
0.18061294 0.032852199 0.034712706
-0.42288524 0.057682604 0.033008553
0.45824823 0.057241432 0.038052313
-0.4635008 0.06451223 0.037914589
0.45834872 0.062042117 0.037759293
-0.22971308 -0.049279902 0.041585658
0.31637016 -0.040101137 0.04354801
0.3090153 -0.028282451 0.042382136
-0.35345131 0.0074541802 0.047804922
-0.33561063 0.0074541802 0.049503248
-0.12127867 0.0074541802 0.040303163
-0.084636912 0.0074541802 0.044560879
-0.017753731 0.0074541802 0.041291982
0.080654651 0.0074541802 0.047570903
0.22998963 0.0074541802 0.040576633
0.25977808 0.0074541802 0.043483883
0.29938704 0.0074541802 0.047088526
0.34321466 0.0074541802 0.040584251
-0.2817049 0.032852199 0.049023766
-0.25626194 0.032852199 0.047948778
-0.20265409 0.032852199 0.04180279
-0.15194151 0.032852199 0.044947334
-0.14329134 0.032852199 0.046978958
-0.02067481 0.032852199 0.046583936
-0.0044046715 0.032852199 0.044110119
0.044325575 0.032852199 0.049200229
0.39920995 0.049524479 0.045133393
-0.40403798 0.052260164 0.042754062
0.43204975 0.059471074 0.041699246
-0.24144769 -0.037758302 0.05554197
-0.25456649 -0.025659312 0.052477282
-0.22882921 -0.026297465 0.05119922
-0.42558324 0.0074541802 0.051749721
-0.2810871 0.0074541802 0.054406155
-0.24643895 0.0073734503 0.055759881
-0.23249109 0.0019613712 0.055150934
-0.13400443 0.0074541802 0.057938166
0.1048454 0.0074541802 0.05981981
0.21194866 0.0074541802 0.054261424
0.32567626 0.0074541802 0.053844877
0.36480224 0.0074541802 0.057699233
-0.31926787 0.015171794 0.056501444
-0.46259028 0.03681035 0.055892866
-0.32003611 0.032943726 0.050234988
-0.2516523 0.032852199 0.059815019
-0.16500992 0.032852199 0.051487818
-0.055555418 0.032852199 0.05710502
-0.024576191 0.032852199 0.056696396
0.1034165 0.032852199 0.056832545
0.1162957 0.032852199 0.052901637
0.12308118 0.032852195 0.053972285
0.21852173 0.032852199 0.053189822
0.24791822 0.032852199 0.058881916
0.2963759 0.032852199 0.055374634
0.3250052 0.031662956 0.057127915
0.45336708 0.032806139 0.051469747
-0.46257502 0.053523008 0.056194477
0.42573142 0.057269365 0.051176172
-0.45257196 0.069826446 0.058630899
-0.25539511 -0.039482005 0.063074112
-0.23378611 0.0074541802 0.065528624
-0.13353147 0.0074541802 0.063141249
-0.077867948 0.0074541802 0.061553642
-0.049341012 0.0074541802 0.061583266
-0.0098020881 0.0074541802 0.068623483
0.016907144 0.0074541802 0.066597432
0.033041358 0.0074541802 0.060210042
0.054189265 0.0074541802 0.060924251
0.066605911 0.0074541802 0.062601656
0.15764806 0.0074541802 0.063191496
0.16722995 0.0074541802 0.066828661
0.23306561 0.0074541806 0.065660872
0.33563536 0.0074541802 0.062874645
0.34174925 0.0074541802 0.063418821
0.32556289 0.014770706 0.068135835
0.44153246 0.016646015 0.068558887
-0.33871078 0.036872387 0.063554488
-0.32917646 0.034931764 0.063091464
-0.25872841 0.032852199 0.066579305
-0.13547485 0.032852199 0.06200761
-0.040172622 0.032852199 0.063837469
-0.028999448 0.032852199 0.064899363
-0.017926276 0.032852199 0.065980136
0.050357502 0.032852199 0.068779163
0.15823607 0.032852199 0.063413158
0.26591179 0.032852199 0.060063489
0.27512899 0.032852199 0.069017947
0.29183283 0.032852199 0.061707795
0.43771577 0.061188385 0.063021809
0.32718584 -0.059334502 0.079490915
0.33586034 -0.053109623 0.079051085
0.34206897 -0.051596571 0.078736886
-0.34778941 0.0074541802 0.074798167
-0.29961243 0.0074541802 0.078741752
-0.27257198 0.0074541802 0.072918296
-0.10004374 0.0074541802 0.078725733
-0.082940131 0.0074541802 0.071572438
0.03704115 0.0074541802 0.077191219
0.12907642 0.0074541802 0.077541955
0.14206128 0.0074541802 0.072921351
0.16085613 0.0074541802 0.07383725
0.19828871 0.0074541802 0.072206296
0.24189097 0.0074541802 0.076198816
0.3542698 0.0074541802 0.072180718
0.4033379 0.0074541802 0.077244759
-0.45530516 0.039708454 0.076707006
-0.18402979 0.032852199 0.076931342
-0.17845744 0.032852199 0.074779168
-0.15746406 0.032852199 0.077228107
0.0041094497 0.032852199 0.078131124
0.044553027 0.032852195 0.07461717
0.10893172 0.032852199 0.072396778
0.11847834 0.032852199 0.072537683
0.14110795 0.032852199 0.078845322
0.17861611 0.032852199 0.071121827
0.19490404 0.032852199 0.076655209
0.30930039 0.032852199 0.079588607
0.44070369 0.057833917 0.070616551
0.32567033 -0.07406614 0.089584626
0.34452745 -0.057477817 0.080147572
0.31281984 -0.046263948 0.080218874
0.30449313 -0.0072385273 0.080640569
0.34657258 -0.0069636111 0.083232664
-0.43540981 0.0074541802 0.083476208
-0.31919527 0.0074541802 0.081334651
-0.17180251 0.0074541802 0.087649673
-0.1195075 0.0074541802 0.086944222
0.18476105 0.0074541802 0.08752948
0.19104363 0.0074541802 0.086295187
0.20321865 0.0074541802 0.085918382
0.23571 0.0074541802 0.084547035
0.32652688 0.008243924 0.088813558
0.34034902 0.0019051973 0.086979523
0.35203809 0.0074541802 0.084857374
0.42585146 0.0083008157 0.08785139
-0.31795913 0.024960034 0.082339168
-0.29905936 0.032852199 0.08539822
0.30825198 0.032852199 0.087830395
0.38468844 0.0455065 0.083060503
-0.45345259 0.057579361 0.080942154
0.28351292 -0.057304695 0.09964256
0.34711492 -0.0028698628 0.090137005
0.35063875 -0.0071061226 0.094893053
-0.39076489 0.0074541802 0.095100738
-0.38844889 0.0074541802 0.096905902
-0.37825608 0.0074541802 0.097560771
-0.30135339 0.0074541802 0.090656966
-0.10532673 0.0074541802 0.096794479
-0.06335634 0.0074541802 0.099456854
-0.042927846 0.0074541802 0.097802572
0.053429663 0.0074541802 0.091961369
0.1369397 0.0074541802 0.09839727
0.19650647 0.0074541802 0.092332244
0.20550543 0.0074541802 0.095607258
0.34750617 0.0074541802 0.093147665
0.37423769 0.0074541802 0.099959098
0.38534927 0.0074541802 0.095081151
-0.18712187 0.032852199 0.09914735
-0.085614577 0.032852199 0.097317658
-0.0023440495 0.032852199 0.093077913
0.021621697 0.032852199 0.090839252
0.057258651 0.032852199 0.099079132
0.10803361 0.032852199 0.098007336
0.11427689 0.032852199 0.095044039
0.30445984 0.032852199 0.095841698
0.41869384 0.037355285 0.094615385
-0.36991134 0.044151101 0.099332139
-0.4033516 0.052889053 0.098320313
-0.44853598 0.068144768 0.091850571
-0.23248824 -0.06020321 0.1078423
0.33898318 -0.06962584 0.10701126
0.35520685 -0.052654713 0.10443068
-0.24947473 -0.040210735 0.1019808
0.27577472 -0.035362124 0.1023104
-0.26915121 -0.0079289693 0.10970036
-0.25283679 -0.0083677322 0.10887321
-0.40995076 0.0074541802 0.10529885
-0.38279796 0.0074541802 0.10956155
-0.13972838 0.0074541802 0.10200114
-0.10486843 0.0074541802 0.10987724
0.09480226 0.0074541802 0.10140841
0.13736579 0.0074541802 0.10649544
0.16849324 0.0074541806 0.10158312
0.30280811 0.0062539498 0.10735206
-0.43729305 0.021917777 0.10701127
-0.26126102 0.032852199 0.10314461
-0.22115299 0.032852199 0.10676085
-0.20576108 0.032852203 0.10791782
-0.14555493 0.032852199 0.10697877
-0.1212907 0.032852199 0.10342781
-0.096511781 0.032852199 0.10191581
0.0050750226 0.032852199 0.10851363
0.026859038 0.032852199 0.10732457
0.032019824 0.032852199 0.10808402
0.068908341 0.032852199 0.10717987
0.27361095 0.032852199 0.10348479
-0.44116527 0.040108614 0.10269976
0.36463431 0.040438943 0.10182596
-0.25058779 -0.070397288 0.11072287
-0.23280059 -0.071002513 0.11582331
0.30395561 -0.072238408 0.11665824
0.3298316 -0.073520571 0.11226601
-0.21182588 -0.048852775 0.11379943
0.27844384 -0.046575915 0.1103565
-0.24695545 -0.039831024 0.1165835
-0.21219184 -0.012731374 0.11788965
-0.21779764 -0.0048952587 0.11880733
0.28813186 -0.0037550023 0.11610395
-0.29587549 0.0074541802 0.11512415
-0.28229412 0.0074541802 0.11803301
-0.27538508 0.0074541802 0.11633035
0.13981816 0.0074541802 0.11840014
0.16422327 0.0074541806 0.11078671
0.20317729 0.0074541802 0.11802728
0.3001081 0.0048751058 0.1198524
0.3223857 0.0074541797 0.11497237
0.32801443 0.016751315 0.11652845
0.38482517 0.018368741 0.11655489
0.32781982 0.025264768 0.11268654
-0.29472384 0.032852199 0.11129784
-0.1735363 0.032852199 0.1133176
-0.13705692 0.032852195 0.1186043
-0.092122421 0.032852199 0.11508092
-0.018110186 0.032852199 0.11638647
0.15852267 0.032852199 0.11867027
0.17740622 0.032852199 0.11181568
0.32577404 0.032852199 0.11954471
0.34146923 0.035614263 0.11359902
0.3538399 0.03808013 0.11806591
-0.26748356 -0.07071235 0.12062331
0.31903186 -0.074570715 0.12342855
-0.27144301 -0.068618312 0.12277646
0.33678114 -0.064823084 0.12986591
0.32748756 -0.054343794 0.12359349
0.27718192 -0.037594486 0.12427438
0.27956912 -0.022774372 0.12722611
0.32802629 -0.016737934 0.12183284
-0.40693009 0.0074541802 0.12194887
-0.38752392 0.0074541802 0.12340093
-0.3765536 0.0074541802 0.12295253
-0.22220063 0.0074541802 0.12719882
-0.16311282 0.0074541802 0.12355665
-0.130977 0.0074541802 0.12624997
-0.12464631 0.0074541802 0.1205231
-0.11970823 0.0074541802 0.12546766
-0.082065076 0.0074541802 0.12507331
-0.062001497 0.0074541802 0.12125488
-0.034062117 0.0074541802 0.12263963
-0.014838353 0.0074541802 0.12731448
-0.0075301528 0.0074541802 0.12335204
0.09037964 0.0074541802 0.12598814
0.20003219 0.0074541802 0.12336282
0.28820038 0.0074541802 0.12915787
0.3176339 0.0080415336 0.1247787
0.34084645 0.0031141008 0.12051991
0.35261887 0.0074541802 0.12730333
-0.31582519 0.017085105 0.12446684
-0.3029519 0.032852199 0.12079556
-0.29537329 0.032852199 0.12315632
-0.26402447 0.032852199 0.12776259
-0.16908088 0.032852199 0.12410934
-0.075576253 0.032852199 0.1206862
-0.065904416 0.032852203 0.12538268
0.029271394 0.032852199 0.12861623
0.048536599 0.032852199 0.12831706
0.090547934 0.032852199 0.12808654
0.16471386 0.032852199 0.12759823
0.2087844 0.032852199 0.1225855
0.2731396 0.032852199 0.12393288
0.28602341 0.032852199 0.12479662
0.36482882 0.030935526 0.12558803
-0.37535727 0.045801438 0.12541422
-0.28557944 -0.053375781 0.13218689
-0.21306765 -0.055431843 0.13061863
-0.2534472 -0.038269006 0.13677737
0.30823404 -0.0046794014 0.13131171
-0.38208267 0.0074541802 0.13468096
-0.3372969 0.0074541802 0.1380773
-0.25333369 0.0088392552 0.13475671
-0.22081725 0.0074541802 0.13587852
-0.15663947 0.0074541802 0.13990122
-0.14769506 0.0074541802 0.13097431
-0.1378845 0.0074541802 0.13601856
-0.084315501 0.0074541802 0.13445061
0.047328729 0.0074541806 0.13375552
0.13742271 0.0074541802 0.13218354
0.21596125 0.0086470041 0.13761175
0.19266467 0.014207602 0.13879189
0.22322664 0.014557811 0.1372437
0.32229859 0.015525311 0.13222499
0.17662677 0.029455418 0.13960433
0.27779871 0.020923849 0.13447924
-0.32647586 0.035171911 0.13974929
-0.15516646 0.032852199 0.13643974
-0.1362792 0.032852199 0.13451388
-0.082475059 0.032852199 0.13289601
0.15485701 0.032852199 0.13706641
-0.39981723 0.052457549 0.13925728
-0.22656274 -0.036323864 0.14992721
-0.22667822 -0.027716583 0.14993316
-0.27478316 -0.00033796017 0.14056343
-0.37223792 0.0074541806 0.14563122
-0.35824057 0.0074541802 0.14890251
-0.30431175 0.0074541802 0.14627942
-0.24486609 0.0074541802 0.14056769
-0.22319715 0.0010281496 0.14390028
-0.21649922 0.0074541802 0.14578585
-0.060000598 0.0074541802 0.1420823
-0.022828639 0.0074541802 0.14011498
-0.0045063198 0.0074541802 0.14368999
0.090168111 0.0079189735 0.14398408
-0.31479567 0.019119611 0.14479166
-0.02220618 0.015828907 0.14967665
0.0040894635 0.011056598 0.14834458
0.019093625 0.014980994 0.14758453
0.058951803 0.022153962 0.14556542
-0.3313055 0.036167622 0.14121559
-0.24636675 0.032852199 0.14638272
-0.13628146 0.032852199 0.14864616
-0.12367742 0.032852199 0.146422
-0.017347127 0.032852199 0.14191814
-0.40137273 0.051574383 0.14063241
-0.27146554 -0.067505881 0.15095907
-0.23171711 -0.067183711 0.15851589
-0.28317544 -0.052796863 0.15541442
-0.26525503 -0.053502567 0.15821499
-0.25846151 -0.055268526 0.15524554
-0.2395727 -0.045048878 0.15058573
-0.25369716 -0.023929775 0.1557973
-0.24613279 -0.020208616 0.15091741
-0.22060776 -0.027436776 0.15588461
-0.25511453 -0.0070149535 0.15718961
-0.23294976 -0.0046113301 0.15872656
-0.34202796 0.0074541802 0.155366
-0.26079854 0.0052088909 0.15495755
-0.23157029 0.0074541802 0.15510665
-0.094505809 0.0074541802 0.15269288
-0.065397382 0.0074541802 0.15140246
-0.20592004 0.014381922 0.15898308
-0.1919335 0.016000416 0.15827458
-0.18228741 0.010860897 0.15778592
-0.17894784 0.017668713 0.15761676
-0.1529378 0.01596597 0.15629914
-0.1080141 0.016255315 0.15402345
-0.076444231 0.026260827 0.15242422
-0.23421901 0.032852199 0.15812382
-0.20012295 0.032852199 0.15756324
-0.14462563 0.032852199 0.15255731
-0.27279887 -0.057854049 0.16074535
-0.28015053 -0.031210314 0.16111782
-0.31254944 0.0074541802 0.16428521
-0.31104055 0.017006479 0.16430821
-0.31532288 0.026781674 0.16432546
-0.34700429 0.039558128 0.16094628
-0.29946482 0.032852195 0.16171454
