# .PCD v0.7 - Point Cloud Data file format
VERSION 0.7
FIELDS x y z
SIZE 4 4 4
TYPE F F F
COUNT 1 1 1
WIDTH 891
HEIGHT 1
VIEWPOINT 0 0 0 1 0 0 0
POINTS 891
DATA ascii
0.10234822 0.047028758 -0.16156559
0.13477421 0.043260433 -0.15252319
0.1831702 0.043960176 -0.15649834
0.1922822 0.046363816 -0.15966821
0.22729886 0.044229984 -0.15596583
0.27014846 0.043246325 -0.15244056
0.087326512 0.053310551 -0.15505147
0.16894339 0.052524384 -0.1505862
0.18935199 0.051762678 -0.15979584
0.19806343 0.053829398 -0.15799224
0.26763907 0.051078286 -0.15316349
-0.34478447 0.046148144 -0.14471556
-0.28471625 0.041288227 -0.14131984
-0.21856287 0.04473877 -0.1407313
-0.16624558 0.041444968 -0.14220965
-0.050866887 0.049686693 -0.14740203
-0.027330618 0.046587281 -0.14730972
-0.0076834038 0.041997466 -0.14534834
0.15211302 0.042262137 -0.14685296
0.2202349 0.04246306 -0.14799383
0.30354375 0.041844741 -0.14448252
-0.3755759 0.051463116 -0.14590675
-0.32574719 0.052444965 -0.14030913
-0.17833635 0.051043577 -0.142175
-0.044754997 0.051569253 -0.14516194
0.082075894 0.051869057 -0.14686459
0.1065331 0.052222095 -0.1488664
0.12288104 0.051966023 -0.14741477
0.14617597 0.051726375 -0.14605336
0.19911018 0.051059715 -0.14226481
-0.14901553 0.039730906 -0.13060471
-0.33174723 0.04256523 -0.13288312
-0.31053641 0.049695969 -0.13110359
-0.26790339 0.04956691 -0.1322189
-0.21030769 0.041053105 -0.13981932
-0.12922174 0.040239334 -0.13414787
-0.059833661 0.040965814 -0.13920626
-0.030578114 0.041037887 -0.13970895
0.1687047 0.049443454 -0.13135563
0.27005824 0.049617037 -0.13256463
0.28901824 0.040476002 -0.13579699
0.32862779 0.044930741 -0.1388395
-0.36476812 0.057551652 -0.13964087
-0.34335059 0.054129258 -0.13572937
0.24152723 0.050073162 -0.13574167
-0.44085744 0.065912202 -0.13221815
-0.42255872 0.064836979 -0.13673729
-0.39887536 0.061737187 -0.13713726
-0.31064385 0.038543209 -0.12029089
-0.27725837 0.039378516 -0.12814876
-0.23411837 0.039151587 -0.1265672
-0.17915034 0.038480055 -0.12188698
-0.1619152 0.038780328 -0.12397973
-0.13774642 0.038899764 -0.12481213
-0.057993867 0.039361 -0.12802666
-0.023453593 0.039204314 -0.12693468
0.0093938708 0.039327834 -0.12779552
0.045337886 0.038559768 -0.12244255
0.098014839 0.039191216 -0.12684001
0.10923836 0.039174892 -0.12672637
0.18356645 0.039059617 -0.12592393
0.25911766 0.038506299 -0.12206846
0.27086541 0.038645197 -0.1230367
0.32915109 0.038895644 -0.12478299
0.33858287 0.039068431 -0.12598735
-0.37898707 0.047679946 -0.12470094
-0.33576486 0.04197713 -0.12512028
-0.31032902 0.048714597 -0.12434746
-0.22781101 0.048609547 -0.12555051
-0.14830649 0.048994005 -0.12823001
-0.074457839 0.048256718 -0.12309156
-0.023047304 0.048303273 -0.12341483
0.0065751933 0.049018312 -0.12839684
0.075237334 0.048642002 -0.12577613
0.16715702 0.048800398 -0.12687887
-0.4050023 0.051229931 -0.12526295
-0.37457326 0.056354038 -0.12234718
-0.44112486 0.065010279 -0.12083608
-0.43367445 0.064689569 -0.12548077
-0.40313846 0.061049871 -0.12847109
-0.31264842 0.038127393 -0.11656628
-0.23507789 0.037751306 -0.11680803
-0.12691814 0.038089521 -0.1191652
-0.021550477 0.037165187 -0.11271564
0.013673958 0.037773617 -0.1169635
0.036918636 0.03697351 -0.11099374
0.040579893 0.037637454 -0.11601453
0.077873893 0.037666678 -0.11621821
0.14732218 0.037395734 -0.11432989
0.18145916 0.037564099 -0.1155033
0.19271368 0.037610654 -0.11582777
-0.41015548 0.049932219 -0.1112017
-0.18155208 0.047530383 -0.11803214
0.01163535 0.047024623 -0.1145087
0.11139172 0.047169007 -0.11551476
0.14378183 0.047566846 -0.11828598
0.18868063 0.046927214 -0.11382997
0.31373709 0.046621218 -0.11138819
0.33026689 0.047470771 -0.11761546
-0.4423002 0.054330342 -0.11219667
-0.4355725 0.054423928 -0.11916347
-0.42449689 0.051895369 -0.11165382
-0.4025836 0.059579123 -0.11882222
-0.34943542 0.051438816 -0.11120021
-0.43310437 0.063485391 -0.117696
-0.42227489 0.061488666 -0.11387734
-0.30475193 0.036362711 -0.10496479
-0.10911611 0.036447607 -0.10626942
0.019605137 0.036363207 -0.10551125
0.044387452 0.035954945 -0.10184369
0.056319401 0.036856674 -0.10994416
0.068962708 0.036663044 -0.10820474
0.14162683 0.036330312 -0.10521571
0.15170583 0.036510065 -0.10683049
0.23828298 0.036820546 -0.10961962
0.32027155 0.036849894 -0.10988329
0.34574515 0.036355935 -0.10544591
0.38828558 0.035916511 -0.10149844
-0.34212965 0.040216457 -0.10545923
-0.33715597 0.049650181 -0.10985404
-0.27632734 0.045398287 -0.10040674
-0.076029241 0.045592986 -0.10215506
-0.037178107 0.046135422 -0.10702597
-0.00034471788 0.046179537 -0.10742208
0.041970182 0.046072945 -0.10646493
0.054657489 0.045751039 -0.10357431
0.085585847 0.046173517 -0.107368
0.093194254 0.046336938 -0.10883549
0.14586589 0.046386264 -0.1092784
0.16404171 0.045531608 -0.10160389
0.18130583 0.04627436 -0.10827356
0.21302755 0.045382258 -0.10026281
0.24434048 0.045532748 -0.10161416
0.26343548 0.045953855 -0.10539553
0.28246069 0.046335943 -0.10882655
0.37153825 0.045818686 -0.10418176
-0.41849819 0.050107937 -0.10286067
-0.39433533 0.056288462 -0.10107296
-0.3104516 0.035152804 -0.092131495
-0.30792195 0.034983415 -0.091653563
-0.28345549 0.035070907 -0.093902148
-0.20056999 0.035020754 -0.093451619
-0.1424958 0.035340101 -0.096320391
-0.12198369 0.035328202 -0.096213497
-0.074198365 0.035166979 -0.094765216
-0.045537613 0.035240982 -0.095429979
-0.022126824 0.03516978 -0.094790325
0.12322392 0.035638142 -0.098997802
0.13142532 0.034661926 -0.0902282
0.2512486 0.034639169 -0.090023749
0.27508625 0.035379577 -0.096675023
0.34811154 0.034947105 -0.092790022
0.37080342 0.034899965 -0.092366517
0.39447492 0.034883857 -0.092221804
-0.39081919 0.045048531 -0.09067066
-0.28294301 0.045012459 -0.096942157
-0.19784389 0.044397417 -0.091419272
-0.12495986 0.044414099 -0.091569096
-0.10223345 0.045116927 -0.097880222
0.0049361065 0.044917248 -0.096087188
0.10514303 0.044675525 -0.093916595
0.13860576 0.044795014 -0.094989568
0.142005 0.045046426 -0.097247154
0.22346506 0.044717576 -0.094294205
0.33652031 0.044293854 -0.090489335
0.36597884 0.044259239 -0.090178519
0.40079984 0.044658292 -0.093761861
-0.45840839 0.064699315 -0.09988369
-0.44743994 0.062405087 -0.092487007
-0.30789375 0.03455431 -0.08781077
-0.23778334 0.03451442 -0.088903055
-0.22285841 0.033993158 -0.084044047
-0.21426219 0.034071669 -0.084925711
-0.18659063 0.033765513 -0.081173487
-0.044929635 0.033867996 -0.082465775
-0.038456716 0.034294762 -0.086929828
-0.012934819 0.033939071 -0.083362028
0.016570091 0.034017377 -0.084349468
0.02270031 0.033685867 -0.080169171
0.10450356 0.034257848 -0.086498946
-0.33538541 0.046406034 -0.082423307
-0.22310652 0.043395385 -0.081505924
-0.18520445 0.043531962 -0.08322753
-0.11304393 0.043303404 -0.080346435
-0.083551422 0.043513022 -0.082988761
-0.074581787 0.043608561 -0.084193021
0.020935163 0.043640986 -0.084601775
0.10949674 0.043331385 -0.080699109
0.32719162 0.043552913 -0.083491534
0.40612257 0.043669056 -0.084878884
-0.4092502 0.056476552 -0.085041389
-0.21653901 0.033283968 -0.075101294
-0.12038821 0.033185821 -0.073863648
-0.095237926 0.033366971 -0.076147899
-0.059797741 0.033117268 -0.072999209
-0.028896108 0.033365786 -0.076133013
0.017044384 0.033373609 -0.076231651
0.076775275 0.033661675 -0.079864077
0.1165907 0.033240803 -0.074556954
0.134241 0.032917712 -0.070482843
0.16758946 0.032951739 -0.070911929
0.21065156 0.033527367 -0.078170486
0.23165157 0.033352818 -0.075969487
0.28423673 0.033601608 -0.079106666
0.29063162 0.033284925 -0.075113341
-0.42420745 0.048433822 -0.079768538
-0.39098746 0.043569531 -0.074335679
-0.33911288 0.046676829 -0.079596467
-0.31662691 0.043662839 -0.076137349
-0.26318294 0.042827588 -0.074348658
-0.1296902 0.043087728 -0.0776278
-0.10471843 0.042618528 -0.071713366
-0.09731517 0.043153137 -0.078452244
-0.080037251 0.043261833 -0.079822421
0.055673096 0.042640544 -0.071990892
0.1745012 0.042598367 -0.071459211
0.20064294 0.042792257 -0.073903263
0.25089246 0.042944256 -0.075819269
0.36113554 0.042829603 -0.074374035
-0.44220534 0.059907109 -0.073140211
-0.43780324 0.059742808 -0.078415908
-0.41101435 0.055498615 -0.070024475
-0.46261877 0.062708527 -0.074127629
-0.21476075 0.032485109 -0.065027803
-0.19943686 0.032625996 -0.066804342
-0.18228894 0.032392129 -0.063855395
-0.10382728 0.032632634 -0.066888064
-0.012905229 0.032349184 -0.063313819
0.036338575 0.032109864 -0.060296021
0.069691405 0.032182515 -0.061212175
0.16157846 0.032321796 -0.0629685
0.21403979 0.0327539 -0.068417192
0.2562772 0.032521728 -0.065489605
0.324765 0.032380488 -0.063708574
0.363536 0.032610081 -0.06660369
0.3777054 0.032692175 -0.067638911
0.3948366 0.032221183 -0.061699707
-0.32622981 0.043760318 -0.064576268
-0.30500695 0.042239476 -0.066089436
-0.22702244 0.042449493 -0.069582656
-0.145859 0.042114209 -0.065356277
0.0019902373 0.041763451 -0.060934868
0.065305322 0.042332809 -0.068111807
0.086690791 0.042114235 -0.065356612
0.22691074 0.042386629 -0.068790212
0.34649888 0.041722931 -0.060424134
0.37825602 0.042413507 -0.069129035
-0.42965555 0.05718568 -0.060049836
-0.41714078 0.055990212 -0.065962911
-0.36729497 0.039040379 -0.057214223
-0.32508796 0.033463463 -0.057720587
-0.27266616 0.031917151 -0.057865996
-0.24510194 0.031523012 -0.050503947
-0.15207031 0.031949684 -0.058276217
-0.093644008 0.031517785 -0.05039404
-0.07323575 0.031853851 -0.057067774
-0.069925979 0.031704288 -0.054318294
0.055299327 0.031671312 -0.053624451
0.12378509 0.031547092 -0.051010668
0.33373055 0.031507708 -0.050182067
-0.37663931 0.044985265 -0.055556029
-0.33772719 0.044795156 -0.058397025
-0.30067432 0.041180316 -0.051531389
-0.27501309 0.041182201 -0.051662575
-0.20137025 0.04115241 -0.051035866
-0.11082329 0.041318424 -0.0545277
-0.10219978 0.041110106 -0.050143428
-0.045987051 0.041646317 -0.059458394
-0.011167273 0.041218791 -0.052430749
0.04456573 0.04139553 -0.056150638
0.064031303 0.041407824 -0.056409258
0.24633381 0.04122857 -0.052638181
0.26833296 0.04123313 -0.052733961
0.33920994 0.041583832 -0.058670744
0.39444205 0.041584156 -0.058674831
0.44939497 0.040818479 -0.056322154
-0.40829092 0.053818475 -0.05159983
-0.3311094 0.033444576 -0.041642271
-0.32076544 0.032252803 -0.043455001
-0.25390968 0.031130403 -0.042242974
-0.16398585 0.031084027 -0.041267116
-0.13943052 0.031116296 -0.041946068
-0.11677946 0.031268027 -0.045138754
-0.022931729 0.031493805 -0.049889468
0.069400951 0.031382125 -0.047539495
0.12677713 0.031307962 -0.045979053
0.16292769 0.031294364 -0.045692921
0.24744999 0.031036656 -0.040268488
0.30640212 0.03104501 -0.040443067
0.31267774 0.031325631 -0.046349891
0.39512086 0.031192312 -0.043544643
-0.40718654 0.043534804 -0.040504314
-0.33019 0.043071359 -0.044667255
-0.29998153 0.040687434 -0.041238032
-0.27270842 0.040885232 -0.04541491
-0.23222965 0.040940925 -0.046586558
-0.17330438 0.040951405 -0.046803389
-0.12564325 0.040909845 -0.045928754
-0.10448425 0.040789444 -0.04339467
-0.036321189 0.040647 -0.040396933
0.18166675 0.040690295 -0.041313834
0.27235097 0.041091934 -0.049763486
0.28597194 0.041089669 -0.049715899
0.32510418 0.040654685 -0.040564626
0.33764687 0.040780798 -0.043217797
0.38316235 0.040720504 -0.041946456
0.45588908 0.040813278 -0.044026192
-0.41984043 0.054840408 -0.040794875
-0.35662258 0.036555737 -0.035576131
-0.3011167 0.030592632 -0.030781489
-0.28553244 0.030564919 -0.030344347
-0.26699889 0.030807234 -0.035442978
-0.23303001 0.030735962 -0.033943359
-0.072014868 0.030908309 -0.037569799
-0.0017185844 0.030696377 -0.0331112
0.1296985 0.030874331 -0.036854178
0.13796604 0.030691639 -0.033008389
0.24975541 0.030927377 -0.037968144
0.30436277 0.030950001 -0.038443193
0.33011019 0.03055655 -0.030167544
0.45366022 0.030568583 -0.030424654
-0.33774683 0.043671709 -0.036172047
-0.31263235 0.040968716 -0.038812347
-0.046304867 0.040199213 -0.030972701
0.054779746 0.040396694 -0.035128944
0.14679144 0.040520966 -0.037744366
0.2277911 0.040621795 -0.039872587
0.23804443 0.040397238 -0.035148427
0.26017269 0.040215831 -0.031331941
0.29542214 0.040623203 -0.039902367
0.44903618 0.040570185 -0.03878022
-0.45378289 0.05904359 -0.034066092
-0.33600849 0.033379517 -0.023537878
-0.29820871 0.030379273 -0.022859812
-0.27326035 0.030457821 -0.027810007
-0.2552923 0.030355949 -0.021361694
-0.20002003 0.030359166 -0.021621313
-0.19932237 0.030437808 -0.026584458
-0.18156376 0.039997932 -0.023656875
-0.17477754 0.030437961 -0.02659522
-0.097576186 0.039988007 -0.023031851
-0.024847023 0.030433236 -0.026249576
-0.0017305017 0.03038091 -0.022957813
0.0060919132 0.03037384 -0.022510819
0.19579192 0.039991878 -0.023310259
0.21317627 0.030410923 -0.024858357
0.22840801 0.030537251 -0.029756604
0.28344139 0.039952807 -0.020862253
0.30953532 0.039973922 -0.022178527
0.38326561 0.030482713 -0.027899941
0.45230925 0.039990749 -0.023204761
0.46151406 0.03050564 -0.029100444
-0.41422671 0.043958601 -0.029768292
-0.3833662 0.049301259 -0.023585618
-0.35255778 0.04522419 -0.025526043
-0.34662506 0.044515349 -0.02907748
-0.32724506 0.041791495 -0.02194082
-0.30934188 0.040203173 -0.022922356
-0.27042085 0.040012091 -0.024548313
-0.25693488 0.040059295 -0.027520398
-0.19206709 0.040082049 -0.02850686
-0.13026714 0.04006914 -0.028140547
-0.10667726 0.040096965 -0.028820835
-0.077693447 0.040035151 -0.026000336
0.10393492 0.040025301 -0.025399564
0.15874232 0.040015116 -0.024770079
0.24897023 0.040089652 -0.028666865
0.29721743 0.040094696 -0.028159
-0.41818073 0.053935759 -0.023097303
-0.25482133 0.030176777 -0.010071209
-0.16678311 0.030326454 -0.019512299
-0.15255225 0.039811429 -0.011913563
-0.1378684 0.039816737 -0.012247805
-0.11761601 0.039801754 -0.011304313
-0.070296593 0.039876688 -0.016022615
-0.064350344 0.039859459 -0.014937702
-0.058715314 0.039781757 -0.010045243
-0.041248173 0.030193061 -0.011101771
-0.02219063 0.030273788 -0.016178174
0.0090346485 0.030242417 -0.014196853
0.012722999 0.036679156 -0.016296038
0.043635011 0.030248234 -0.014566227
0.098358549 0.030313022 -0.018668866
0.10232887 0.030316314 -0.018877665
0.1579228 0.039871734 -0.015710602
0.22886871 0.039920092 -0.018778328
0.25962779 0.039786823 -0.010364267
0.32270369 0.03027329 -0.016177449
0.34439069 0.039786659 -0.01036966
0.37770161 0.030177012 -0.01008491
0.3994832 0.030266628 -0.015728848
0.41205597 0.039869208 -0.015553862
0.45544562 0.039808013 -0.011698476
-0.31536618 0.040509041 -0.019170083
-0.28258911 0.039665282 -0.0027112358
-0.27169314 0.039659943 -0.0023750695
-0.26449096 0.039756052 -0.0084268246
-0.18176988 0.039738487 -0.0073206644
-0.17389852 0.039735947 -0.0071605826
-0.14613909 0.034860417 -0.0025516746
-0.10909333 0.030103609 -0.0054403413
-0.08017768 0.030145368 -0.0080831805
-0.054948226 0.039633751 -0.00072598312
0.046657607 0.03009915 -0.005158084
0.068815842 0.030092504 -0.0047376128
0.084414162 0.039751817 -0.008160064
0.10230693 0.030112099 -0.0059777373
0.17748669 0.039702915 -0.0050809453
0.20590849 0.034973674 -0.0097000273
0.21378173 0.034902997 -0.0052385163
0.2463766 0.03008623 -0.004340407
0.26016513 0.030075859 -0.0036840702
0.30086896 0.030100882 -0.005257308
0.34802336 0.039763771 -0.0089232139
0.36550784 0.03487749 -0.0036295396
0.37295967 0.030099232 -0.0051572486
0.40795776 0.030115116 -0.006167416
0.42331746 0.030069593 -0.0032853337
0.45556948 0.03016717 -0.0094488915
-0.4319919 0.045832139 -0.0018040937
-0.36887363 0.04706737 -0.0047522355
-0.44008398 0.05663351 -0.0091531239
-0.40486762 0.051806018 -0.00093149499
-0.32720155 0.031914536 0.005431605
-0.26032555 0.030115245 0.0062529719
-0.25510821 0.030091487 0.0047539636
-0.12675557 0.039634638 0.00074666674
-0.049965914 0.039731007 0.0068144668
-0.021137819 0.039712526 0.0056507848
-0.0066204369 0.030120168 0.0065635643
0.22181451 0.030046947 0.0019436395
0.25857711 0.030090269 0.0046770498
0.29974368 0.039686061 0.0039845668
0.30074629 0.039759301 0.0085961269
0.34302723 0.034923207 0.0065435246
0.35202897 0.030054094 0.0023944841
0.37624937 0.039638493 0.00098933571
0.39557746 0.03653425 0.0071641277
0.44991156 0.039636604 0.0008704185
0.46677589 0.030017016 4.0069481e-05
-0.437545 0.046674937 0.0083114794
-0.3990252 0.041533802 0.0080335177
-0.3108201 0.04000039 0.0054184673
-0.45905009 0.059066672 0.0031178249
-0.37085581 0.037873492 0.014056009
-0.27515462 0.030207381 0.012066645
-0.26724249 0.030293671 0.017511457
-0.19783527 0.039887913 0.016694328
-0.13897045 0.035048518 0.014464071
-0.11486001 0.039910059 0.01808857
-0.098042265 0.030288778 0.017213197
-0.080897421 0.030245058 0.014444124
-0.061002873 0.030183934 0.010587229
-0.054498225 0.039810576 0.011824774
-0.022132482 0.030260378 0.015435615
0.045808095 0.030241564 0.014238223
0.062445283 0.039888002 0.016699962
0.15792289 0.039880052 0.016198974
0.16677448 0.035039049 0.013851604
0.18260865 0.039851442 0.014397946
0.19794801 0.030299081 0.017866069
0.20977397 0.030279549 0.01663347
0.23394242 0.03509938 0.01764949
0.28593054 0.030267242 0.015849629
0.33811677 0.039852522 0.0144658
0.34688181 0.039802659 0.011325882
0.35594699 0.030239301 0.014080824
0.36440241 0.030222803 0.01304108
0.39647141 0.030245103 0.014475112
0.40508041 0.030286752 0.017108271
0.43918216 0.039881855 0.016313661
0.44229668 0.039923638 0.018944615
-0.43921745 0.047061108 0.018539516
-0.36450565 0.046651535 0.015130913
-0.46289384 0.050123334 0.012579501
-0.33825621 0.033708517 0.025465462
-0.31803408 0.031205717 0.024645893
-0.29178765 0.03051826 0.029458972
-0.25615582 0.033627495 0.025825582
-0.23257405 0.030367019 0.022171091
-0.22393009 0.030406818 0.0246762
-0.11144438 0.030439528 0.026735287
-0.10769277 0.030472469 0.028488537
0.089358866 0.030410495 0.024917763
0.21071805 0.030481849 0.028692244
0.22425701 0.030456843 0.027862955
0.28938597 0.039725553 0.02757496
0.30420622 0.039995544 0.023471337
0.34062701 0.039993156 0.02334765
0.35168484 0.039976377 0.022297738
0.36538893 0.039956082 0.023620216
0.395529 0.030360373 0.021762392
0.40337318 0.030404683 0.024562962
0.42829132 0.030370697 0.022413623
0.44582242 0.030460617 0.028088097
-0.40152943 0.042111978 0.023337323
-0.3663758 0.046995744 0.021055536
-0.31613472 0.040769216 0.029435415
-0.26352677 0.040014926 0.024691621
-0.19944918 0.040067587 0.0280075
0.04588319 0.040060259 0.027546147
0.089126483 0.040036611 0.026057186
0.28225416 0.040006865 0.024184244
0.31664726 0.040103186 0.028919442
0.36370489 0.040035795 0.026039822
0.40992904 0.040052876 0.027101869
-0.46284416 0.050250888 0.020991366
-0.36135155 0.037071865 0.033287451
-0.26460707 0.030779604 0.034957588
-0.24504666 0.030546609 0.030056415
-0.1829827 0.030758029 0.034503654
-0.12232836 0.030778008 0.034923997
-0.054989114 0.030894868 0.037383027
-0.015293993 0.030640032 0.032015439
0.076767385 0.030898571 0.037456062
0.11689535 0.030860804 0.03666243
0.25532162 0.030614555 0.031484902
0.27797943 0.030870276 0.036864862
0.39659163 0.030807786 0.035544563
0.42736691 0.030717645 0.033651322
0.4546873 0.03307052 0.034148626
-0.39341453 0.041344583 0.033227913
-0.34466898 0.044612214 0.036501065
-0.29596698 0.040250421 0.032015458
-0.18588516 0.04032173 0.0335164
-0.14593852 0.040360309 0.034328207
-0.082846858 0.040531665 0.03793487
-0.0062594628 0.040350255 0.034116693
0.015118588 0.040394802 0.035054255
0.073899046 0.040249314 0.031993251
0.083055504 0.040232595 0.031641766
0.16172019 0.040286772 0.032784007
0.17362553 0.04023413 0.03167709
0.18154092 0.040514447 0.037573919
0.21097854 0.040406838 0.035311304
0.28273755 0.040320911 0.033506103
0.30487925 0.040192146 0.030801723
0.3266426 0.040193468 0.030819578
0.3824254 0.040277135 0.032577749
0.42533773 0.040625051 0.039900288
0.44595215 0.040462427 0.03647754
0.45163399 0.040325847 0.033602916
-0.39757562 0.051498391 0.032984748
-0.29678255 0.031279102 0.045467302
-0.28983644 0.031303324 0.045976695
-0.27043489 0.031078693 0.041250393
-0.26098275 0.0314161 0.048349448
-0.24219468 0.031277046 0.045423813
-0.18511786 0.031456258 0.049194388
-0.16131939 0.031187061 0.043530501
-0.14312156 0.031162016 0.043003578
-0.12128261 0.031284712 0.045585051
-0.096184865 0.031201538 0.043835077
-0.055587098 0.03111184 0.041947812
-0.01875864 0.031092111 0.041532736
0.040516604 0.031301133 0.045930542
0.058091611 0.031306125 0.046035554
0.080382288 0.031215999 0.044139359
0.12244989 0.031023482 0.040084742
0.21653236 0.031314265 0.04620374
0.29420739 0.031353533 0.047031399
0.3288745 0.031166807 0.043103971
0.35336381 0.031246593 0.044782899
-0.36899552 0.048481189 0.049536858
-0.34078899 0.044658042 0.048247457
-0.32935494 0.042899232 0.043365318
-0.16859931 0.040632222 0.040051226
-0.085461989 0.040798768 0.04355647
0.090992473 0.041091908 0.049726062
0.10453537 0.040681183 0.041081667
0.12546057 0.040818974 0.043981712
0.17492896 0.041088801 0.049660742
0.18515433 0.041067041 0.049202725
0.32712674 0.041024644 0.048311077
0.34544083 0.04099128 0.047609784
0.41643363 0.040886309 0.045398887
-0.4297899 0.056341574 0.044398278
-0.35782397 0.037749678 0.056961238
-0.1653033 0.031524427 0.050628692
-0.0075114518 0.031984068 0.058804311
0.0084482133 0.031695142 0.05422052
0.04707358 0.031595148 0.052116584
0.12933439 0.032018434 0.059237633
0.14484772 0.031863928 0.057262957
0.20359664 0.03182929 0.056852542
0.2855354 0.031614274 0.052519105
0.45058596 0.031642899 0.053121448
-0.36370414 0.047984019 0.053883724
-0.34206071 0.045329269 0.057816859
-0.31177652 0.041645743 0.054087646
-0.25216663 0.041240215 0.052848801
-0.2332601 0.041193157 0.051858742
-0.21539529 0.04157678 0.058547676
-0.20598215 0.041494798 0.05751434
-0.13262764 0.041375823 0.055701576
-0.085597456 0.041156951 0.051095087
-0.068730325 0.041310221 0.054320898
-0.042560611 0.041385874 0.055913188
-0.0088597266 0.041620452 0.059098173
0.00084995013 0.04151544 0.057774503
0.021055046 0.041402683 0.056266963
0.059258793 0.041113682 0.050184421
0.19675949 0.041262042 0.0533069
0.21583882 0.041591674 0.058735415
0.2329009 0.041376099 0.055707455
0.32489675 0.041626673 0.059176557
0.33039609 0.041539077 0.058072411
0.35764599 0.041634992 0.05928142
0.36932552 0.041423969 0.055544727
0.38255003 0.041239195 0.052826058
-0.35075942 0.037262823 0.06264957
-0.3229292 0.033898722 0.066469871
-0.31577474 0.03312622 0.065397426
-0.30219746 0.032444034 0.06443923
-0.29891881 0.032745276 0.068402961
-0.26373187 0.032733593 0.068255626
-0.22449604 0.032752678 0.068496294
-0.21508801 0.032515217 0.065501943
-0.1988011 0.032217916 0.061753064
-0.084376529 0.032567129 0.066156551
0.057323519 0.032660857 0.067338496
0.091339663 0.032280188 0.062538303
0.11359035 0.032409374 0.064167306
0.15733728 0.032636695 0.067033812
0.26667327 0.032586243 0.066397615
0.28250957 0.032199156 0.061516508
0.29062444 0.032728419 0.068190418
0.32828489 0.032211371 0.061670542
0.38410798 0.032486066 0.065134346
0.44042087 0.032537155 0.065778621
-0.44372112 0.049600136 0.061916605
-0.39199069 0.043331943 0.069788992
-0.34673494 0.04647119 0.064294547
-0.33378446 0.044892058 0.066141531
-0.29727599 0.041828107 0.061715588
-0.28718597 0.041930798 0.063009992
-0.21775991 0.042250045 0.067034051
-0.14603408 0.041747499 0.060699537
-0.023840919 0.04189061 0.062503442
0.012997445 0.041910011 0.062747993
0.034528412 0.042478893 0.0699187
0.08047279 0.041827772 0.061711341
0.10035851 0.041709736 0.06022352
0.13375816 0.042271059 0.067298971
0.40331125 0.042326745 0.068000808
0.41294447 0.041929908 0.062998757
-0.44649231 0.05499956 0.064706996
-0.43801653 0.058574643 0.06344001
-0.42564881 0.057394832 0.069302492
-0.37717915 0.050857317 0.06837146
-0.32700664 0.035089746 0.075071529
-0.31314579 0.033769876 0.075859874
-0.030853078 0.032949802 0.070981972
0.20084238 0.033419717 0.07690756
0.2340274 0.033388279 0.076511115
0.25142658 0.032973405 0.07127963
0.27333996 0.033647768 0.079783231
-0.42348719 0.04786621 0.073964834
-0.35244277 0.048354041 0.078307778
-0.31611562 0.04362845 0.076204523
-0.30052185 0.043089308 0.077564947
-0.22598135 0.042895954 0.075175643
-0.15825023 0.042907547 0.075321749
-0.13248582 0.043040492 0.076997526
-0.11477727 0.042775057 0.073651753
-0.040411226 0.042691372 0.072596893
-0.035621278 0.042751767 0.073358208
0.030507462 0.042502385 0.070214793
0.14485367 0.042620517 0.071703851
0.22546259 0.043030437 0.076870769
0.3550632 0.043049887 0.077115953
-0.33205023 0.036236089 0.080992281
-0.31760272 0.034782443 0.08429645
-0.28742787 0.033694133 0.080367863
-0.17630289 0.033717088 0.080657318
-0.069274485 0.034050249 0.084554978
-0.054331884 0.034053437 0.084856421
-0.023487344 0.033752266 0.081100926
-0.0069642961 0.03423629 0.086499095
0.0035373271 0.033777393 0.081417769
0.081188574 0.034582164 0.089606218
0.14416593 0.033849087 0.0823218
0.17098454 0.034352161 0.087539986
0.18864058 0.034140944 0.085642576
0.22798121 0.034076802 0.085066326
0.29427212 0.033702254 0.080470294
0.40016353 0.033888206 0.082815103
-0.42076811 0.048027202 0.080511324
-0.39282402 0.045023143 0.088157445
-0.37592259 0.042368978 0.084175199
-0.30484015 0.043662611 0.08364664
-0.23504198 0.043568399 0.083651677
-0.20137475 0.043301873 0.080292173
-0.19044577 0.0441075 0.08878088
-0.061247576 0.044185732 0.089483365
-0.034405109 0.043515582 0.082985923
-0.01895385 0.043961726 0.08747185
0.026820052 0.043423444 0.081824571
0.047388077 0.043802306 0.086040333
0.11704106 0.044206474 0.089669585
0.27443963 0.043847043 0.08642181
0.30547693 0.043686274 0.084998392
0.37454474 0.043637823 0.08452677
-0.37703881 0.051937394 0.082098439
-0.45400149 0.062901802 0.089077063
-0.44757128 0.061314538 0.081742853
-0.29943651 0.035228465 0.095412225
-0.22145948 0.035065293 0.093946382
-0.2056742 0.035580836 0.098577708
-0.1972248 0.035213079 0.095274016
-0.10658474 0.035311867 0.096161455
-0.091198705 0.035672933 0.099405065
-0.044164643 0.035622086 0.098948292
-0.034797516 0.035214912 0.09529046
-0.025583848 0.03492105 0.092650577
0.066750303 0.034914643 0.092593014
0.2171946 0.035377275 0.096749023
0.32556003 0.035339255 0.096407495
0.346627 0.03497339 0.093120798
0.4180426 0.034854669 0.092054263
-0.37940136 0.044549171 0.09988004
-0.36381578 0.042427331 0.099491268
-0.29282582 0.044614397 0.093332611
-0.19235004 0.044899508 0.095892839
-0.18784088 0.044994615 0.09674684
-0.13295633 0.045262448 0.099151939
-0.0650196 0.045099862 0.097691923
-0.048133433 0.045220826 0.098778136
0.010879068 0.044650733 0.093658894
0.095278099 0.044471964 0.092053622
0.21171333 0.045308765 0.099567816
0.29204151 0.044856153 0.095503561
0.38250509 0.044867042 0.095601283
0.40223968 0.044612974 0.093319841
0.41243118 0.044750586 0.094551705
-0.40649536 0.057542302 0.09776479
-0.3626157 0.051107496 0.092567332
-0.30857861 0.036717881 0.10709469
-0.23288217 0.035741072 0.1000172
-0.21637489 0.036051799 0.10280857
-0.19791962 0.036365725 0.1056287
-0.10615275 0.036616478 0.10788137
-0.062882751 0.035921447 0.10163758
-0.047473885 0.036071967 0.10298977
0.1240023 0.03647773 0.10663489
0.13395065 0.035777807 0.10034718
0.14910191 0.036070339 0.10297516
0.3350516 0.036142964 0.10362756
0.34195128 0.036100656 0.10324747
0.40107429 0.036936209 0.10706623
-0.38629544 0.045804303 0.10287179
-0.35188979 0.041811638 0.10817168
-0.33714378 0.049513936 0.10862048
-0.27653205 0.046123669 0.10688537
-0.26343149 0.045593269 0.1021226
-0.22284839 0.046078533 0.10648007
-0.20053105 0.046253011 0.1080468
-0.12589706 0.046214122 0.10769758
0.020427996 0.046030566 0.10604937
0.036301158 0.045422956 0.10059323
0.1361942 0.046008103 0.10584766
0.18728518 0.046441033 0.10973522
0.21808046 0.046308462 0.10854475
0.33470979 0.046416193 0.10951214
-0.38713151 0.055747841 0.10477686
-0.14764617 0.037846014 0.11756308
-0.124194 0.037482023 0.11487474
-0.11408065 0.03742516 0.11462997
-0.083664931 0.037602536 0.11586618
-0.077325717 0.036888301 0.11032325
0.0015716702 0.037306625 0.11380385
0.040450685 0.037776746 0.11708033
0.11351864 0.037134927 0.1125388
0.1246127 0.03721419 0.11315962
0.23659319 0.037163731 0.11279755
0.26840261 0.038119555 0.11946952
0.27024952 0.037407085 0.11450401
-0.21935289 0.0465964 0.11113033
-0.18921572 0.047194768 0.11565822
-0.14042178 0.047181979 0.1155685
-0.10411259 0.047312893 0.11648017
0.0086772069 0.046588153 0.11105631
0.04744824 0.047043722 0.11460632
0.056493834 0.046544779 0.11066683
0.10653211 0.046737015 0.11239302
0.14795074 0.047519974 0.11792403
0.18840854 0.046495702 0.11022611
0.21036978 0.046895705 0.11357521
0.24571052 0.047031745 0.11452289
0.25854564 0.047081787 0.11458664
0.32011047 0.04767888 0.11903
0.38985461 0.046544559 0.11066633
0.3955023 0.041053034 0.11054889
-0.42656702 0.052910913 0.11710177
-0.41547027 0.051571522 0.11807097
-0.33415559 0.050035562 0.11589654
-0.29003158 0.039251208 0.1273565
-0.23538378 0.039125539 0.12648064
-0.20714048 0.038206805 0.12007758
-0.16755249 0.039368644 0.12817496
-0.11186646 0.038548902 0.12246181
-0.054145906 0.038242526 0.12032656
-0.023739886 0.038609106 0.12288139
-0.0073207552 0.039465442 0.12884958
0.20905063 0.038659003 0.12322915
0.26334646 0.03877284 0.12402253
0.27885747 0.038297996 0.12071314
-0.19513607 0.048620533 0.12559099
-0.1855333 0.048597775 0.12543051
-0.14834914 0.048120849 0.12210777
-0.13286565 0.049177028 0.12946974
-0.11037219 0.047937348 0.12083021
-0.10801388 0.047925755 0.12074956
-0.038733356 0.048041195 0.12155528
-0.019517612 0.049112976 0.12902084
0.025201788 0.048677176 0.12598504
0.13759443 0.048651345 0.12580317
0.17597806 0.048100948 0.12197011
0.20922911 0.048723601 0.12630668
0.36180669 0.047835514 0.12671578
-0.44772631 0.057910815 0.1236681
-0.37193817 0.056588784 0.12635639
-0.33189476 0.050823096 0.12341554
-0.4413141 0.065132029 0.12146823
-0.22568828 0.03965722 0.13018614
-0.080690265 0.039953332 0.13224989
-0.063096441 0.039966922 0.13234459
0.19202061 0.039725035 0.13065879
-0.36219108 0.047058716 0.13597716
-0.27329957 0.041012861 0.13963422
-0.21466076 0.043398861 0.13390781
-0.14589988 0.049908608 0.13456379
-0.097023793 0.049679648 0.13296948
-0.086631998 0.049591038 0.13235104
-0.067045212 0.045379899 0.13653477
0.031805292 0.040597431 0.13673888
0.065274917 0.040609293 0.13682151
0.078012347 0.040256344 0.13436173
0.10145704 0.049686477 0.13301352
0.14355983 0.040808171 0.1382076
0.16701806 0.04093349 0.13908103
0.21817996 0.040787734 0.13806519
0.29982832 0.049345743 0.13064003
0.30446777 0.04531388 0.13607371
0.31319219 0.049782816 0.13368434
-0.43289185 0.05610856 0.13336189
-0.34963563 0.054170139 0.13019106
-0.26940435 0.050634507 0.13961874
-0.18209332 0.050198983 0.13658533
-0.13149178 0.050388474 0.13790666
0.078595862 0.050382402 0.1378606
0.22592567 0.050506257 0.13872325
-0.41236132 0.062546641 0.13027956
-0.3567178 0.047683153 0.14449435
-0.3432138 0.047969382 0.14556877
-0.32190859 0.042823046 0.14304066
-0.2979722 0.047223993 0.14362153
-0.23190323 0.043188702 0.14069152
-0.22629011 0.046367783 0.14066248
-0.13252798 0.049262043 0.14737362
-0.12905385 0.047373835 0.14738436
-0.025712658 0.047935832 0.14726703
0.083635837 0.042185765 0.1465117
0.12192295 0.041986451 0.14538112
0.16915764 0.041673336 0.14360331
0.19479366 0.042601988 0.14887874
0.2141242 0.042103264 0.14604619
0.26322946 0.041212052 0.14098366
-0.38488817 0.054536413 0.1437076
-0.30284381 0.050783344 0.14048144
-0.12407339 0.050921746 0.14145043
-0.11784939 0.051096343 0.14243858
-0.088734999 0.051303983 0.14361876
0.10424498 0.05190824 0.14705352
0.13317066 0.051394582 0.144133
0.18489318 0.052131604 0.14831863
0.19022506 0.051908396 0.14704958
-0.40718961 0.063857697 0.14346221
0.094385445 0.043583617 0.15445681
0.14260408 0.043135434 0.15191013
0.21459985 0.048086151 0.1585518
0.25668186 0.043146819 0.1519741
0.066428907 0.053116679 0.15398672
0.099932291 0.053327937 0.15511246
0.13615227 0.053578507 0.15653448
0.22314413 0.053079449 0.153703
0.28446665 0.051789675 0.15008187
0.099525876 0.046024129 0.16117622
0.13974157 0.048460409 0.16150574
0.11352615 0.053912092 0.16208375
0.1420968 0.052966531 0.16144119
