# .PCD v0.7 - Point Cloud Data file format
VERSION 0.7
FIELDS x y z
SIZE 4 4 4
TYPE F F F
COUNT 1 1 1
WIDTH 910
HEIGHT 1
VIEWPOINT 0 0 0 1 0 0 0
POINTS 910
DATA ascii
-0.37124515 0.018955391 -0.12634863
-0.35764951 0.015133763 -0.12413617
-0.31506544 0.011180723 -0.12812801
-0.29192492 0.01547642 -0.12812801
-0.27916676 0.0108698 -0.12365758
-0.25714532 0.013326578 -0.12812801
-0.23230225 0.011427752 -0.12812801
-0.19777565 0.019745246 -0.12812801
-0.14910707 0.011700707 -0.12812801
-0.11416639 0.0108698 -0.12796509
-0.094017357 0.014994614 -0.12757778
-0.02542536 0.0108698 -0.12373167
0.014202215 0.01634074 -0.12812801
0.037526302 0.016443199 -0.12812801
0.060647354 0.011231691 -0.12812801
0.12743039 0.014376752 -0.12812801
0.23541577 0.017127272 -0.12812801
0.25834078 0.011588445 -0.12812801
0.26664236 0.015772732 -0.12812801
0.30210808 0.0108698 -0.12398699
-0.37399688 0.026716422 -0.12595649
-0.33933502 0.022265131 -0.12812801
-0.25547719 0.024192603 -0.12812799
-0.10087021 0.025256876 -0.12812801
-0.081805959 0.027953401 -0.12523624
-0.0038083345 0.027953399 -0.12288566
0.026979879 0.026930671 -0.12574172
0.071395606 0.027953401 -0.1214706
0.10125179 0.02648804 -0.12812801
0.11667734 0.027953397 -0.12717454
0.21711552 0.027953399 -0.12133364
0.26913843 0.026592707 -0.12812801
0.29346824 0.025576895 -0.12812801
0.35671681 0.027953399 -0.12413007
0.36339003 0.029872017 -0.12641111
0.38628891 0.02227333 -0.12304925
0.39210051 0.034468986 -0.12254943
-0.29542765 -0.06050019 -0.113291
-0.2875039 -0.062150504 -0.113291
-0.27200797 -0.069279149 -0.113291
0.23770018 -0.060803354 -0.113291
0.28692159 -0.058963783 -0.113291
-0.31369755 -0.040939275 -0.11203899
-0.27410755 -0.042610232 -0.11329101
-0.2473956 -0.039396487 -0.113291
0.26735735 -0.038340397 -0.113291
-0.27334642 -0.025422115 -0.11250859
0.22914231 -0.029566087 -0.11295206
0.24901721 -0.022080146 -0.113291
0.2563546 -0.026404101 -0.11136724
-0.34343898 0.010869801 -0.11384184
-0.2224486 0.010869799 -0.1138029
-0.1749824 0.0108698 -0.11176974
-0.15776253 0.0108698 -0.1131078
-0.1459125 0.0108698 -0.11225955
-0.097827345 0.0108698 -0.11991502
-0.056174785 0.0108698 -0.1167372
0.017953947 0.0108698 -0.11835063
0.020362779 0.0108698 -0.11860123
0.039853975 0.0108698 -0.11250786
0.054717675 0.0108698 -0.11281835
0.17070821 0.0108698 -0.11065326
0.18561842 0.010869801 -0.11674708
0.24394576 0.0108698 -0.11948115
0.27753472 0.0108698 -0.11371761
0.35777196 0.0108698 -0.11409349
0.3638382 0.012974055 -0.11479425
-0.26187301 0.027953399 -0.11455326
-0.23151526 0.027953397 -0.11531778
-0.22570188 0.027953399 -0.11034106
-0.17773114 0.027953399 -0.11546037
-0.1637004 0.027953399 -0.11496419
-0.14667147 0.027953399 -0.11297948
-0.10816424 0.027953397 -0.11192459
-0.036307603 0.027953401 -0.11974835
0.045894012 0.027953399 -0.11933373
0.14135417 0.027953397 -0.11994267
0.16592556 0.027953397 -0.11176463
0.358758 0.02677943 -0.11783707
-0.41183451 0.049937759 -0.11300492
0.40695244 0.047915906 -0.11554484
-0.29013631 -0.075193517 -0.10674357
-0.28153899 -0.076753452 -0.10564122
0.23709477 -0.067695461 -0.10562213
0.25118205 -0.052798565 -0.104749
-0.29072911 -0.044157356 -0.10474899
0.22686404 -0.048222192 -0.10013725
0.2590096 -0.030070417 -0.104749
-0.26074669 -0.014721781 -0.10190189
-0.35875899 0.016139947 -0.10368589
-0.31162542 0.010869801 -0.10730842
-0.2949138 0.0108698 -0.10151816
-0.28418273 0.0108698 -0.10215508
-0.25362673 0.0108698 -0.1053881
-0.23247629 0.0108698 -0.10648395
-0.22296745 0.010869799 -0.10313493
-0.21088427 0.0108698 -0.10295228
-0.14949492 0.010869799 -0.10183851
-0.11168416 0.0108698 -0.10425699
-0.043226555 0.010869799 -0.10324232
0.07909523 0.0108698 -0.10377689
0.093261302 0.0108698 -0.10820314
0.14756417 0.010869801 -0.10182562
0.28636029 0.0108698 -0.10115371
0.34282631 0.0108698 -0.10433079
-0.4026137 0.029034974 -0.10712402
-0.39503431 0.025895633 -0.10465848
-0.35875899 0.022760807 -0.10747942
-0.15103516 0.027953399 -0.10240804
-0.074500918 0.027953399 -0.10588717
-0.030268818 0.027953399 -0.10227497
0.076875955 0.027953399 -0.10913584
0.10074075 0.027953401 -0.10241377
0.13435873 0.027953399 -0.1004383
0.17222197 0.027953399 -0.1076007
0.25247154 0.027953399 -0.10519153
0.28556174 0.027953399 -0.10028973
-0.41397998 0.033742785 -0.10904884
0.36957431 0.032433592 -0.10202049
0.38297713 0.037985142 -0.10839318
-0.41073275 0.049481418 -0.10260589
-0.40565613 0.047378726 -0.10535778
0.23635083 -0.067124546 -0.095320456
0.22671983 -0.047127649 -0.094385982
-0.31323031 -0.037392534 -0.095502488
-0.24646166 -0.036347382 -0.097980842
-0.25405395 -0.020694451 -0.09933313
0.23710412 -0.017932508 -0.093106084
-0.28003481 -0.0086842179 -0.090083748
-0.33350128 0.0108698 -0.099963129
-0.14179112 0.0108698 -0.097336873
-0.014130399 0.010869799 -0.097077824
-0.0025236011 0.0108698 -0.091557518
0.016759992 0.0108698 -0.094916135
0.038919255 0.0108698 -0.093174234
0.0424565 0.0108698 -0.090800419
0.089251548 0.0108698 -0.097159132
0.12164355 0.010869799 -0.092853993
0.14901561 0.0108698 -0.09456709
0.1933433 0.010869799 -0.09971562
0.20220208 0.010869799 -0.099233121
0.28101671 0.0108698 -0.098717637
0.34607714 0.0108698 -0.090235755
0.36655203 0.01409814 -0.091031075
-0.39906296 0.027564265 -0.093029611
-0.33884105 0.027953399 -0.094806142
-0.19720945 0.027953399 -0.094041921
-0.17144236 0.027953399 -0.098973557
-0.1625229 0.027953399 -0.096441641
0.13413566 0.027953397 -0.093166217
0.16489276 0.027953399 -0.092027262
0.22901437 0.027953397 -0.094300717
0.26905584 0.027953399 -0.099402621
0.3519046 0.027953397 -0.097985446
0.40333146 0.029332466 -0.091604128
-0.40740418 0.031019159 -0.09892118
0.43971401 0.044996247 -0.092883199
-0.28770137 -0.075942576 -0.081333011
-0.27329904 -0.07603538 -0.085641421
-0.26880926 -0.074941352 -0.089051455
-0.31296992 -0.050218981 -0.083783604
0.22619621 -0.043153059 -0.081616595
0.29422036 -0.044843324 -0.085366704
-0.24648809 -0.03614657 -0.082142428
0.2804938 -0.015599011 -0.083288044
-0.34941384 0.0108698 -0.086479202
-0.29106155 0.0108698 -0.081807956
-0.2163692 0.010869799 -0.085507154
-0.18130904 0.010869801 -0.082416937
-0.08583726 0.0108698 -0.087574318
-0.075984105 0.0108698 -0.081587769
-0.060670629 0.0108698 -0.086637899
-0.058322877 0.0108698 -0.085542768
-0.030538812 0.0108698 -0.083610475
0.075905986 0.0108698 -0.083506078
0.094918773 0.0108698 -0.082922146
0.10177024 0.0108698 -0.088168196
0.1267928 0.010869801 -0.085343793
0.13594458 0.0108698 -0.085202917
0.19892463 0.010869801 -0.087344989
0.25330496 0.0108698 -0.081020117
0.37444329 0.017366778 -0.084860213
-0.32700282 0.027953399 -0.085084967
-0.22972447 0.027953397 -0.088828243
-0.20006284 0.027953399 -0.085150681
-0.17438293 0.027953399 -0.087638833
-0.11963344 0.027953399 -0.084913105
0.005544275 0.027953401 -0.089314088
0.083213463 0.027953397 -0.085120797
0.13476866 0.027953397 -0.086553141
0.2007632 0.027953401 -0.084891021
0.38119754 0.020164423 -0.089025669
-0.41980141 0.036154002 -0.080598831
-0.43268335 0.041489609 -0.082215458
-0.28485045 -0.076317705 -0.070696905
-0.29560107 -0.066737853 -0.070581399
-0.25309736 -0.063693628 -0.075496301
-0.24868096 -0.0545329 -0.070581399
0.24276206 -0.044501036 -0.070581399
0.29433239 -0.041643053 -0.076228224
-0.28770018 -0.036664575 -0.070581399
-0.2556473 -0.039329823 -0.070581399
0.23658843 -0.033957336 -0.070581399
0.24452364 -0.036564946 -0.070581399
0.29341513 -0.034674436 -0.073963411
-0.30583352 -0.02112874 -0.074189775
-0.25443915 -0.020192366 -0.074474119
0.25627607 -0.024926919 -0.070581399
0.26787528 -0.020631919 -0.070581399
0.28286815 -0.023840353 -0.070581399
0.26084259 -0.0087191798 -0.07517413
-0.35829902 0.0108698 -0.070630848
-0.27542579 0.0108698 -0.07381776
-0.26083061 0.010869799 -0.078816064
-0.25339577 0.010869801 -0.079529554
-0.22076467 0.0108698 -0.074351072
-0.19713002 0.010869801 -0.077937759
-0.032069415 0.0108698 -0.073067382
0.056436472 0.0108698 -0.070863098
0.080051929 0.0108698 -0.074018262
0.11810969 0.010869801 -0.076415092
0.21376893 0.0108698 -0.076573759
0.25946036 0.0108698 -0.070590705
0.358758 0.017914807 -0.075378045
-0.40447026 0.029803939 -0.076324396
-0.35871518 0.027953399 -0.079332232
-0.099312745 0.027953399 -0.072229296
-0.051804319 0.027953401 -0.077212237
0.060861394 0.027953399 -0.072722591
0.070936978 0.027953399 -0.076233335
0.11578423 0.027953397 -0.077218935
0.15736747 0.027953397 -0.074209213
0.17862786 0.027953399 -0.078530721
0.20435989 0.027953401 -0.071791828
0.21744667 0.027953397 -0.076027945
0.29157531 0.027953399 -0.077540375
0.35828707 0.027953399 -0.079523757
0.36362872 0.029970886 -0.071662754
0.3819544 0.020477939 -0.075526126
0.37478256 0.0345909 -0.072057456
0.41010568 0.032138404 -0.077219963
0.44262505 0.062691033 -0.078733668
-0.3567856 0.010869801 -0.065285236
-0.3016277 0.0108698 -0.069687784
-0.29791138 0.0108698 -0.063978679
-0.16406766 0.0108698 -0.068358056
-0.14356142 0.0108698 -0.068632856
-0.027500063 0.0108698 -0.068415098
-0.011385597 0.0108698 -0.069020569
0.07638365 0.0108698 -0.060247682
0.28604358 0.0108698 -0.066675276
0.35861742 0.015828406 -0.063460931
-0.38525689 0.021845777 -0.063932255
-0.3313323 0.027953401 -0.061685301
-0.21634227 0.027953399 -0.067423999
-0.20254442 0.027953397 -0.066757753
-0.1292181 0.027953399 -0.06257005
-0.1054503 0.027953401 -0.065476149
-0.083970144 0.027953399 -0.066731326
-0.0053392649 0.027953399 -0.064859428
0.015097231 0.027953399 -0.061298709
0.049290545 0.027953401 -0.068052769
0.063591681 0.027953401 -0.06550169
0.13113017 0.027953397 -0.068113521
0.17213321 0.027953399 -0.060833752
0.19415678 0.027953399 -0.064039603
0.2625111 0.027953397 -0.06185285
0.27882737 0.027953401 -0.069783047
0.358758 0.025740393 -0.064977445
0.36305016 0.029731244 -0.062921859
0.37973666 0.036642917 -0.060135588
0.42437628 0.038049184 -0.066126928
-0.4525131 0.049703628 -0.063080758
-0.45775688 0.059641328 -0.069025598
-0.46279508 0.07002525 -0.060089871
-0.2927292 0.0108698 -0.058010899
-0.22865449 0.0108698 -0.053298082
-0.20257238 0.0108698 -0.052019909
-0.18995401 0.0108698 -0.055331405
-0.17618512 0.0108698 -0.053271621
-0.14835411 0.0108698 -0.054813787
-0.026826926 0.0108698 -0.053604502
0.14299695 0.0108698 -0.057201155
0.16609931 0.0108698 -0.051075082
0.2057797 0.0108698 -0.055369735
0.34513628 0.0108698 -0.056558568
0.37584838 0.017948771 -0.054896686
-0.39262283 0.024896825 -0.056456201
-0.32951409 0.027953399 -0.054897681
-0.31077987 0.027953397 -0.059885457
-0.28810024 0.027953399 -0.050227799
-0.2768594 0.027953397 -0.054081053
-0.23429768 0.027953399 -0.051222838
0.088338241 0.027953401 -0.05607624
0.10372385 0.027953401 -0.059571713
0.13758004 0.027953399 -0.056683436
0.19347101 0.027953397 -0.050539292
0.20927685 0.027953399 -0.05866389
0.30818224 0.027953397 -0.05829636
0.35875797 0.025932454 -0.0524971
-0.41609275 0.034617901 -0.059900589
0.40881515 0.031603843 -0.054722648
0.44144139 0.045117173 -0.055242967
-0.43325174 0.058808632 -0.053493351
0.42914683 0.057108637 -0.050629657
-0.35818094 0.013247187 -0.043099284
-0.33989874 0.0108698 -0.046063818
-0.31434616 0.0108698 -0.045711674
-0.28580084 0.0108698 -0.047655117
-0.2448276 0.0108698 -0.045303941
-0.23752096 0.0108698 -0.046930455
-0.18226238 0.0108698 -0.047957115
0.01582703 0.0108698 -0.042217124
0.020918071 0.0108698 -0.044931114
0.11081325 0.0108698 -0.041771512
0.16629802 0.0108698 -0.041050244
0.23865193 0.0108698 -0.044212047
0.26038602 0.010869799 -0.047819659
0.30718422 0.010869801 -0.045854095
0.35360783 0.0108698 -0.04485631
0.36019081 0.011463278 -0.049551219
-0.32338864 0.027953399 -0.047846437
-0.29036725 0.027953399 -0.047280047
-0.10723302 0.027953397 -0.044327348
-0.054687306 0.027953399 -0.048478439
-0.047348782 0.027953397 -0.049671702
0.058515009 0.027953397 -0.047489367
0.1426526 0.027953399 -0.049869902
0.16363074 0.027953399 -0.040008239
0.19361322 0.027953401 -0.049875133
0.29444391 0.027953397 -0.040588543
-0.43876845 0.061093628 -0.043430932
-0.46145695 0.070492364 -0.046859231
-0.33730784 0.0108698 -0.0349201
-0.2497661 0.0108698 -0.032170657
-0.23558116 0.010869799 -0.031213921
-0.078927845 0.0108698 -0.03255789
0.094216816 0.010869799 -0.037566002
0.29860383 0.0108698 -0.03885214
0.36379015 0.012954152 -0.038444716
-0.3854306 0.021917742 -0.035432465
-0.22092731 0.027953401 -0.032433033
-0.21112795 0.027953401 -0.03946428
-0.19016176 0.027953399 -0.036684774
-0.090858206 0.027953399 -0.032253593
0.0088241398 0.027953399 -0.032788824
0.072167642 0.027953399 -0.036163881
0.086208358 0.027953397 -0.03759972
0.096934088 0.027953401 -0.034226701
0.16634247 0.027953399 -0.031855814
0.20758712 0.027953399 -0.036364928
0.22832707 0.027953397 -0.030149985
0.25755134 0.027953397 -0.032145251
0.29163575 0.027953401 -0.03104065
0.30071566 0.027953397 -0.036096673
0.36227328 0.029409463 -0.03708595
-0.44195569 0.045330182 -0.033277329
-0.3890911 0.040517598 -0.030083168
-0.45336241 0.050055463 -0.031940181
-0.43438613 0.059278511 -0.030993037
0.41890061 0.052864887 -0.03855595
0.46313691 0.054104522 -0.039057583
-0.35899508 0.010967599 -0.029319439
-0.34194216 0.0108698 -0.020583432
-0.29367566 0.0108698 -0.029817507
-0.1178789 0.0108698 -0.020929873
-0.093180016 0.0108698 -0.026874648
-0.089322105 0.0108698 -0.028066192
0.022842869 0.010869801 -0.026793675
0.055941533 0.0108698 -0.029818453
0.063205242 0.0108698 -0.024756644
0.090004325 0.0108698 -0.029160973
0.26627961 0.010869799 -0.026470268
0.34526396 0.0108698 -0.021421056
0.35686082 0.0108698 -0.02978266
0.37032825 0.015662286 -0.024675865
-0.35875899 0.022661272 -0.023075446
-0.24291137 0.027953399 -0.028449582
-0.080963328 0.027953399 -0.024031904
-0.01259324 0.027953401 -0.022614907
-0.0020997375 0.027953399 -0.020935215
0.027641416 0.027953399 -0.021494616
0.081142575 0.027953399 -0.028397011
0.15998594 0.027953397 -0.022368491
0.18233517 0.027953399 -0.028043535
0.27821457 0.027953399 -0.020720713
0.36873472 0.032085825 -0.027325116
0.40241659 0.046037123 -0.022525635
0.41123164 0.049688376 -0.02568417
-0.35882249 0.010896107 -0.017626055
-0.14702135 0.0108698 -0.016151445
-0.12991092 0.0108698 -0.016371129
-0.098193079 0.0108698 -0.010556404
-0.073164433 0.0108698 -0.010212544
-0.050089657 0.0108698 -0.01902692
-0.0063168854 0.0108698 -0.019779846
0.00039409567 0.0108698 -0.010643773
0.017882921 0.0108698 -0.013798285
0.29270548 0.0108698 -0.011122104
-0.31279212 0.027953401 -0.01776788
-0.29243401 0.027953399 -0.01651926
-0.2284271 0.027953401 -0.018984385
-0.14148657 0.027953401 -0.013993962
-0.066061452 0.027953397 -0.012955753
-0.04911793 0.027953399 -0.017762609
0.0046199341 0.027953399 -0.011532692
0.058058113 0.027953397 -0.015272167
0.14518093 0.027953399 -0.016334677
0.34118098 0.027953397 -0.0146029
-0.39879838 0.044538289 -0.018421393
0.41188216 0.049957842 -0.013703138
0.41510746 0.051293775 -0.013162486
0.42853594 0.056855634 -0.019250538
-0.43895328 0.061170202 -0.016311835
0.45936 0.069623701 -0.012270707
-0.31096268 0.0108698 -0.0039116479
-0.2110177 0.0108698 -0.00076586381
-0.18426612 0.0108698 -0.0073186215
-0.17217459 0.0108698 -0.0049391389
-0.15300277 0.0108698 -0.0033203373
-0.12338307 0.010869801 -0.00018665008
-0.10279445 0.0108698 -0.0093473345
-0.063680463 0.0108698 -0.0098708533
-0.0025120997 0.0108698 -0.0054575838
0.055145532 0.0108698 -0.0079703927
0.27826032 0.0108698 -0.0032119313
0.358758 0.012342779 -0.0054769106
-0.022556573 0.027953399 -0.0063472539
-0.016049266 0.027953399 -0.008179415
0.11007956 0.027953397 -0.00021192245
0.19968948 0.027953397 -0.0046247505
0.23742077 0.027953399 -0.002455797
0.24268836 0.027953397 -0.0063641509
0.2658821 0.027953399 -0.0020089485
0.28711668 0.027953397 -0.0025134608
0.2939052 0.027953397 -0.009161815
0.30100477 0.027953399 -0.0064641833
-0.41179472 0.032837689 -0.0035414193
-0.38172808 0.037467685 -0.0020365641
-0.37727514 0.035623178 -0.0068046339
0.36853272 0.032002162 -0.0048479922
-0.44016743 0.044589482 -0.00099205505
-0.43696442 0.04326281 -0.0098255211
0.40195328 0.045845211 -0.0081330985
-0.42030403 0.053445779 -0.0076225102
-0.41796061 0.052475147 -0.0049475981
0.4358587 0.059888549 -0.0017475132
-0.47549069 0.075533129 -0.0059986711
-0.34318551 0.0108698 0.0057876706
-0.25681257 0.010869799 0.0062636919
0.024960192 0.0108698 0.0029588155
0.12306195 0.0108698 0.0044673271
0.15581262 0.0108698 0.0086133406
0.17072938 0.0108698 0.0016968753
0.3078835 0.0108698 0.0070575592
0.3627125 0.012507797 0.0061067287
-0.33818257 0.027953399 0.0064292215
-0.27498496 0.027953399 0.001974022
-0.26718897 0.027953401 0.0046627373
-0.13798457 0.027953399 0.007447781
-0.10975906 0.027953401 0.008406247
-0.094291151 0.027953397 0.0053337254
-0.042894214 0.027953401 0.0052251779
0.040244088 0.027953399 0.0066539645
0.12018383 0.027953399 0.0049313605
0.23877029 0.027953399 0.00041021034
0.28821406 0.027953399 0.0046202019
0.31392488 0.027953399 0.0041719899
0.34854364 0.027953399 0.0048376136
0.38622901 0.022248499 0.0063339509
0.40177035 0.028685838 0.0022232048
-0.43174973 0.041102927 0.0067210514
0.444906 0.04655233 0.0097898245
-0.43480688 0.05945278 0.0019987635
-0.35971954 0.01126768 0.015647057
-0.34320819 0.0108698 0.017975435
-0.18585682 0.010869799 0.014254292
-0.055791318 0.0108698 0.011426497
-0.024085343 0.010869801 0.016484309
-0.010466591 0.010869801 0.017270938
0.027417734 0.0108698 0.013992783
0.074660443 0.0108698 0.014132099
0.090721488 0.0108698 0.010332815
0.19893497 0.0108698 0.018899508
0.25930786 0.0108698 0.017327823
0.2641806 0.0108698 0.01471671
-0.38513008 0.021793256 0.016224615
-0.33158496 0.027953399 0.014551118
-0.32665145 0.027953399 0.011104682
-0.29774383 0.027953399 0.018916653
-0.17462906 0.027953401 0.01278322
-0.13502796 0.027953401 0.013332508
-0.1167853 0.027953399 0.016131878
-0.10415316 0.027953397 0.01169452
-0.095987231 0.027953401 0.010003828
0.027244613 0.027953399 0.013531495
0.055129267 0.027953397 0.018517384
0.11049049 0.027953399 0.010999344
0.17389111 0.027953399 0.013216659
0.19975138 0.027953401 0.010528024
0.22142753 0.027953397 0.01233656
0.238949 0.027953399 0.018787764
0.24577266 0.027953399 0.014716117
0.269759 0.027953399 0.011844952
0.35091859 0.027953397 0.016807068
0.40429544 0.029731756 0.016544737
-0.40791434 0.031230461 0.016499743
0.36547428 0.030735336 0.01839003
0.41156644 0.032743447 0.011231916
0.43346369 0.041812982 0.017038692
0.44114542 0.044994596 0.018144026
-0.42186356 0.05409174 0.01884849
0.47449303 0.058808066 0.01111887
-0.34648535 0.0108698 0.026203096
-0.30935585 0.0108698 0.023400256
-0.13590258 0.0108698 0.026803836
-0.093550675 0.0108698 0.024480782
-0.041291386 0.0108698 0.029838603
0.054936677 0.0108698 0.027060473
0.17702335 0.010869799 0.029118218
0.28129953 0.0108698 0.022798043
0.29842457 0.0108698 0.024067856
0.31775603 0.0108698 0.025475154
0.32562965 0.0108698 0.028226372
-0.38883534 0.023328058 0.02723445
-0.27361923 0.027953399 0.02030278
-0.19918945 0.027953399 0.026706697
0.0051604956 0.027953399 0.025702745
0.10548466 0.027953401 0.027537081
0.19339988 0.027953397 0.02971347
0.21646833 0.027953401 0.023706721
0.26821697 0.027953401 0.021805689
0.29201704 0.027953397 0.024666373
0.32569593 0.027953401 0.028440451
0.35790575 0.027953399 0.025011495
-0.40503818 0.030039167 0.02392751
0.36677623 0.031274609 0.022597151
0.37761867 0.035765633 0.023190506
0.41614813 0.034641225 0.021027893
-0.45026469 0.048772201 0.024511613
-0.46851864 0.056333117 0.022428794
-0.43424654 0.059220687 0.021848436
-0.47373158 0.069940805 0.027977424
-0.46008632 0.069924608 0.025238074
-0.45246986 0.066769361 0.022732517
-0.47412151 0.073187992 0.02477129
-0.4619948 0.0707151 0.028843751
0.46450031 0.071752906 0.027812457
-0.35875899 0.017104527 0.034559451
-0.26512805 0.010869801 0.037705932
-0.18445849 0.010869801 0.038095564
-0.14952362 0.0108698 0.032977812
-0.013411164 0.010869799 0.030023333
0.068282001 0.0108698 0.037072644
0.097422272 0.010869799 0.031995311
0.10350479 0.0108698 0.034259565
0.22268751 0.0108698 0.036356401
0.245737 0.010869799 0.037727445
0.32442242 0.010869801 0.034786396
0.3583169 0.0108698 0.03088459
-0.39760956 0.026962295 0.035866342
-0.15139793 0.027953399 0.035093781
-0.094239116 0.027953401 0.036358863
-0.025010839 0.027953399 0.037161615
-0.014068916 0.027953399 0.034474038
0.034607958 0.027953397 0.034710567
0.14174305 0.027953401 0.034994006
0.28176531 0.027953397 0.030763183
0.3029632 0.027953397 0.038956989
0.31820178 0.027953399 0.037578762
0.36454451 0.030350219 0.039536186
0.40992773 0.049148284 0.034300808
-0.46384707 0.054398485 0.034753144
-0.4159264 0.051632594 0.032109935
-0.4391278 0.061242457 0.037845716
0.47284159 0.07070601 0.033835329
-0.37965998 0.019527439 0.04121263
-0.33256912 0.0108698 0.040403802
-0.061963193 0.0108698 0.046006884
-0.038208753 0.010869799 0.040474076
0.071523398 0.0108698 0.047451016
0.16287489 0.0108698 0.046713322
0.19459367 0.0108698 0.047715828
0.28461891 0.0108698 0.044155825
0.35245687 0.0108698 0.049045816
-0.25877041 0.027953397 0.045077238
-0.20108698 0.027953397 0.044941828
-0.19371875 0.027953399 0.049041778
0.17548159 0.027953399 0.042898059
-0.36597562 0.030942669 0.046496093
0.40020272 0.04512012 0.045926273
-0.42591473 0.055769693 0.045695473
-0.4687981 0.060638856 0.044405267
0.46188182 0.070668347 0.046455812
-0.31964678 0.010869801 0.054858848
-0.30181438 0.0108698 0.056522228
-0.23442847 0.0108698 0.056029677
-0.142123 0.0108698 0.058129124
-0.087596148 0.0108698 0.05846829
-0.01353918 0.0108698 0.058216427
-0.0026894584 0.0108698 0.056601368
0.012059093 0.0108698 0.059635088
0.16568473 0.0108698 0.05390431
0.17820968 0.010869799 0.056025296
0.32112676 0.0108698 0.053433549
0.34327978 0.0108698 0.052601524
-0.39906114 0.027563527 0.056874506
-0.35231423 0.027953401 0.059059378
-0.31800085 0.027953399 0.056189053
-0.20261902 0.027953399 0.053232037
-0.090289064 0.027953397 0.058666222
-0.07640785 0.027953399 0.053161249
-0.0066436306 0.027953401 0.055751197
0.1460378 0.027953397 0.059085134
0.16276227 0.027953401 0.058492694
0.2732783 0.027953399 0.05532353
0.28565359 0.027953401 0.051786944
-0.42284918 0.037416369 0.053044468
-0.37637794 0.035251547 0.055590615
0.41352496 0.033554692 0.054134838
-0.43626294 0.042972259 0.053904306
-0.40426672 0.046803243 0.058123428
-0.45843536 0.05215697 0.0531356
0.46501064 0.05508865 0.054299466
-0.35721359 0.0108698 0.06906566
-0.28481287 0.0108698 0.067446508
-0.2582275 0.0108698 0.061526082
-0.24331592 0.0108698 0.063333914
-0.1549046 0.010869799 0.062863797
0.16695575 0.0108698 0.068751283
0.17300552 0.0108698 0.066217571
0.21876585 0.010869799 0.066218928
0.23896745 0.0108698 0.06143051
0.28807497 0.0108698 0.067117922
0.29718912 0.0108698 0.067657322
-0.40430638 0.029736063 0.06464085
-0.31177363 0.027953401 0.062273692
-0.26820242 0.027953399 0.060349621
-0.23254077 0.027953397 0.065841973
-0.16785535 0.027953399 0.061209671
-0.042952873 0.027953399 0.068302132
0.17775975 0.027953399 0.064775467
0.18499883 0.027953399 0.060482487
0.20151381 0.027953397 0.060616985
0.22169052 0.027953399 0.065888248
-0.40958735 0.031923417 0.062046684
0.38237852 0.037737202 0.063435644
-0.45425048 0.050423354 0.066181108
-0.46188974 0.063770913 0.062455371
-0.45538944 0.067978851 0.062892698
-0.35476261 0.0108698 0.074557588
-0.30972022 0.0108698 0.072895415
-0.25634024 0.0108698 0.071471296
-0.23586148 0.0108698 0.072830461
-0.20818833 0.0108698 0.077193506
-0.15496609 0.010869801 0.077478096
-0.071584731 0.0108698 0.077269442
0.07280644 0.0108698 0.0714885
0.12980759 0.0108698 0.079028875
0.13840391 0.0108698 0.072961055
0.15588896 0.0108698 0.079226859
0.30400997 0.0108698 0.07409545
0.31285647 0.010869799 0.077566542
0.36334729 0.012770731 0.077267922
-0.35875899 0.021338625 0.070387982
-0.22846721 0.027953399 0.078871712
-0.21616071 0.027953401 0.077989645
-0.18813893 0.027953401 0.078182913
-0.15993431 0.027953401 0.078226358
-0.14551342 0.027953401 0.075736724
-0.053447731 0.027953401 0.07871221
-0.028048813 0.027953401 0.073671758
-0.014050953 0.027953397 0.075170085
0.0028015152 0.027953401 0.079754844
0.30815434 0.027953397 0.075682841
-0.41159213 0.032753762 0.070348352
0.4177509 0.035305109 0.076313794
-0.44913602 0.048304655 0.076338924
0.43644243 0.043046713 0.070451908
0.43587896 0.059896946 0.079681635
-0.28905165 -0.072749481 0.080941699
-0.26196566 -0.071848832 0.081778191
-0.30246612 -0.068106711 0.088676453
-0.25556922 -0.066915818 0.08228346
0.28059274 -0.069960423 0.087834008
-0.26721177 -0.059115998 0.080941699
0.25382218 -0.052797504 0.080941699
0.22651207 -0.045550559 0.083189994
0.23491459 -0.048516214 0.080941699
0.24255557 -0.043236837 0.080941692
0.28283957 -0.049878351 0.080941699
-0.30146554 -0.035194062 0.080941699
-0.25711727 -0.031977691 0.080941699
0.22971167 -0.028190974 0.082506761
0.28193122 -0.026292516 0.080941699
-0.26858276 -0.010788063 0.086734608
-0.3178845 0.0108698 0.081010342
-0.27822679 0.0108698 0.083717264
-0.248629 0.0108698 0.08209645
-0.21039572 0.010869799 0.089820549
-0.20831314 0.0108698 0.083056055
-0.12415938 0.0108698 0.082356364
-0.11593224 0.0108698 0.084117681
-0.10759927 0.0108698 0.083940528
-0.049763724 0.0108698 0.085852258
-0.016924277 0.0108698 0.083846867
0.01137916 0.0108698 0.083625108
0.033560388 0.0108698 0.080130398
0.12337872 0.0108698 0.081194796
0.17082113 0.0108698 0.087903008
0.22380324 0.0108698 0.089198858
0.23732537 0.010869801 0.086912587
0.28350139 0.0108698 0.085107163
0.36563307 0.013717511 0.081202038
-0.38478577 0.02165064 0.085881613
-0.18404146 0.027953397 0.080526367
-0.12433299 0.027953399 0.083394252
-0.10160151 0.027953397 0.087897539
-0.096108168 0.027953397 0.08382152
-0.0814953 0.027953401 0.080354825
0.0084563047 0.027953399 0.087115929
0.019470781 0.027953397 0.082946628
0.02174525 0.027953397 0.083624162
0.15151358 0.027953399 0.080874845
0.18485385 0.027953399 0.085027508
0.21123083 0.027953399 0.080139838
0.22762644 0.027953401 0.086457908
0.2673142 0.027953399 0.086721584
0.27006423 0.027953399 0.08916913
0.358758 0.024860356 0.086903036
0.36964196 0.032461621 0.08382006
0.42637962 0.038878918 0.080160841
-0.39061388 0.041148338 0.084901467
0.40883994 0.048697714 0.081641525
-0.44984102 0.05240716 0.08019226
0.4135913 0.05066577 0.086624153
0.42544952 0.055577293 0.087648779
0.4360269 0.05995822 0.083121747
0.44936013 0.063939326 0.080870599
-0.3065294 -0.063599356 0.091161236
-0.25429121 -0.065249868 0.099850565
0.28528461 -0.065929249 0.094441928
-0.25003293 -0.059526823 0.090609021
-0.31389382 -0.043205731 0.095746115
-0.24818242 -0.030574899 0.09251973
0.2918438 -0.030404013 0.096573606
0.29023319 -0.026516423 0.090838335
-0.26332471 -0.012966586 0.095463678
0.27752754 -0.013323458 0.097002447
-0.27203703 -0.0096687544 0.096495762
0.26111677 -0.0087552518 0.092455804
-0.38051116 0.019880008 0.098015621
-0.34512725 0.0108698 0.094254777
-0.29197878 0.0108698 0.097591043
-0.23913935 0.010869801 0.092084676
-0.21863033 0.0108698 0.098620102
-0.11547839 0.0108698 0.099618852
-0.093187138 0.010869799 0.090102918
-0.070111319 0.0108698 0.096265219
-0.016851246 0.0108698 0.095188059
0.053280868 0.0108698 0.099553972
0.095746562 0.0108698 0.093768515
0.12190022 0.0108698 0.094135508
0.16232079 0.0108698 0.095409453
0.2863481 0.010869799 0.099419996
-0.40053907 0.028175671 0.09912286
-0.39277047 0.024957985 0.095474891
-0.38528252 0.021856409 0.090999
-0.35840371 0.025377592 0.095103323
-0.33130041 0.027953399 0.093944892
-0.31958926 0.027953399 0.093482539
-0.27324712 0.027953399 0.09886647
-0.17256314 0.027953399 0.096799016
-0.11694128 0.027953401 0.098366819
-0.091985367 0.027953401 0.09711948
-0.054752506 0.027953399 0.090117589
-0.034931794 0.027953397 0.097476929
-0.012017861 0.027953399 0.098454945
-0.0046707988 0.027953399 0.099300712
0.051597141 0.027953397 0.092106149
0.077219501 0.027953397 0.091336384
0.10919855 0.027953401 0.098243572
0.18634591 0.027953401 0.092292756
0.27267238 0.027953399 0.099396959
0.3357524 0.027953399 0.097769909
-0.42136022 0.036799643 0.097015522
-0.40754074 0.048159324 0.0946531
-0.434044 0.055680759 0.097592317
0.42826656 0.056744054 0.093982488
0.26500994 -0.076368123 0.1057279
-0.31354532 -0.045851212 0.10016973
0.22623603 -0.043455407 0.10400909
0.29360229 -0.036095981 0.10106003
0.23147726 -0.02475889 0.10157725
0.25097868 -0.010019924 0.10501485
0.25879148 -0.0088512879 0.10601319
-0.32522017 0.0108698 0.10721582
-0.31172678 0.0108698 0.10300776
-0.19922079 0.0108698 0.10852968
-0.16330938 0.010869799 0.10106
-0.015340194 0.010869801 0.10299318
0.072417066 0.0108698 0.10605001
0.22271246 0.010869799 0.10925483
0.25784445 0.0108698 0.10351102
0.28226796 0.0108698 0.10536554
0.37883645 0.019186461 0.10617913
-0.30114436 0.027953399 0.10521883
-0.23220301 0.027953401 0.10873298
-0.11474112 0.027953399 0.1095597
-0.1067601 0.027953399 0.10713285
-0.0042669177 0.027953399 0.10376292
0.04138492 0.027953399 0.10314991
0.34314337 0.027953399 0.1011744
0.38291019 0.020873822 0.10404044
-0.40132955 0.045586683 0.10688679
0.39108136 0.041341972 0.10402796
0.24697766 -0.073958114 0.11622509
-0.25567091 -0.067019448 0.119647
0.28393772 -0.06739413 0.11928187
-0.25009361 -0.059673324 0.11396402
0.29246736 -0.053725962 0.11282299
-0.24636069 -0.037114441 0.11559726
-0.28003308 -0.02905043 0.115109
0.28225935 -0.016953435 0.11749506
-0.36718267 0.014359068 0.11805357
-0.3147195 0.010869799 0.11197387
-0.24720892 0.0108698 0.11547519
-0.13220149 0.0108698 0.11087763
-0.10871375 0.010869801 0.11004061
-0.051377594 0.0108698 0.11099733
0.069980398 0.0108698 0.11219011
0.08981701 0.0108698 0.11277464
0.13203038 0.0108698 0.11441366
0.20675427 0.0108698 0.11723693
0.2156032 0.0108698 0.1180055
0.26284385 0.0108698 0.11483558
0.32330003 0.0108698 0.11881511
-0.38294911 0.020889852 0.11681564
-0.27418002 0.027953399 0.1133677
-0.2353991 0.027953401 0.11550428
-0.19357148 0.027953399 0.11397515
-0.18117934 0.027953399 0.1190476
-0.1366484 0.027953401 0.11547159
0.019445434 0.027953399 0.11549491
0.084143721 0.027953397 0.11415878
0.10355565 0.027953397 0.11688881
0.20205161 0.027953399 0.11628498
0.33118314 0.027953399 0.11732791
-0.36993444 0.032582507 0.11146028
0.37932301 0.036471575 0.117072
0.40300947 0.035727706 0.11765787
-0.4128316 0.043334648 0.11325479
0.41651738 0.041623496 0.11160204
-0.27881062 -0.072817698 0.123651
0.26621941 -0.071271025 0.123651
-0.31082088 -0.056390807 0.12247936
-0.29075593 -0.055558346 0.12244152
0.29251063 -0.051630847 0.123651
-0.24627018 -0.047832981 0.12348175
0.28767002 -0.044344075 0.123651
-0.29874131 -0.032683954 0.123651
-0.25638554 -0.03958315 0.123651
0.23283973 -0.022983482 0.12096834
0.27735156 -0.018161988 0.123651
-0.28614885 -0.0094887316 0.12143835
0.25939083 -0.0087724235 0.1207257
-0.3538866 0.018512774 0.12812799
-0.33778474 0.0108698 0.1263943
-0.27121237 0.0108698 0.12749456
-0.25723723 0.0108698 0.12480076
-0.22904049 0.010869801 0.1271553
-0.18993856 0.018692903 0.12812801
-0.16164121 0.010869801 0.12525982
-0.14369082 0.0108698 0.12224677
-0.12739657 0.012934229 0.1252846
-0.052333236 0.015692364 0.12812801
-0.025974337 0.011094151 0.12812801
-0.0091490299 0.0108698 0.12163945
0.049857549 0.019900676 0.12812801
0.069879785 0.010869801 0.12534398
0.17620972 0.0108698 0.12260047
0.20593587 0.019880198 0.12812801
0.22546193 0.0108698 0.12311678
0.27769268 0.018845409 0.12812801
0.33337498 0.014560774 0.12412642
0.3575716 0.014698225 0.12812801
-0.37780732 0.021405 0.12541285
-0.36902949 0.022674406 0.12666404
-0.30156082 0.021462863 0.12812801
-0.29888123 0.02093783 0.12812801
-0.28861058 0.027953399 0.12746486
-0.27496016 0.027953399 0.12024714
-0.2010566 0.027953399 0.12109401
-0.13000736 0.027953401 0.1228808
-0.097100087 0.027953399 0.12316345
-0.088576756 0.027796796 0.12812801
-0.033942975 0.023395319 0.12812801
-0.018379126 0.024431184 0.12812801
0.024791032 0.021645445 0.12812801
0.091950729 0.024988817 0.12812801
0.10724617 0.023891136 0.12812801
0.11646985 0.027237713 0.12812801
0.18831359 0.027287379 0.12812801
0.21683219 0.025794229 0.12812801
0.28753641 0.027617505 0.12812801
0.29437411 0.022534786 0.12812801
0.30564243 0.022083299 0.12812801
-0.38136449 0.034750286 0.1249058
-0.37337041 0.033438399 0.12388685
0.39372295 0.034326162 0.12182117
