# .PCD v0.7 - Point Cloud Data file format
VERSION 0.7
FIELDS x y z
SIZE 4 4 4
TYPE F F F
COUNT 1 1 1
WIDTH 94
HEIGHT 1
VIEWPOINT 0 0 0 1 0 0 0
POINTS 94
DATA ascii
-0.39354298 -0.023976622 -0.10208599
-0.38547456 -0.024949964 -0.10230199
0.37913668 -0.021638015 -0.10036598
0.38472137 -0.024046116 -0.10242594
0.39528513 -0.023365853 -0.10229211
-0.39337656 -0.015428307 -0.10238253
-0.38447389 -0.013370967 -0.10216189
-0.37930205 -0.016115306 -0.10295683
0.37904719 -0.017393157 -0.10229729
0.38334775 -0.013817341 -0.10227034
0.3944152 -0.015458688 -0.10243622
-0.39178973 -0.0095865503 -0.10222177
-0.38651687 -0.0089887129 -0.1024646
0.38730022 -0.0087788571 -0.10240607
0.39063928 -0.0091752186 -0.10297775
-0.39352235 -0.023456357 -0.098154873
-0.38372925 -0.024474507 -0.097877659
-0.37823164 -0.022216674 -0.098167017
0.37976259 -0.022026621 -0.097344801
0.38561833 -0.025261622 -0.098180056
0.39409786 -0.023784027 -0.098083332
-0.39370412 -0.015980961 -0.097964659
-0.38569272 -0.01497399 -0.097947598
-0.37844762 -0.016732015 -0.097858623
0.37913135 -0.016297346 -0.098160543
0.38526934 -0.013650787 -0.097617477
0.3941519 -0.016320553 -0.097960606
-0.39242941 -0.0097814715 -0.098182
-0.38714343 -0.0084476769 -0.098710589
0.38715124 -0.0089333495 -0.097871609
0.39118829 -0.0086248433 -0.098496601
-0.39343092 -0.023209402 -0.083257608
-0.38580793 -0.024922296 -0.083885685
-0.37855828 -0.021764325 -0.083834
0.37884301 -0.020930877 -0.083688378
0.38585207 -0.024927758 -0.083792999
0.39318466 -0.023298189 -0.083414152
-0.39347848 -0.015197617 -0.083815813
-0.38408047 -0.015249477 -0.083627008
-0.37849358 -0.01546262 -0.084126212
0.37889901 -0.01592542 -0.084364451
0.38498825 -0.014169097 -0.083009854
0.39446807 -0.015718406 -0.083474725
-0.3915489 -0.0093384907 -0.081624344
-0.38684306 -0.008842011 -0.08424715
0.3861036 -0.0088798376 -0.083349057
0.39162356 -0.0093712285 -0.08291243
-0.39384678 -0.022887722 0.083395593
-0.38565928 -0.024730537 0.083944008
-0.37769055 -0.020766979 0.083699495
0.37948203 -0.022540009 0.084155433
0.38484704 -0.024198599 0.084022254
0.39457303 -0.023976656 0.082996227
-0.39334452 -0.015224756 0.08350911
-0.3855648 -0.014208618 0.084255688
-0.37885013 -0.014967138 0.084828839
0.37852407 -0.016695116 0.084058695
0.38388538 -0.014467631 0.083046824
0.3939448 -0.015109503 0.083305515
-0.39104384 -0.0097457217 0.086558998
-0.3858231 -0.0089690881 0.081953697
0.38665918 -0.0090016387 0.083599471
0.39176863 -0.0093364837 0.083057202
-0.39246765 -0.023488764 0.097959198
-0.38525864 -0.023635399 0.098323144
-0.37927878 -0.021825649 0.097433798
0.3793093 -0.022125745 0.099087805
0.38589311 -0.025270209 0.098274767
0.39370719 -0.023455571 0.098310068
-0.39392909 -0.015488709 0.09813188
-0.38449636 -0.015435642 0.097900167
-0.37745154 -0.017750099 0.0985021
0.37858558 -0.018159874 0.098208278
0.38473362 -0.013716207 0.097605817
0.39490515 -0.014140789 0.097814836
-0.38686949 -0.0088031776 0.097707696
0.3879272 -0.008647617 0.097529829
0.39207667 -0.0089112427 0.097768947
-0.39325279 -0.023907559 0.10249307
-0.38473755 -0.024335552 0.10230844
-0.37821332 -0.021960275 0.10110911
0.37972221 -0.022120139 0.102786
0.3842833 -0.023005327 0.10294855
0.39331266 -0.023359992 0.10244479
-0.39463249 -0.016198982 0.10228941
-0.38422233 -0.014658658 0.10229118
-0.37858605 -0.015639119 0.10244039
0.37935507 -0.016204862 0.10277829
0.38610637 -0.014574364 0.10237756
0.3937307 -0.01348439 0.10254542
-0.39098945 -0.0090876156 0.10112173
-0.38618743 -0.0089040557 0.10223123
0.38770497 -0.0088179782 0.10215304
0.39186302 -0.0089273835 0.10166027
