# .PCD v0.7 - Point Cloud Data file format
VERSION 0.7
FIELDS x y z
SIZE 4 4 4
TYPE F F F
COUNT 1 1 1
WIDTH 897
HEIGHT 1
VIEWPOINT 0 0 0 1 0 0 0
POINTS 897
DATA ascii
0.070142031 -0.034540601 -0.11022487
0.1019971 -0.034540601 -0.11059151
0.20430404 -0.032450575 -0.11266855
0.3108331 -0.030554773 -0.1143422
0.34398562 -0.034540601 -0.11410445
0.36310238 -0.032988049 -0.11290987
0.078906573 -0.0295776 -0.11053389
0.23012629 -0.029893294 -0.11307424
0.36854538 -0.0295776 -0.11020144
-0.31710929 -0.034540601 -0.100992
-0.28532654 -0.031666026 -0.10497611
-0.15226495 -0.034540601 -0.1002294
-0.14607258 -0.034540601 -0.10132611
-0.097726144 -0.034540601 -0.10548994
-0.060933575 -0.030296102 -0.10850148
-0.054778829 -0.034540601 -0.1004757
0.0032852888 -0.034540601 -0.10581078
0.011338443 -0.034540601 -0.10223632
0.023143888 -0.034540601 -0.10284968
0.063837394 -0.034540601 -0.10355027
0.16931123 -0.034540601 -0.10006383
0.23496111 -0.034540601 -0.10316841
0.25183409 -0.034540601 -0.1096533
0.29495049 -0.034540601 -0.10451995
0.31795937 -0.034540601 -0.10025829
0.37477297 -0.034540601 -0.10898514
-0.28244156 -0.029577598 -0.10332675
-0.24688306 -0.029577598 -0.10123564
-0.22954653 -0.0295776 -0.1018972
-0.18741739 -0.0295776 -0.10542904
-0.17172326 -0.0295776 -0.10093029
-0.046722829 -0.029577598 -0.10552602
0.0087367147 -0.029577602 -0.10310023
0.012107104 -0.0295776 -0.10939339
0.026073288 -0.0295776 -0.10091674
0.036365855 -0.0295776 -0.1094997
0.05640056 -0.0295776 -0.10623538
0.15646432 -0.0295776 -0.10721394
0.17463195 -0.0295776 -0.10571411
0.29911312 -0.0295776 -0.10056394
0.31518322 -0.0295776 -0.10532197
0.34408334 -0.0295776 -0.10325028
0.35436797 -0.029577602 -0.10525798
0.37003842 -0.0295776 -0.10808621
-0.35507649 -0.034540601 -0.091343626
-0.32107219 -0.034540601 -0.092287786
-0.22288257 -0.034540601 -0.093132831
-0.2158919 -0.034540601 -0.095689848
-0.15548681 -0.034540601 -0.090248674
-0.10114643 -0.034540601 -0.094797343
-0.051770613 -0.034540601 -0.097854868
0.0056957603 -0.034540601 -0.090954885
0.013853312 -0.034540601 -0.093694024
0.087194279 -0.034540601 -0.090742029
0.090064302 -0.034540601 -0.097520046
0.10399842 -0.034540601 -0.098452777
0.12833348 -0.034540601 -0.090288959
0.14466527 -0.034540601 -0.094122179
0.1591484 -0.034540601 -0.093745083
0.19801271 -0.034540601 -0.090712808
0.23924328 -0.034540601 -0.095875651
0.28110656 -0.034540601 -0.099403508
0.30760279 -0.034540601 -0.095797643
0.3647984 -0.034540601 -0.096719503
0.37299997 -0.034540601 -0.093533345
-0.23746431 -0.029577598 -0.091352664
-0.1344516 -0.029577602 -0.098682947
-0.094263755 -0.0295776 -0.09279044
-0.071466982 -0.029577602 -0.093089648
-0.023701251 -0.029577602 -0.091797799
0.20318022 -0.0295776 -0.097250991
0.25095302 -0.0295776 -0.091346443
0.27252167 -0.0295776 -0.096575007
0.32712159 -0.0295776 -0.091915846
0.34257853 -0.0295776 -0.092157274
0.37275356 -0.0295776 -0.09490855
0.21449609 0.016382545 -0.091107488
-0.27678603 -0.034540601 -0.08120051
-0.22614327 -0.034540601 -0.083771773
-0.1824815 -0.034540601 -0.085189424
-0.10992628 -0.034540601 -0.085975751
0.034648374 -0.034540601 -0.089915052
0.065108925 -0.034540601 -0.088358387
0.13351083 -0.034540601 -0.086594589
0.17566532 -0.034540601 -0.088045441
0.24037351 -0.034540601 -0.089533731
0.34965277 -0.034540601 -0.083053917
0.3732709 -0.034540601 -0.088683851
-0.41265422 -0.029577602 -0.087396123
-0.24808307 -0.0295776 -0.08794497
-0.23127244 -0.0295776 -0.083303832
-0.11496192 -0.0295776 -0.085223131
-0.079866998 -0.0295776 -0.088125601
-0.068216756 -0.0295776 -0.081991136
0.033622336 -0.029577598 -0.080863982
0.091480076 -0.0295776 -0.084615178
0.22434166 -0.0295776 -0.086305656
0.25563836 -0.0295776 -0.080690101
0.27867079 -0.0295776 -0.086735256
0.31992102 -0.0295776 -0.088937744
0.33089986 -0.029577598 -0.081113711
0.35092074 -0.029577602 -0.085602835
0.40568891 -0.0295776 -0.087668493
0.21449029 0.0099287005 -0.08709231
0.21559176 0.015659431 -0.087251529
-0.29390639 0.025820442 -0.085834146
-0.25551441 -0.034540601 -0.078779563
-0.23831613 -0.034540601 -0.073268719
-0.22824502 -0.034540601 -0.074957415
-0.21855819 -0.034540601 -0.072397858
-0.15322043 -0.034540601 -0.075639434
-0.11678633 -0.034540601 -0.079675324
-0.10705676 -0.034540601 -0.077001825
0.043243125 -0.034540601 -0.071671098
0.086055398 -0.034540601 -0.074944206
0.11143789 -0.034540601 -0.079238191
0.14917362 -0.034540601 -0.072822861
0.19572686 -0.034540601 -0.074527845
0.24867353 -0.034540601 -0.073353127
0.34991956 -0.034540601 -0.072782882
-0.33228523 -0.029577598 -0.074324012
-0.10373693 -0.0295776 -0.074589998
0.0044083819 -0.029577602 -0.077557109
0.080010734 -0.029577598 -0.0716106
0.13853136 -0.029577598 -0.074547186
0.14029071 -0.0295776 -0.073354982
0.20877652 -0.0295776 -0.071689047
0.23471728 -0.0295776 -0.074409559
-0.30206031 0.0031548475 -0.07412602
-0.44867837 -0.031833544 -0.060645416
-0.3876642 -0.034540601 -0.069766566
-0.37335849 -0.034540601 -0.064208113
-0.26409927 -0.034540601 -0.065520503
-0.22617221 -0.034540601 -0.067863539
-0.20593816 -0.034540601 -0.068672828
-0.14554597 -0.034540601 -0.060312025
-0.062275484 -0.034540601 -0.069315568
-0.035191566 -0.034540601 -0.066064574
-0.0026478246 -0.034540601 -0.064043105
0.036816813 -0.034540601 -0.062628828
0.06121812 -0.034540601 -0.066576995
0.11169134 -0.034540601 -0.06761314
0.12642312 -0.034540601 -0.062266
0.13802047 -0.034540601 -0.069056369
0.20254306 -0.034540601 -0.061098021
0.24447346 -0.034540601 -0.062966533
0.3444829 -0.034540601 -0.068682924
0.42963991 -0.034540601 -0.067672148
-0.39490458 -0.0295776 -0.062056772
-0.3282415 -0.0295776 -0.067170762
-0.11102698 -0.0295776 -0.068925261
-0.041084494 -0.029577598 -0.067669503
-0.032075394 -0.0295776 -0.068893388
-0.029323906 -0.0295776 -0.061260153
0.027295023 -0.029577598 -0.068747506
0.069232836 -0.0295776 -0.061481893
0.081184551 -0.029577598 -0.067968562
0.12491725 -0.029577602 -0.065521404
0.15542713 -0.029577598 -0.068892628
0.16044083 -0.0295776 -0.06430909
0.17565311 -0.0295776 -0.069399364
0.20852371 -0.0295776 -0.060358394
0.24241717 -0.029577598 -0.06558913
0.29394305 -0.029577602 -0.068769865
0.33886307 -0.0295776 -0.069701441
0.34317839 -0.0295776 -0.066065982
0.3641513 -0.0295776 -0.066008173
0.4184624 -0.0295776 -0.063260466
-0.4542191 -0.030776635 -0.053850975
-0.28415316 -0.034540601 -0.052271359
-0.25966668 -0.034540601 -0.053712323
-0.22138859 -0.034540601 -0.057790689
-0.18406042 -0.034540601 -0.055754609
-0.17738795 -0.034540601 -0.050433286
-0.15993363 -0.034540601 -0.057205655
-0.045020819 -0.034540601 -0.058247708
-0.024710461 -0.034540601 -0.052440677
0.0057752579 -0.034540601 -0.05109363
0.085801661 -0.034540601 -0.051801398
0.1047999 -0.034540601 -0.056669418
0.16404954 -0.034540601 -0.052520536
0.19392005 -0.034540601 -0.057656251
0.20959452 -0.034540601 -0.055981487
0.26922008 -0.034540601 -0.054867081
0.28937405 -0.034540601 -0.05208078
0.29795894 -0.034540601 -0.057795458
0.35592201 -0.034540601 -0.057038724
0.38258994 -0.034540601 -0.05246114
0.4146322 -0.034540601 -0.055361651
-0.4495396 -0.029577602 -0.056561001
-0.3826637 -0.0295776 -0.059097867
-0.37424567 -0.0295776 -0.052705087
-0.36536404 -0.0295776 -0.054545961
-0.33634669 -0.0295776 -0.053522393
-0.27851915 -0.029577602 -0.055227742
-0.25949973 -0.029577598 -0.051727977
-0.22079657 -0.0295776 -0.05658317
-0.19507858 -0.0295776 -0.058381118
-0.16189516 -0.029577598 -0.05800264
-0.11465295 -0.029577598 -0.050055802
-0.092062682 -0.029577598 -0.052435759
-0.053146474 -0.029577598 -0.059949327
-0.045413256 -0.0295776 -0.056943815
0.025115222 -0.029577598 -0.05368581
0.043308243 -0.029577598 -0.057462562
0.075736374 -0.0295776 -0.051853366
0.12259947 -0.0295776 -0.054456234
0.18881348 -0.0295776 -0.055612836
0.24439877 -0.0295776 -0.057251073
0.25923648 -0.029577602 -0.052264526
0.4396323 -0.0295776 -0.059066527
-0.42951578 -0.034540601 -0.044986606
-0.41143036 -0.034540601 -0.044784442
-0.36248758 -0.034540601 -0.04792681
-0.33293235 -0.034540601 -0.041504093
-0.23709863 -0.034540601 -0.045003802
-0.11985365 -0.034540601 -0.046942346
-0.077958196 -0.034540601 -0.048214536
-0.064467713 -0.034540601 -0.046750106
-0.041396812 -0.034540601 -0.045814794
-0.033588707 -0.034540601 -0.043079227
-0.022271931 -0.034540601 -0.047848616
0.048659064 -0.034540601 -0.045194447
0.079820946 -0.034540601 -0.044612147
0.22414634 -0.034540601 -0.041800279
0.23992139 -0.034540601 -0.040664658
0.27391985 -0.034540601 -0.04117699
0.28318074 -0.034540601 -0.043076165
0.30634642 -0.034540601 -0.040104169
0.32797021 -0.034540601 -0.046401706
0.33697048 -0.034540601 -0.046309005
0.40172639 -0.034540601 -0.043625325
0.42210227 -0.034540601 -0.042575758
0.46659428 -0.034327213 -0.045463789
-0.45268652 -0.029577598 -0.042026479
-0.44135362 -0.0295776 -0.04315529
-0.26148158 -0.029577602 -0.043348383
-0.23723945 -0.029577602 -0.041838519
-0.10850731 -0.029577598 -0.048834167
-0.043725826 -0.029577602 -0.045530658
0.097617894 -0.029577598 -0.047621571
0.35988194 -0.0295776 -0.045014009
0.37755638 -0.029577598 -0.046011142
0.43180567 -0.0295776 -0.047712777
0.45437992 -0.0295776 -0.049208563
0.46423262 -0.029577602 -0.041469745
-0.43175927 -0.034540601 -0.032845456
-0.42612308 -0.034540601 -0.03215678
-0.39500347 -0.034540601 -0.034703542
-0.35416597 -0.034540601 -0.031223333
-0.28982124 -0.034540601 -0.038103011
-0.25861907 -0.034540601 -0.034241371
-0.16346942 -0.034540601 -0.031133471
-0.093965024 -0.034540601 -0.037555397
-0.089935109 -0.034540601 -0.033890732
0.013261963 -0.034540601 -0.03105288
0.039890651 -0.034540601 -0.036418729
0.086469524 -0.034540601 -0.032116357
0.10050562 -0.034540601 -0.036970269
0.12105577 -0.034540601 -0.03167776
0.21092375 -0.034540601 -0.039452501
0.32475704 -0.034540601 -0.039833106
0.34292758 -0.034540601 -0.032880567
0.38213736 -0.034540601 -0.030666251
0.39317015 -0.034540601 -0.034382198
0.47175837 -0.034540601 -0.030595386
-0.3873589 -0.0295776 -0.035287715
-0.33602223 -0.029577598 -0.03446503
-0.32235327 -0.029577598 -0.036620732
-0.29160175 -0.0295776 -0.030512331
-0.24764603 -0.0295776 -0.034799393
-0.22751091 -0.029577598 -0.039610766
-0.21282756 -0.0295776 -0.037161659
-0.19600937 -0.029577602 -0.035992172
-0.16946334 -0.029577602 -0.030291442
-0.15449083 -0.029577598 -0.039331179
-0.10478164 -0.029577602 -0.032778502
-0.025869478 -0.029577598 -0.030757818
0.036876358 -0.0295776 -0.036050085
0.040383343 -0.029577602 -0.03103739
0.1740016 -0.029577602 -0.03698061
0.25147834 -0.0295776 -0.037316903
0.30351087 -0.0295776 -0.038027283
0.31088293 -0.029577598 -0.031281486
0.35017943 -0.0295776 -0.038193393
0.44748077 -0.029577598 -0.036377061
0.45874304 -0.029577602 -0.033115134
-0.43123478 -0.034540601 -0.024037678
-0.35364023 -0.034540601 -0.026028872
-0.34382206 -0.034540601 -0.020615954
-0.33302578 -0.034540601 -0.021496635
-0.20152897 -0.034540601 -0.022794353
-0.17256719 -0.034540601 -0.029732166
-0.10182259 -0.034540601 -0.022068789
-0.096799761 -0.034540601 -0.025332877
-0.019341055 -0.034540601 -0.028382903
0.0097131133 -0.034540601 -0.026880506
0.060276419 -0.034540601 -0.021242004
0.081813544 -0.034540601 -0.029638693
0.1550547 -0.034540601 -0.023441838
0.20815453 -0.034540601 -0.026000611
0.22608505 -0.034540601 -0.020880321
0.27395147 -0.034540601 -0.021685794
0.30980811 -0.034540601 -0.025456909
0.31107256 -0.034540601 -0.020319145
0.41685575 -0.034540601 -0.027699586
0.46099275 -0.034540601 -0.026299411
-0.4648217 -0.0295776 -0.02347246
-0.45480677 -0.0295776 -0.024905339
-0.41694647 -0.0295776 -0.025669767
-0.28086942 -0.029577598 -0.020078335
-0.22439724 -0.0295776 -0.02363164
-0.14518711 -0.029577602 -0.022337276
-0.0816449 -0.0295776 -0.025836438
-0.021106027 -0.0295776 -0.024901196
-0.013724428 -0.0295776 -0.024936754
0.095110133 -0.029577598 -0.026303075
0.1249385 -0.0295776 -0.026154611
0.19867432 -0.0295776 -0.023650803
0.20396161 -0.0295776 -0.024789697
0.22606511 -0.0295776 -0.020997474
0.27801177 -0.029577598 -0.026760545
0.29502532 -0.029577598 -0.02596234
0.31107387 -0.029577602 -0.029627372
0.3358587 -0.029577602 -0.021055445
0.34260005 -0.029577598 -0.028065607
0.35322419 -0.029577598 -0.027696075
0.36693478 -0.029577598 -0.024782013
0.37126401 -0.0295776 -0.020622911
0.23372275 0.062366944 -0.023180179
0.24154291 0.064308733 -0.023488961
-0.41791528 -0.034540601 -0.019626658
-0.40853426 -0.034540601 -0.014316961
-0.35694599 -0.034540601 -0.01182463
-0.34144187 -0.034540601 -0.011394583
-0.33802247 -0.034540601 -0.01527369
-0.26100346 -0.034540601 -0.010387074
-0.25855923 -0.034540601 -0.013585198
-0.18690485 -0.034540601 -0.016312324
-0.12717274 -0.034540601 -0.019615583
-0.027218943 -0.034540601 -0.017315987
0.060548373 -0.034540601 -0.010207139
0.0798935 -0.034540601 -0.016964756
0.1130133 -0.034540601 -0.012299445
0.20631285 -0.034540601 -0.018527795
0.21613011 -0.034540601 -0.010780429
0.26775146 -0.034540601 -0.019847777
0.30342731 -0.034540601 -0.015517427
0.36505893 -0.034540601 -0.017141972
-0.46971241 -0.0295776 -0.010933516
-0.3868438 -0.0295776 -0.019198313
-0.35994348 -0.029577598 -0.011239663
-0.29306084 -0.0295776 -0.016253114
-0.27713445 -0.029577598 -0.015608797
-0.25554731 -0.029577598 -0.01315219
-0.22875199 -0.029577598 -0.013751365
-0.10798879 -0.0295776 -0.014770729
0.0032485537 -0.0295776 -0.018671941
0.046235166 -0.029577598 -0.014961341
0.17407608 -0.0295776 -0.016365707
0.23280838 -0.029577602 -0.017676992
0.2437419 -0.0295776 -0.010735774
0.25636089 -0.0295776 -0.015630811
0.32842237 -0.0295776 -0.011665458
0.33368865 -0.0295776 -0.010948692
0.39301378 -0.029577602 -0.019260727
-0.27207014 0.056862172 -0.010494815
-0.19981301 0.055096775 -0.010488362
-0.26055384 0.064965971 -0.014383983
-0.22323188 0.068503469 -0.016820971
0.27627975 0.067939289 -0.018807311
-0.25512779 0.071459502 -0.011737036
-0.24711704 0.076359689 -0.010005362
-0.22331885 0.07315094 -0.012634366
0.23451538 0.075974196 -0.014044231
0.24659802 0.076737672 -0.015882127
-0.45379865 -0.034540601 -0.0020795092
-0.36081767 -0.034540601 -0.0090490542
-0.34226871 -0.034540601 -0.00085110636
-0.33521438 -0.034540601 -0.0066535538
-0.3220486 -0.034540601 -0.0062292032
-0.27024752 -0.034540601 -0.0056964951
-0.19473612 -0.034540601 -0.0038983896
-0.1773591 -0.034540601 -0.0030056685
-0.15673508 -0.034540601 -0.0050223954
-0.12152325 -0.034540601 -0.0011700466
-0.1188346 -0.034540601 -0.002458374
-0.093497977 -0.034540601 -0.0018573496
-0.044107303 -0.034540601 -0.0042344891
0.08592958 -0.034540601 -0.0028474592
0.11620438 -0.034540601 -0.0011013802
0.14479744 -0.034540601 -0.0096105747
0.15573275 -0.034540601 -0.0042929277
0.16166845 -0.034540601 -0.0040722154
0.23300274 -0.034540601 -0.0030767117
0.26789528 -0.034540601 -0.0017495044
0.28458589 -0.034540601 -0.0082271537
0.34954345 -0.034540601 -0.0029750951
0.35557806 -0.034540601 -0.0017161779
0.3900775 -0.034540601 -0.0011103498
0.42735428 -0.034540601 -0.0063417414
0.45989543 -0.034540601 -0.0031062439
0.46658003 -0.034540601 -0.005279718
-0.46571493 -0.0295776 -0.00072684698
-0.40045702 -0.029577602 -0.009711884
-0.37856519 -0.0295776 -0.0014299341
-0.35345519 -0.0295776 -0.00070227683
-0.2455124 -0.0295776 -0.0050292555
-0.23815301 -0.029577598 -0.0062945299
-0.17604519 -0.0295776 -0.0047354884
-0.15408844 -0.029577598 -0.0013457835
-0.14472982 -0.0295776 -0.0071009425
-0.063799858 -0.029577602 -0.0091363564
-0.059899468 -0.029577598 -0.0031135669
-0.038422935 -0.0295776 -0.0013369168
-0.02559644 -0.029577602 -0.0020073317
0.095544964 -0.0295776 -0.00427998
0.14442703 -0.029577598 -0.0036383606
0.18788712 -0.029577602 -0.00069537945
0.19894058 -0.0295776 -0.0041163936
0.27405769 -0.029577598 -0.0068273749
0.28723407 -0.0295776 -0.00070811808
0.3594662 -0.0295776 -0.0030212123
0.36436439 -0.0295776 -0.0057487562
0.41853911 -0.029577598 -0.006550774
0.42449731 -0.0295776 -0.00033707172
0.44126374 -0.029577598 -0.0046659047
0.45723891 -0.029577598 -0.0056673195
-0.2829383 0.043059781 -0.0034056806
0.20760071 0.043226745 -0.0036279049
0.29741952 0.049761727 -0.0053884387
0.30130515 0.042124871 -0.0020219118
0.20899287 0.050411627 -0.0019295863
-0.27217868 0.061198205 -0.00061136438
-0.2651166 0.068332382 -0.0039552166
0.21527565 0.063476399 -0.0069812485
0.22134961 0.065557055 -0.0093057398
-0.2624799 0.071148962 -0.004148595
-0.25591421 0.07047528 -0.0073907194
-0.23296444 0.077560492 -0.0059886584
0.22362852 0.077603132 -0.0011567903
0.28117472 0.07065621 -0.0069711357
0.22865358 0.083729684 -0.00089843525
0.2692312 0.08068046 -0.0056555769
-0.4194012 -0.034540601 0.0011707967
-0.25882506 -0.034540601 0.0035847239
-0.23817354 -0.034540601 0.0019491129
-0.22475034 -0.034540601 0.0065557212
-0.16768935 -0.034540601 0.0031619761
-0.12668507 -0.034540601 0.00069982558
-0.016776189 -0.034540601 0.0068377405
0.044423051 -0.034540601 0.0056988634
0.12782159 -0.034540601 0.0011840351
0.13290958 -0.034540601 0.0031966418
0.15880023 -0.034540601 0.0066740587
0.1668804 -0.034540601 0.0028589256
0.17093991 -0.034540601 0.0083670449
0.21127683 -0.034540601 0.0027526356
0.24651217 -0.034540601 0.009799296
0.25395709 -0.034540601 0.0082494654
0.35463512 -0.034540601 0.00082503445
0.38927406 -0.034540601 0.00051741116
0.47448808 -0.034407821 0.0015567392
-0.44275805 -0.0295776 0.0084574623
-0.27449876 -0.0295776 0.0042279884
-0.23685262 -0.029577602 0.0018083118
-0.22256733 -0.029577602 0.0079347752
-0.21814239 -0.029577598 0.0011484586
-0.13154677 -0.029577602 0.0083136149
-0.093047619 -0.029577602 0.0057744067
-0.023561569 -0.0295776 0.0056176842
0.063923404 -0.0295776 0.0059542991
0.08846435 -0.029577598 0.0058581419
0.09295924 -0.029577602 0.0047700591
0.13550578 -0.0295776 0.0099046482
0.16647485 -0.029577598 0.0013546627
0.27075651 -0.0295776 0.009176801
0.28030974 -0.0295776 0.0016707964
0.32672766 -0.029577598 0.0055204406
0.4068253 -0.0295776 0.0060884319
-0.18867719 0.038018007 0.0047244211
0.19130325 0.038274642 0.0048330924
0.20499584 0.035509042 0.0015920689
0.30367196 0.035665598 0.0071601551
0.19130413 0.045346919 0.0097960504
0.20492214 0.042859275 0.0034553159
0.30103293 0.049550515 0.0040191282
0.20052859 0.052946229 0.0017059066
0.29624441 0.058075782 0.0034310985
-0.19674504 0.063702159 0.0021139383
0.21183676 0.066566288 0.0038212081
0.21957257 0.079235971 0.0037122262
-0.24427135 0.089997828 0.002785909
-0.23239142 0.087746799 0.0039506764
0.21918252 0.082956344 0.007172402
0.22830001 0.087049663 0.0028454289
-0.23966686 0.092218287 0.0036229575
0.23015538 0.092178613 0.0066680778
0.2592957 0.094147213 0.00068353675
-0.47435194 -0.032674778 0.016110117
-0.4444508 -0.034540601 0.010891361
-0.42055377 -0.034540601 0.016131397
-0.41730875 -0.034540601 0.019151624
-0.40377483 -0.034540601 0.014231537
-0.38041878 -0.034540601 0.015417796
-0.28136861 -0.034540601 0.012041051
-0.19257562 -0.034540601 0.010249417
-0.15626392 -0.034540601 0.019169388
-0.082005948 -0.034540601 0.017880093
-0.072285295 -0.034540601 0.014626771
0.15131012 -0.034540601 0.013031185
0.24864411 -0.034540601 0.01266434
0.3308841 -0.034540601 0.015248414
0.34230864 -0.034540601 0.0186201
0.36552891 -0.034540601 0.014949612
0.45985353 -0.034540601 0.012902224
-0.38516074 -0.029577598 0.013440054
-0.34111637 -0.0295776 0.019578855
-0.30260614 -0.029577598 0.014678754
-0.27778834 -0.029577598 0.012829717
-0.26350063 -0.029577602 0.013396788
-0.22552603 -0.029577602 0.016791753
-0.18839395 -0.029577602 0.018797603
-0.1068164 -0.029577598 0.012974438
-0.027838588 -0.0295776 0.013786304
-0.0097178519 -0.029577602 0.016134595
0.083765492 -0.029577602 0.019664256
0.11963519 -0.029577598 0.010261741
0.14919893 -0.029577598 0.014844276
0.16892941 -0.029577598 0.017691428
0.26508048 -0.029577598 0.011637203
0.31010231 -0.0295776 0.011888006
0.3275519 -0.029577598 0.01054029
0.34312421 -0.029577602 0.010241922
0.3696216 -0.0295776 0.013531908
0.40696275 -0.0295776 0.011734501
0.19870239 0.054486543 0.010818627
0.29805285 0.065679401 0.014937091
-0.19667944 0.076408185 0.013503224
-0.26466662 0.085608475 0.013307255
-0.20778893 0.086441264 0.013439087
-0.20976447 0.092094287 0.015888961
-0.44284412 -0.034540601 0.022647083
-0.42721069 -0.034540601 0.023782952
-0.35949075 -0.034540601 0.028706226
-0.3348037 -0.034540601 0.024225539
-0.32211161 -0.034540601 0.024517685
-0.30774754 -0.034540601 0.024997368
-0.25121146 -0.034540601 0.027315695
-0.14394391 -0.034540601 0.025845915
-0.091548234 -0.034540601 0.021853201
-0.057834335 -0.034540601 0.029130042
-0.022570007 -0.034540601 0.024480894
0.0062590837 -0.034540601 0.020148974
0.025440149 -0.034540601 0.028269511
0.06384328 -0.034540601 0.023143385
0.16607852 -0.034540601 0.025871191
0.18759084 -0.034540601 0.027547136
0.27947128 -0.034540601 0.023185454
0.35876119 -0.034540601 0.022160299
0.37562215 -0.034540601 0.023736862
0.40619943 -0.034540601 0.022634018
-0.41992122 -0.0295776 0.020492695
-0.34561938 -0.029577598 0.02879924
-0.30837452 -0.0295776 0.022068109
-0.27324301 -0.0295776 0.028155839
-0.24058059 -0.029577598 0.026097458
-0.22283104 -0.0295776 0.026858753
-0.17322208 -0.0295776 0.024655215
-0.085123584 -0.0295776 0.027445249
-0.041196764 -0.0295776 0.025967412
-0.029566482 -0.029577598 0.02121108
0.0011478141 -0.029577602 0.025939079
0.063290089 -0.029577598 0.027803078
0.07599254 -0.0295776 0.020928282
0.15555578 -0.029577598 0.022728279
0.21629874 -0.0295776 0.020338548
0.22342324 -0.029577598 0.021121956
0.23734185 -0.0295776 0.021708433
0.30491975 -0.029577598 0.028787155
0.32319814 -0.0295776 0.022673419
0.36322421 -0.0295776 0.021048978
0.37687963 -0.029577602 0.022974908
0.20031573 -0.013850818 0.029586498
0.19477466 -0.0082102502 0.029870935
-0.29272929 0.043373898 0.028190549
-0.29448122 0.056904547 0.029341018
-0.27950501 0.07294251 0.022940595
-0.26814249 0.086083263 0.020785792
-0.19633433 0.083675116 0.024111912
-0.46898067 -0.034540601 0.030334946
-0.44522473 -0.034540601 0.034965292
-0.31627727 -0.034540601 0.032781627
-0.30396849 -0.034540601 0.035065643
-0.28287548 -0.034540601 0.034866907
-0.18858245 -0.034540601 0.03211423
-0.16905347 -0.034540601 0.033803593
-0.14398313 -0.034540601 0.034627255
-0.023941077 -0.034540601 0.031524807
0.0037536696 -0.034540601 0.032335773
0.33609137 -0.034540601 0.033781637
0.34257686 -0.034540601 0.030877244
-0.46415836 -0.029577602 0.03115961
-0.40505999 -0.029577598 0.038207725
-0.30275172 -0.0295776 0.037607096
-0.19894135 -0.029577598 0.036191337
-0.11247429 -0.0295776 0.037434015
-0.1009227 -0.0295776 0.033226341
-0.063360751 -0.029577598 0.031250417
0.051377576 -0.0295776 0.038673647
0.14194426 -0.029577598 0.03059038
0.1913386 -0.0295776 0.039134853
0.22553256 -0.0295776 0.034314763
0.232674 -0.029577602 0.032833815
0.27287248 -0.0295776 0.034180906
0.38449395 -0.029577602 0.032023136
0.19652943 -0.0012281772 0.036085404
0.19883823 0.0088183992 0.036226518
-0.29350352 0.045228198 0.030440021
-0.2844184 0.06538856 0.03880053
-0.18648396 0.067793235 0.031683531
-0.27976546 0.074815817 0.031300183
0.29839778 0.070515722 0.03039429
-0.42387965 -0.034540601 0.044985779
-0.32500497 -0.034540601 0.040293761
-0.28287911 -0.034540601 0.049958989
-0.27665624 -0.034540601 0.041009501
-0.22107051 -0.034540601 0.045417566
-0.218164 -0.034540601 0.049356773
-0.20185289 -0.034540601 0.043812573
-0.19613841 -0.034540601 0.047610946
-0.14804497 -0.034540601 0.048824862
-0.13046791 -0.034540601 0.044292074
-0.11375961 -0.034540601 0.048045896
-0.075916529 -0.034540601 0.047441967
-0.05592756 -0.034540601 0.049775384
-0.023862489 -0.034540601 0.04108949
0.019681454 -0.034540601 0.040040459
0.062909156 -0.034540601 0.043771945
0.088380665 -0.034540601 0.04859443
0.094284929 -0.034540601 0.044768158
0.14565602 -0.034540601 0.049822297
0.2505694 -0.034540601 0.048348624
0.29405582 -0.034540601 0.04783285
0.33122385 -0.034540601 0.044850722
0.34416744 -0.034540601 0.044851884
0.4600431 -0.034131598 0.043268055
-0.45461124 -0.0295776 0.046062116
-0.39910063 -0.029577602 0.041137151
-0.32006416 -0.029577598 0.04965955
-0.16930045 -0.0295776 0.048787229
-0.060907181 -0.029577602 0.0401172
-0.053697228 -0.0295776 0.041008107
0.094534963 -0.029577598 0.047010645
0.1276871 -0.0295776 0.044059277
0.1832483 -0.0295776 0.049376883
0.25022936 -0.029577598 0.046484433
0.29495522 -0.029577598 0.042788938
0.34269404 -0.0295776 0.047920346
0.43214425 -0.029577602 0.045369193
-0.18894765 -0.011313726 0.043526769
0.29631642 -0.012569915 0.041141137
0.1981106 -0.0048920754 0.045436312
0.29640883 -0.0072013633 0.046492733
-0.28474376 0.049692445 0.040039815
-0.45410517 -0.034540601 0.058491234
-0.43751931 -0.034540601 0.057636429
-0.41740286 -0.034540601 0.057215266
-0.40663436 -0.034540601 0.052184302
-0.36017433 -0.034540601 0.050481483
-0.27669191 -0.034540601 0.055146903
-0.16559741 -0.034540601 0.051959954
-0.13668564 -0.034540601 0.054760825
-0.12022154 -0.034540601 0.058950707
-0.098348185 -0.034540601 0.059915476
-0.0096147805 -0.034540601 0.059515357
0.0047340244 -0.034540601 0.052304354
0.018163636 -0.034540601 0.050298866
0.020277232 -0.034540601 0.055128291
0.059883945 -0.034540601 0.053527363
0.070328861 -0.034540601 0.053963311
0.1603004 -0.034540601 0.050929476
0.37399563 -0.034540601 0.057806775
-0.43792191 -0.0295776 0.051115476
-0.33672732 -0.029577602 0.0543136
-0.30556169 -0.029577602 0.05663079
-0.13378593 -0.0295776 0.053120594
-0.08202228 -0.029577598 0.050353076
0.02446717 -0.0295776 0.059468377
0.0412843 -0.029577602 0.054984242
0.05397987 -0.0295776 0.055676296
0.15380707 -0.029577598 0.053473491
0.20396289 -0.029577598 0.050661385
0.26104367 -0.029577602 0.05472159
0.34430176 -0.029577602 0.056135409
0.38621318 -0.029577602 0.059363309
0.42887235 -0.029577598 0.055908546
-0.28431004 -0.016639974 0.053364933
0.19616555 -0.0064556268 0.059679084
0.20188314 -0.00027088303 0.052278988
-0.19233277 0.0017961127 0.055249948
0.19383729 0.0053660534 0.055147655
0.29719335 0.0070938095 0.055926628
-0.18628654 0.011939184 0.058178425
0.295331 0.012291618 0.050646272
-0.3273693 -0.034540601 0.064796276
-0.11232743 -0.034540601 0.069652446
-0.077103034 -0.034540601 0.06388896
-0.020221263 -0.034540601 0.061583698
0.04699637 -0.034540601 0.066166252
0.11375879 -0.034540601 0.063655481
0.22717315 -0.034540601 0.068098821
0.24842486 -0.034540601 0.064268783
0.34498948 -0.034540601 0.062586553
0.42345619 -0.034540601 0.064465925
-0.39313474 -0.0295776 0.060791075
-0.37418011 -0.0295776 0.066728368
-0.36385038 -0.0295776 0.063660398
-0.33350369 -0.0295776 0.065334752
-0.26348931 -0.0295776 0.069399685
-0.21648976 -0.0295776 0.066204362
-0.12108383 -0.029577598 0.064736873
-0.1043411 -0.0295776 0.06078659
-0.085724816 -0.0295776 0.065658852
-0.024436768 -0.0295776 0.06076514
0.023105964 -0.029577598 0.068362087
0.050369114 -0.0295776 0.069559887
0.062613085 -0.029577598 0.061533377
0.12532571 -0.029577598 0.069232628
0.16821627 -0.029577602 0.06180774
0.19182962 -0.0295776 0.065157384
0.33574736 -0.0295776 0.065864824
0.3515206 -0.0295776 0.062881514
0.36323002 -0.0295776 0.069545835
0.42289245 -0.0295776 0.062733397
0.29326761 -0.012322829 0.063406095
-0.28599966 -0.0045900526 0.061497167
0.19283517 0.0055357255 0.062924862
-0.18572116 0.013498396 0.064119771
0.19248693 0.014496531 0.069379866
-0.44436198 -0.033892695 0.074018829
-0.40234187 -0.034540601 0.073808677
-0.33448082 -0.034540601 0.076597743
-0.31557688 -0.034540601 0.073772542
-0.26930457 -0.034540601 0.070767619
-0.16690513 -0.034540601 0.072846755
-0.15287513 -0.034540601 0.07379467
-0.12446114 -0.034540601 0.074175835
0.06640996 -0.034540601 0.070813
0.27311015 -0.034540601 0.07254687
0.33258671 -0.034540601 0.072886929
-0.38639009 -0.029577598 0.078136295
-0.33681327 -0.029577598 0.079661697
-0.31802428 -0.0295776 0.073342815
-0.30379596 -0.0295776 0.076534212
-0.28747717 -0.0295776 0.071940981
-0.26469702 -0.0295776 0.073327452
-0.25602651 -0.0295776 0.078715846
-0.23196858 -0.0295776 0.076760039
-0.20246716 -0.029577598 0.072352618
-0.17773122 -0.029577602 0.074907087
-0.12551463 -0.0295776 0.075750001
-0.093921751 -0.0295776 0.079728469
-0.045534141 -0.029577598 0.074482441
-0.0013206601 -0.0295776 0.073545583
0.052685171 -0.0295776 0.070445091
0.077369183 -0.0295776 0.070845351
0.13235158 -0.0295776 0.078197092
0.15492967 -0.029577602 0.073374212
0.2733345 -0.0295776 0.078467272
0.28251791 -0.029577602 0.079356775
0.3383421 -0.0295776 0.075506926
0.39290988 -0.029577598 0.074049979
0.40440768 -0.029577598 0.072092734
0.42302573 -0.029577602 0.073787346
-0.18476316 -0.0034513678 0.074013293
0.29201487 -0.0059201163 0.072724745
0.19389275 0.0048707933 0.079587929
-0.18198331 0.018671818 0.07839106
0.19353791 0.014884403 0.078416236
-0.1818326 0.023527442 0.076600924
0.19624466 0.027270878 0.077568196
-0.43161806 -0.034540601 0.081505559
-0.34619105 -0.034540601 0.087332606
-0.31688184 -0.034540601 0.081902206
-0.28956741 -0.034540601 0.080556825
-0.27565181 -0.034540601 0.083376184
-0.24894913 -0.034540601 0.087220483
-0.067303032 -0.034540601 0.087151684
-0.044054776 -0.034540601 0.084303185
-0.019723862 -0.034540601 0.085262761
-0.00034250319 -0.034540601 0.087649591
0.020321205 -0.034540601 0.085852876
0.15654193 -0.034540601 0.088293351
0.19524999 -0.034540601 0.087869465
0.23197512 -0.034540601 0.082713559
0.24782267 -0.034540601 0.08371897
-0.39503428 -0.0295776 0.081675708
-0.20243758 -0.0295776 0.082867876
-0.17469871 -0.029577598 0.084397957
-0.15464747 -0.0295776 0.08697319
-0.13514221 -0.0295776 0.088960558
-0.094149351 -0.029577598 0.081605695
-0.084105358 -0.029577598 0.087016948
-0.079572536 -0.0295776 0.088721603
-0.06753391 -0.0295776 0.081738308
0.035803586 -0.029577598 0.084683403
0.07065165 -0.029577602 0.0879649
0.092176616 -0.029577602 0.083100572
0.15620294 -0.029577598 0.089963801
0.16508076 -0.0295776 0.089828633
0.23886026 -0.0295776 0.084038071
0.24257676 -0.0295776 0.082706071
0.29930359 -0.029577602 0.083787329
0.31697842 -0.0295776 0.086389326
-0.28331196 -0.0032122354 0.08695329
0.2928853 -0.0014126974 0.083403334
-0.18228103 0.0059303716 0.082057558
-0.2796326 0.016148841 0.089439094
0.19910042 0.010873085 0.089784205
-0.33456546 -0.034540601 0.092074923
-0.2208447 -0.034540601 0.092373848
-0.1584537 -0.034540601 0.090051308
-0.046921693 -0.034540601 0.094224766
-0.029297099 -0.034540601 0.090927064
-0.016682565 -0.034540601 0.095061526
0.013706824 -0.034540601 0.09728162
0.022431947 -0.034540601 0.09454295
0.047662988 -0.034540601 0.095572546
0.15648052 -0.034540601 0.096790239
0.35897547 -0.034540601 0.094373517
-0.37697977 -0.0295776 0.094063982
-0.35646558 -0.029577602 0.090146914
-0.26314491 -0.0295776 0.09889818
-0.23481864 -0.0295776 0.097077653
-0.22774085 -0.0295776 0.094797313
-0.1651434 -0.0295776 0.094043002
-0.15022996 -0.0295776 0.095799983
-0.11449672 -0.029577602 0.0931869
-0.072978914 -0.029577598 0.095686518
-0.064645186 -0.029577602 0.094508804
-0.043733872 -0.0295776 0.096776664
0.044842921 -0.0295776 0.095485859
0.13222288 -0.029577598 0.097222574
0.15193972 -0.029577598 0.096333548
0.20651254 -0.0295776 0.097226076
0.24733405 -0.029577598 0.091505811
0.34614906 -0.0295776 0.095785841
0.28450763 0.0084507307 0.098275393
-0.18511096 0.018939015 0.091413394
0.20314755 0.012133034 0.094945543
0.21002901 0.016581438 0.09755756
0.2833181 0.016611068 0.095126003
0.20408204 0.024851734 0.09575294
0.28423244 0.023916898 0.09839125
0.20123859 0.039251551 0.091702446
-0.33746034 -0.034540601 0.10664441
-0.24156608 -0.034540601 0.10561141
-0.23528031 -0.034490526 0.10644996
-0.21057351 -0.034540601 0.10220933
-0.15820062 -0.034540601 0.10232723
-0.14608884 -0.034540601 0.10280181
-0.04618533 -0.032152954 0.10691345
-0.020884216 -0.0303331 0.10651599
0.025582366 -0.034296267 0.10578604
0.05433163 -0.034540601 0.10404216
0.10208322 -0.030273631 0.10458426
0.269225 -0.034540601 0.10057373
-0.25644979 -0.029577602 0.10189501
-0.24550614 -0.0295776 0.10276806
-0.16361663 -0.029577602 0.10384366
-0.12733907 -0.029577598 0.10600887
-0.010045707 -0.0295776 0.10193413
0.021281421 -0.0295776 0.10183732
0.18782078 -0.0295776 0.10288082
0.30262485 -0.02997015 0.10143389
-0.19241638 0.015308592 0.10222577
0.21242815 0.016410211 0.10244244
0.27302864 0.014846152 0.10371757
-0.20066169 0.027257869 0.10587013
0.24714163 0.027198665 0.10969336
-0.27651182 0.031418063 0.10138319
0.26624963 0.030077983 0.10621912
0.2736553 0.037164066 0.10561252
-0.20032179 0.042939581 0.10821626
0.22672883 0.046356693 0.10716996
0.23365617 0.046526261 0.10844946
0.24345677 0.042860679 0.10924876
-0.2630713 0.012017142 0.1101232
-0.25495785 0.025122559 0.11352366
-0.25513336 0.032649931 0.11337182
-0.24359399 0.030573409 0.11624359
-0.22603786 0.033829201 0.11748043
-0.23438632 0.045798793 0.11856765
-0.22468719 0.045891162 0.11547534
-0.21914965 0.046428505 0.11543044
0.23990461 0.044234108 0.11129035
