# .PCD v0.7 - Point Cloud Data file format
VERSION 0.7
FIELDS x y z
SIZE 4 4 4
TYPE F F F
COUNT 1 1 1
WIDTH 898
HEIGHT 1
VIEWPOINT 0 0 0 1 0 0 0
POINTS 898
DATA ascii
-0.27146834 -0.027324595 -0.14053494
-0.31349024 -0.0073103188 -0.14175211
-0.29273733 -0.0025225121 -0.14152478
-0.27907798 -0.003311042 -0.14133503
-0.28957349 0.0039702309 -0.14010017
0.2746233 -0.061292939 -0.13032418
-0.30742466 -0.055940583 -0.13881317
-0.28806162 -0.052854594 -0.13936232
0.26658008 -0.055249989 -0.13314666
0.27551788 -0.056823283 -0.13342574
0.25930414 -0.044937093 -0.13394591
0.30213773 -0.045809135 -0.13479635
-0.30369687 -0.031819914 -0.13559465
0.28498995 -0.030515309 -0.13657579
0.29374862 -0.037357215 -0.13804007
-0.30816352 -0.025918685 -0.13984579
0.31167555 -0.023606988 -0.13606951
-0.33546731 -0.017152686 -0.13822901
-0.30602187 -0.015998293 -0.13021359
0.29691699 -0.011609888 -0.13825621
0.31345797 -0.017375439 -0.13566825
0.31112933 -0.00211361 -0.13010041
-0.32242191 0.00030436067 -0.13213593
0.25958794 0.0053347796 -0.1318157
0.27008975 0.0044911988 -0.13758376
0.29329616 0.0044119237 -0.1353327
-0.35057127 0.019197758 -0.13312501
-0.30492046 0.012818448 -0.13148576
-0.29653737 0.01367781 -0.13194384
-0.26720566 0.017338799 -0.13259211
-0.22684707 0.017606989 -0.13312501
-0.13659665 0.018898781 -0.13312501
-0.12451803 0.017338799 -0.13244948
-0.083324209 0.017338799 -0.13242081
-0.055450395 0.018991496 -0.13312501
0.054033455 0.017338799 -0.13240474
0.11023104 0.017338799 -0.13023208
0.24910092 0.017338799 -0.13131446
0.26032817 0.018776312 -0.13312501
0.27155441 0.010509083 -0.13440579
-0.33856812 0.0212026 -0.1320408
-0.27595496 0.0212026 -0.13058116
-0.26692656 0.0212026 -0.1320255
-0.18242618 0.021202598 -0.13178463
-0.09501981 0.0212026 -0.13047439
0.070439473 0.0212026 -0.13280866
0.28314042 -0.061915774 -0.12248541
0.263587 -0.054838941 -0.12873769
-0.33326989 -0.041827943 -0.12804183
-0.28458151 -0.047659937 -0.122623
0.25111467 -0.046173692 -0.12214879
0.31401041 -0.040780671 -0.12613571
-0.3331227 -0.030857299 -0.12837553
-0.29986289 -0.032179561 -0.12674895
0.25343975 -0.033799291 -0.12828983
0.28272444 -0.033565257 -0.1275176
-0.3099373 -0.02244157 -0.12560087
0.31843245 -0.028452966 -0.12088796
-0.30598715 -0.015834041 -0.12299938
0.25329119 -0.014891684 -0.12305894
0.3102769 -0.01812093 -0.12992206
-0.2831248 0.0054395967 -0.12384181
0.30703306 0.0019991759 -0.12212494
-0.28642595 0.017338799 -0.12790878
-0.22312833 0.017338799 -0.12202778
-0.030644925 0.017338799 -0.12535958
-0.029027477 0.017338799 -0.12303512
0.082777329 0.017338799 -0.12514181
0.11162418 0.017338799 -0.12143269
0.14112431 0.017338799 -0.12067006
0.19860254 0.017338799 -0.12102858
0.2086938 0.017338799 -0.12531771
0.2347751 0.017338799 -0.12408392
-0.31689736 0.0212026 -0.12827782
-0.24349007 0.0212026 -0.12775952
-0.2336528 0.021202598 -0.12442671
-0.14519021 0.0212026 -0.12497001
-0.05913803 0.0212026 -0.12808694
0.064340621 0.0212026 -0.12776646
0.082869284 0.0212026 -0.1208218
0.11592713 0.0212026 -0.12761432
0.25984374 0.0212026 -0.12192154
0.27534795 0.0212026 -0.12458578
0.37923658 0.028048746 -0.12212403
-0.30304229 -0.060325429 -0.11474276
0.27804545 -0.061617911 -0.1188191
-0.31200984 -0.056703184 -0.11846086
0.25695473 -0.052700736 -0.11540508
0.2765125 -0.053578939 -0.11300389
0.29589039 -0.055709228 -0.11773117
-0.33188924 -0.043912441 -0.11184518
-0.27967727 -0.04655347 -0.11896746
-0.32771081 -0.036131226 -0.1176295
-0.30342138 -0.032585852 -0.1107167
-0.30886018 -0.028011229 -0.11217277
-0.29369211 -0.02933147 -0.11832894
0.25177121 -0.024527771 -0.11277524
0.28938749 -0.029412828 -0.11747787
0.25814077 -0.0062942738 -0.11864855
0.31365609 -0.0054576192 -0.11456887
-0.32854313 0.0021279803 -0.11187667
-0.29137951 0.007248139 -0.11625488
0.25684994 0.0035361305 -0.11520223
0.26548406 0.0048138686 -0.11777701
-0.36173666 0.018806763 -0.11189418
-0.22320414 0.017338799 -0.1199834
-0.071767047 0.017338799 -0.1198068
0.1062407 0.017338799 -0.11045222
0.12268914 0.017338799 -0.11501874
0.14230521 0.017338799 -0.11437695
0.2098095 0.017338799 -0.11280363
0.21424413 0.017338799 -0.11773567
0.22149052 0.017338799 -0.1134598
-0.37368143 0.025981206 -0.11449106
-0.30136985 0.0212026 -0.11488355
-0.20729966 0.0212026 -0.11181507
-0.16417918 0.021202598 -0.11435229
-0.08707843 0.0212026 -0.11436821
-0.018204972 0.0212026 -0.11168817
0.050424322 0.0212026 -0.11428514
0.10583252 0.0212026 -0.11807135
0.1452466 0.021202598 -0.11583713
0.21314444 0.0212026 -0.11434194
0.25709376 0.0212026 -0.11499258
0.34918272 0.0212026 -0.11209767
0.37001371 0.024615502 -0.1141284
-0.38970569 0.03194619 -0.11104275
0.396207 0.034366451 -0.11875036
-0.30157632 -0.054887548 -0.10635813
0.28059533 -0.05903174 -0.10350578
-0.32602763 -0.047327518 -0.10920706
-0.31207585 -0.045234945 -0.10424335
0.25678992 -0.047612134 -0.10709287
-0.27018103 -0.0381377 -0.10866427
-0.26431143 -0.029290335 -0.10793051
0.26091325 -0.029448416 -0.10144589
0.2728897 -0.020789593 -0.10137387
0.29730818 -0.024985509 -0.10100694
0.30147544 -0.025303777 -0.10094863
-0.33596441 -0.019570172 -0.10787176
0.25076786 -0.014809834 -0.10565119
0.27589673 -0.018222626 -0.10968044
-0.31533301 -0.0042628823 -0.10469706
-0.30581251 -0.0063652224 -0.10454962
-0.26719522 -0.0075060818 -0.10940728
0.29336196 -0.0080275722 -0.10122988
-0.31197506 0.0084739737 -0.10890418
-0.30175787 0.0078275129 -0.10535398
-0.27627602 0.0041290731 -0.10806154
0.28276855 0.0051552695 -0.10586717
0.29603642 0.0027157676 -0.10474905
-0.36232775 0.017355464 -0.10992664
-0.35905746 0.017338799 -0.10062945
-0.3113156 0.017338799 -0.10517091
-0.21947935 0.017338799 -0.10298482
-0.20395865 0.017338799 -0.10885082
-0.17810029 0.017338799 -0.10645572
0.017906576 0.017338799 -0.105595
0.039463386 0.017338799 -0.1066542
0.057687886 0.017338799 -0.10275559
0.062658161 0.017338799 -0.10450643
0.072994694 0.017338799 -0.10598693
0.26657826 0.017338799 -0.10593127
0.28360605 0.011769014 -0.105681
-0.28244445 0.0212026 -0.105956
-0.22776665 0.021202598 -0.10531042
-0.071215555 0.0212026 -0.10818814
-0.058355436 0.0212026 -0.10322888
-0.025802255 0.0212026 -0.10905294
-0.0070786476 0.0212026 -0.10653317
0.013011813 0.0212026 -0.10694051
0.03335876 0.0212026 -0.10009035
0.35759076 0.021202598 -0.10611611
-0.36433291 0.018101925 -0.094240576
-0.23864818 0.017338799 -0.096394993
-0.19954656 0.017338799 -0.090785205
-0.18489943 0.017338799 -0.090869762
-0.13422281 0.017338799 -0.096611291
-0.10093916 0.017338799 -0.091087036
-0.083411932 0.017338799 -0.097517714
0.22924186 0.017338801 -0.097184896
0.27568671 0.017338799 -0.09305682
0.29648361 0.017338799 -0.096076034
-0.39513397 0.029567864 -0.098224208
-0.3876642 0.026787119 -0.094475515
-0.37511522 0.024315381 -0.093138456
-0.33513606 0.0212026 -0.090134352
-0.29624933 0.0212026 -0.093673587
-0.22617304 0.021202601 -0.091111138
-0.097088739 0.0212026 -0.092074066
0.03850805 0.021202598 -0.091660902
0.041522913 0.0212026 -0.09689413
0.087180212 0.0212026 -0.097143292
0.32521105 0.021202598 -0.091719843
0.35147452 0.0212026 -0.095442154
0.41820237 0.038155373 -0.095069207
0.4183808 0.042621169 -0.097351506
0.43058336 0.046094187 -0.096929371
0.27366623 -0.021585941 -0.080157533
0.29052123 -0.022886608 -0.081392176
-0.28308412 0.017338799 -0.088718042
-0.26247916 0.017338799 -0.088414714
-0.249945 0.017338799 -0.085229963
-0.21100271 0.017338801 -0.084185071
-0.19683063 0.017338799 -0.080080159
-0.10407889 0.017338799 -0.082903221
-0.042473078 0.017338799 -0.085728765
0.11461415 0.017338799 -0.082824335
0.13875356 0.017338799 -0.089707494
0.18520492 0.017338799 -0.081142843
0.22949675 0.017338799 -0.0827429
0.2483277 0.017338799 -0.087842517
0.25242981 0.017338799 -0.083032489
0.32670033 0.017338799 -0.088964269
0.3497383 0.017338799 -0.084335841
-0.34171009 0.0212026 -0.080550134
-0.28477204 0.021202598 -0.083962381
-0.21529661 0.021202598 -0.086774975
-0.19987421 0.0212026 -0.088070072
-0.084910952 0.0212026 -0.084711641
-0.032935113 0.0212026 -0.082311444
-0.023674373 0.021202601 -0.083648168
0.066764884 0.0212026 -0.08030992
0.15141493 0.021202598 -0.087320432
0.16038726 0.0212026 -0.089250617
0.18556009 0.0212026 -0.082248285
0.3581056 0.0212026 -0.084976085
0.36197349 0.0212026 -0.087507918
0.37326157 0.021425663 -0.086943701
-0.42513433 0.040736016 -0.082779534
0.42819422 0.046274088 -0.082547307
0.43359256 0.043884665 -0.080155976
-0.30926508 -0.024508644 -0.072753698
0.27411911 -0.029855605 -0.074121438
-0.29361114 -0.016625961 -0.075292684
-0.36150351 0.019433247 -0.070462234
-0.29193097 0.017338799 -0.073144875
-0.24742565 0.017338799 -0.079448909
-0.23365639 0.017338799 -0.077282503
-0.18752828 0.017338799 -0.07212384
-0.15552838 0.017338799 -0.076342516
0.028000236 0.017338799 -0.073620453
0.036619693 0.017338799 -0.077316239
0.05531577 0.017338799 -0.074742183
-0.35881251 0.0212026 -0.076864019
-0.32705241 0.0212026 -0.078306846
-0.28994295 0.0212026 -0.078236863
-0.18035379 0.0212026 -0.072028317
-0.15294439 0.021202601 -0.07574299
-0.14091372 0.021202598 -0.073393658
-0.11891112 0.0212026 -0.073786199
-0.045431983 0.0212026 -0.073010884
-0.020975083 0.0212026 -0.07416755
-0.013024628 0.0212026 -0.074081942
0.087860413 0.0212026 -0.073618807
0.128172 0.0212026 -0.078452699
0.17071471 0.0212026 -0.074759103
0.21739894 0.021202601 -0.077236176
0.22688252 0.0212026 -0.073361814
0.25296026 0.0212026 -0.078055531
0.3056505 0.021202601 -0.073907599
0.38032916 0.028455596 -0.076691702
-0.28446174 0.017338799 -0.060578018
-0.22317706 0.017338799 -0.067525581
-0.075643212 0.017338799 -0.066732556
-0.062523559 0.017338799 -0.060926378
-0.014194988 0.017338799 -0.061385497
0.04213015 0.017338799 -0.068086728
0.15481596 0.017338799 -0.063027769
0.19472879 0.017338799 -0.06193183
0.26073432 0.017338801 -0.065373763
0.362284 0.017586393 -0.064990342
-0.29362226 0.021202601 -0.061309248
-0.259175 0.0212026 -0.0611661
-0.089715049 0.0212026 -0.061704196
-0.073561691 0.0212026 -0.066796511
-0.065999493 0.021202598 -0.063314617
0.032799065 0.0212026 -0.061860763
0.050714061 0.0212026 -0.061232764
0.1546075 0.021202601 -0.067871533
-0.38892823 0.031656787 -0.060953677
-0.44511026 0.048172109 -0.063556686
-0.42979205 0.042469949 -0.068656504
-0.41239309 0.040392172 -0.064562961
-0.44852963 0.05384421 -0.067055739
0.45157921 0.050580353 -0.062291317
-0.29509118 -0.031735398 -0.052338641
-0.30738422 -0.029147165 -0.051569264
-0.35275126 0.017338799 -0.059958812
-0.2889879 0.017338799 -0.059414614
-0.26800886 0.017338799 -0.056689825
-0.16331509 0.017338799 -0.05271405
0.082365207 0.017338799 -0.05716002
0.15084825 0.017338799 -0.059892345
0.16187152 0.017338799 -0.053480022
0.17583504 0.017338799 -0.052019853
0.32482067 0.017338799 -0.058700252
-0.37584358 0.022386901 -0.053648882
-0.33779272 0.0212026 -0.052429039
-0.3161549 0.0212026 -0.05412063
0.0928749 0.0212026 -0.055461004
0.17704238 0.0212026 -0.057458319
0.23995572 0.021202598 -0.050421096
0.28676999 0.0212026 -0.054734066
-0.40909585 0.034765478 -0.054514159
-0.42385787 0.042460427 -0.053585622
-0.30744752 -0.017619867 -0.041279398
-0.36877197 0.019754447 -0.047361374
-0.34038395 0.017338799 -0.04661553
-0.30855906 0.017338799 -0.040962577
-0.29406735 0.017338799 -0.0473857
-0.280395 0.017338799 -0.042824097
-0.16396165 0.017338799 -0.048491906
-0.0726064 0.017338799 -0.048473317
0.12625159 0.017338799 -0.043428868
0.16048354 0.017338799 -0.040991686
0.17238052 0.017338799 -0.049158752
0.22984314 0.017338799 -0.045756906
0.29292339 0.017338799 -0.046580929
0.30652213 0.017338799 -0.041333836
-0.37335479 0.021460423 -0.047782104
-0.32981536 0.0212026 -0.045136314
-0.29361743 0.0212026 -0.041415762
-0.24324527 0.021202598 -0.049970612
-0.18202263 0.0212026 -0.04386951
-0.00059683248 0.0212026 -0.040820524
0.046522953 0.0212026 -0.041748054
0.21465516 0.0212026 -0.044417404
0.22844483 0.0212026 -0.047379259
0.231939 0.021202601 -0.046046309
0.25482106 0.021202601 -0.045702979
0.26606816 0.021202601 -0.041503854
0.35724169 0.0212026 -0.047854885
-0.30365238 -0.01606868 -0.036110409
-0.29577842 -0.010479565 -0.032176621
0.27457017 -0.018544942 -0.033484593
0.292575 -0.016210062 -0.030077603
-0.32277834 0.017338801 -0.036793448
0.038890801 0.017338799 -0.035369392
0.075005092 0.017338799 -0.032547906
0.15409406 0.017338799 -0.030511547
0.18218976 0.017338799 -0.034127492
0.24162914 0.017338799 -0.038513653
0.31895834 0.017338799 -0.033299472
-0.28842637 0.021202601 -0.037354153
-0.079974063 0.0212026 -0.030079694
0.039841816 0.0212026 -0.034785945
0.082477123 0.0212026 -0.032450315
0.10022891 0.0212026 -0.034499284
0.16466337 0.021202598 -0.032474764
0.23353237 0.021202601 -0.035193145
0.24830681 0.021202598 -0.037736267
0.30473086 0.0212026 -0.034577928
0.37462968 0.02413433 -0.036689013
-0.41629985 0.037447281 -0.036385737
0.39663821 0.034527235 -0.031633936
-0.46485913 0.055523798 -0.033413984
-0.45440531 0.053832032 -0.032462362
-0.30083334 -0.033031773 -0.023703132
-0.30742449 -0.028203296 -0.020780742
0.27430961 -0.02871348 -0.023575442
-0.29808354 0.017338799 -0.027614072
-0.1381349 0.017338799 -0.029570293
-0.12910737 0.017338799 -0.022960324
-0.10621962 0.017338799 -0.021135703
0.21023527 0.017338799 -0.024036974
-0.38823816 0.027000859 -0.022261567
-0.31039703 0.0212026 -0.027758054
-0.2772772 0.021202601 -0.026339743
-0.23466294 0.0212026 -0.022323154
-0.2146948 0.0212026 -0.026291575
-0.20480758 0.0212026 -0.022551723
-0.18548 0.0212026 -0.022338547
-0.17846069 0.0212026 -0.024263959
-0.13516551 0.0212026 -0.022565803
0.0072226822 0.0212026 -0.026888296
0.029369384 0.021202601 -0.028489321
0.082787432 0.0212026 -0.022332475
0.19957069 0.0212026 -0.020909281
0.21761277 0.0212026 -0.026531644
0.23517692 0.0212026 -0.028135974
0.38300121 0.029450465 -0.027981531
-0.4033055 0.032609958 -0.020201031
0.42233223 0.039692797 -0.025149513
-0.44868881 0.049504377 -0.02966056
-0.43908998 0.045930952 -0.023790723
0.43754092 0.045354374 -0.02539403
0.44769758 0.04913532 -0.023647591
-0.44715151 0.05333133 -0.022219695
0.29173142 -0.026725613 -0.019297451
-0.31996471 -0.01933823 -0.012592928
-0.29840285 -0.01015611 -0.019811252
-0.28910351 -0.014377402 -0.018656608
0.29421115 -0.013755998 -0.019912899
0.29263973 0.0067786667 -0.011094071
-0.31250393 0.017338799 -0.01903116
-0.083482064 0.017338799 -0.015287356
0.0170497 0.017338799 -0.019419365
0.27542424 0.017338799 -0.01521289
0.34244663 0.017338799 -0.019674454
0.362284 0.01743345 -0.015137855
-0.34740406 0.0212026 -0.010406557
-0.27452284 0.0212026 -0.018851001
-0.25379682 0.0212026 -0.019142549
-0.19165599 0.0212026 -0.018256856
-0.057178415 0.021202601 -0.010462422
-0.031156734 0.0212026 -0.014078222
0.049614489 0.0212026 -0.018822517
0.16146359 0.021202598 -0.015359193
0.24178442 0.0212026 -0.018432125
0.31709653 0.0212026 -0.018544599
0.36971173 0.020104086 -0.019951273
-0.30250469 -0.032519925 -0.0087607503
-0.29039264 -0.022527818 -0.0098696053
-0.30045483 -0.015257161 -0.00073702633
-0.30775779 -0.0015633414 -0.00069569924
-0.29534632 -0.0068116779 -0.0062797163
-0.28427553 -0.0014180441 -0.00034798781
0.29316187 -0.0066063832 -0.0047729993
0.26330236 0.0078449296 -0.0031445809
0.28318736 0.0021167607 -0.0038220768
0.29156956 0.0040623969 -0.0063641756
0.30049589 0.0021868106 -0.0034002042
-0.36758268 0.019311719 -0.0030059814
-0.34253496 0.017338799 -0.0033567585
-0.23588803 0.017338799 -0.0062427744
-0.20682758 0.017338799 -0.0072663315
-0.16356148 0.017338799 -0.0049862973
-0.15900394 0.017338799 -0.00095908903
-0.049528498 0.017338799 -0.0075855441
0.085934952 0.017338799 -0.0061279051
-0.36228299 0.020709498 -0.004807014
-0.25785208 0.0212026 -0.00089753047
-0.21565951 0.0212026 -0.0007551536
-0.19438159 0.0212026 -0.0041869283
-0.17671324 0.0212026 -0.0055181682
-0.11208449 0.0212026 -0.0074166879
-0.032653183 0.0212026 -0.001022554
0.029975913 0.0212026 -0.00010746624
0.038859896 0.0212026 -0.0065989681
0.046424508 0.0212026 -0.0089008175
0.084554248 0.0212026 -0.0049387813
0.11894356 0.0212026 -0.0075603146
0.1246708 0.021202601 -0.0056811227
0.28375027 0.0212026 -0.0052769557
0.29636604 0.0212026 -0.0060326308
0.333662 0.0212026 -0.0070723873
0.36250597 0.021820867 -0.008079581
0.37797987 0.025381554 -0.0036015101
-0.40741444 0.038538694 -0.0038097894
-0.39433837 0.033671096 -0.0036759265
0.41256297 0.036056064 -0.0048491471
0.45777619 0.05728646 -0.006963334
0.28442881 -0.034453504 0.006187249
0.26525605 -0.026290519 0.0018376575
0.27497658 -0.021448037 0.00057062018
0.29147661 -0.02382813 0.0045519052
0.26364401 -0.011684827 0.0065619657
-0.31541303 -0.008646857 0.00021755719
-0.29748562 -0.00066812866 0.0078763366
-0.28559992 -0.0055171479 7.2295232e-05
-0.32470518 0.0060640266 0.0070363386
-0.31080824 0.0026242801 0.0060646082
-0.30628929 0.0050446559 0.0071556927
-0.29771993 0.0024548254 0.0027637992
-0.28379858 0.0064555863 0.0021049024
0.25564459 0.0017276921 0.0011682545
0.26139885 0.0020623442 0.0013387171
0.27046928 0.0078420788 0.0090262238
0.28635371 0.0019141572 0.0048244181
0.30041492 0.0023286273 0.0090229698
-0.26121682 0.017338799 0.0045231283
-0.23526224 0.017338799 0.0042629018
-0.1873626 0.017338799 0.0077484623
-0.17751151 0.017338799 0.0011478662
-0.040758401 0.017338799 0.0033940971
-0.0077739134 0.017338799 0.007644386
0.098931693 0.017338799 0.0029895157
0.18925275 0.017338801 0.0060510412
0.24649411 0.017338799 0.0032232106
0.26933074 0.017338799 0.0062936582
0.27906835 0.017338799 0.0095989443
0.36247796 0.017411007 0.0097261239
-0.38151389 0.024497673 0.00069840997
-0.3714723 0.020759638 0.0082046576
-0.34608108 0.0212026 0.0014523864
-0.19892539 0.0212026 0.0052404478
-0.044452146 0.021202601 0.0080932751
-0.02303556 0.0212026 0.0059959777
0.015370103 0.0212026 0.00097125513
0.033903107 0.0212026 0.0058689788
0.24565123 0.0212026 0.0013975129
0.30311811 0.0212026 0.0036159083
0.34846365 0.021202601 0.009476196
0.39736685 0.034798298 0.0010856353
-0.44088382 0.050997987 0.0089877862
0.45050246 0.054578595 0.007895804
0.46913865 0.057117045 0.0088564679
-0.29074812 -0.01997133 0.012120597
-0.28849256 -0.013082707 0.017005751
0.25866193 -0.01161432 0.011144059
0.26395261 -0.015183292 0.01532066
0.27770096 -0.018581536 0.018389586
-0.28542745 -0.0068320255 0.015462495
0.25793016 -0.0054035266 0.012985875
0.27246115 -0.0031715019 0.012661297
-0.32119343 0.0034120346 0.014026329
-0.31776801 0.0059244288 0.013691399
-0.27304289 0.0078604436 0.011297453
0.26559794 0.0021156594 0.013587736
0.291439 0.0022768441 0.010502143
-0.33470082 0.017338799 0.01812074
-0.28021193 0.017338799 0.019815974
-0.22540051 0.017338799 0.012496125
-0.14570512 0.017338799 0.016886655
-0.0074860537 0.017338799 0.010963425
0.012528419 0.017338799 0.013861988
0.026001841 0.017338799 0.011464063
0.2130599 0.017338801 0.012182802
0.25989479 0.017338799 0.019848488
0.2937808 0.017338799 0.019474126
0.30399504 0.017338799 0.015058441
0.34715372 0.017338799 0.012585811
0.35941842 0.017338799 0.017926522
0.36312175 0.017865745 0.018029096
-0.37826806 0.027688459 0.014063079
-0.33724552 0.0212026 0.013515472
-0.22018537 0.0212026 0.017964087
-0.13988969 0.021202601 0.017613741
0.053585239 0.0212026 0.018631099
0.36299649 0.022003453 0.016310193
-0.45243788 0.050900005 0.019004216
0.46182603 0.054394834 0.014812616
-0.46669534 0.06060648 0.017540492
0.27870274 -0.01792329 0.028733052
0.29079458 -0.0064034942 0.021828504
-0.31641811 0.0081613045 0.023399239
-0.30997884 0.0076854266 0.022796731
0.27526337 0.0079805348 0.023201521
0.30835554 0.0050763567 0.022495406
-0.35298875 0.017338799 0.025977168
-0.34133992 0.017338799 0.028326154
-0.31586987 0.017338799 0.026014507
-0.20101394 0.017338799 0.02706348
-0.1105106 0.017338799 0.020084824
-0.10389581 0.017338799 0.025384098
-0.039159868 0.017338799 0.027751643
0.074740596 0.017338799 0.021478819
0.11640616 0.017338799 0.022261169
0.22938408 0.017338797 0.027537659
-0.096664958 0.0212026 0.021881357
-0.022446901 0.0212026 0.020508096
0.027799139 0.0212026 0.023675732
0.13363558 0.0212026 0.02658724
0.22977443 0.0212026 0.028242601
0.29866707 0.0212026 0.026918955
0.33750984 0.0212026 0.021018047
-0.40179813 0.036447875 0.028236609
0.38504228 0.030210456 0.027996991
-0.44311634 0.047429964 0.024816794
-0.42058963 0.043443322 0.027947824
0.41465551 0.041234355 0.026617143
0.43307647 0.043692373 0.022105748
-0.2892434 -0.013981869 0.030302368
-0.26388595 0.017338799 0.035578396
-0.09632735 0.017338799 0.039399453
-0.089568093 0.017338799 0.036200386
-0.040352024 0.017338799 0.036785774
-0.032436505 0.017338799 0.034134325
0.01738362 0.017338799 0.038503349
0.047857173 0.017338799 0.03439413
0.078426406 0.017338799 0.039192978
0.090352803 0.017338799 0.03773858
0.23797706 0.017338799 0.03565095
0.28716439 0.017338799 0.038491715
0.362284 0.019659322 0.03762427
-0.36665478 0.023365382 0.038376115
-0.34153688 0.0212026 0.031600233
-0.2034183 0.021202601 0.03690172
-0.14154735 0.021202598 0.036054712
-0.12483845 0.0212026 0.03984157
-0.082125649 0.0212026 0.03344699
-0.068944857 0.0212026 0.03476296
0.029100165 0.0212026 0.033713192
0.33771488 0.021202598 0.036350377
-0.40559548 0.037861519 0.036597848
0.41035622 0.035234448 0.037214711
-0.44257414 0.051627278 0.03448122
0.44301379 0.05179099 0.039568644
-0.30359298 -0.03153187 0.048710383
0.27510434 -0.023313347 0.047083326
-0.29361621 -0.010359988 0.041377276
0.28683406 -0.01714596 0.040923305
-0.32214451 0.017338799 0.04904623
-0.22229213 0.017338799 0.048221175
0.020527169 0.017338799 0.042874597
0.081241965 0.017338799 0.046423983
0.22923094 0.017338799 0.043371264
0.31360513 0.017338799 0.049109381
-0.38356847 0.02966175 0.046385113
-0.37130976 0.020699073 0.046352252
-0.36085734 0.0211695 0.043452319
-0.34130806 0.0212026 0.04452467
-0.31521156 0.0212026 0.040187225
-0.2391395 0.0212026 0.044444352
0.00052566081 0.0212026 0.045836151
0.058944479 0.0212026 0.043793112
0.26511246 0.021202601 0.045286108
0.36038619 0.0212026 0.042415105
-0.46458486 0.058755051 0.044545256
0.44246209 0.051585745 0.044874098
0.28619346 -0.034317702 0.050279018
-0.30224338 -0.016202113 0.056197014
0.28653091 -0.016999628 0.051712226
-0.20516935 0.017338799 0.051411957
-0.15923551 0.017338799 0.051106144
-0.062402159 0.017338799 0.059422776
-0.045375325 0.017338799 0.053927448
0.036356166 0.017338799 0.056143232
0.053461578 0.017338799 0.058020726
0.16945159 0.017338799 0.059919659
0.21935499 0.017338799 0.057559133
0.22653933 0.017338799 0.054708686
0.26420191 0.017338799 0.057208039
0.36212146 0.017775265 0.050422855
-0.38196087 0.029063318 0.050774492
-0.31818241 0.0212026 0.054480344
-0.28841028 0.021202601 0.056100048
0.017811276 0.0212026 0.055934437
0.15437125 0.0212026 0.0551049
0.28680629 0.0212026 0.055528346
0.31854379 0.0212026 0.058597118
0.3610824 0.020565167 0.057536989
0.3769021 0.027180105 0.052491151
-0.39778101 0.034952503 0.053701442
-0.38497502 0.030185316 0.057061613
-0.42929628 0.042285293 0.054952569
0.42778379 0.046121344 0.052766107
-0.29200178 -0.030955929 0.0693819
0.2897419 -0.032604881 0.062322762
0.29308793 -0.025615105 0.062501118
-0.36912939 0.019887416 0.066480547
-0.24733403 0.017338799 0.063444585
-0.20026669 0.017338799 0.063519239
-0.13110085 0.017338799 0.06049509
-0.0040689111 0.017338799 0.063410528
0.063650869 0.017338799 0.069221191
0.11655921 0.017338799 0.061765689
0.14575961 0.017338799 0.0626221
0.18466464 0.017338799 0.061110854
0.22317472 0.017338799 0.068515278
0.24600457 0.017338799 0.068668135
0.26096469 0.017338799 0.061935723
-0.31157479 0.0212026 0.061758898
-0.25084832 0.0212026 0.064700611
-0.10728797 0.0212026 0.068506122
0.01674246 0.021202601 0.066810757
0.08200521 0.0212026 0.065746717
0.15390565 0.0212026 0.065811135
0.18648756 0.0212026 0.064255387
0.23210961 0.021202601 0.067337118
0.26068366 0.0212026 0.067804128
0.29181725 0.021202598 0.066951245
0.32010278 0.021202598 0.069621958
0.35198906 0.0212026 0.064458162
-0.30490524 -0.029996876 0.072397932
0.28345543 -0.015940409 0.076124392
-0.35964933 0.017338801 0.073519059
0.15694016 0.017338799 0.077451475
0.17544381 0.017338799 0.074495919
-0.33502457 0.0212026 0.076278038
-0.28278339 0.021202598 0.072916895
-0.26484886 0.0212026 0.073239043
-0.23980856 0.0212026 0.074298158
-0.15185642 0.0212026 0.072310619
0.053226396 0.0212026 0.073879883
0.13438138 0.021202598 0.072268471
0.15582901 0.0212026 0.070545956
0.30065137 0.0212026 0.076823488
0.33017257 0.0212026 0.076782241
0.37155092 0.025188036 0.077661544
-0.44237226 0.04715297 0.075480834
0.41730562 0.042220846 0.075378306
0.42094934 0.043577254 0.072126292
0.43608409 0.04481189 0.075982757
0.44726089 0.048972651 0.071434841
0.44412529 0.05220462 0.073947623
-0.25661629 0.017338799 0.088020861
-0.10976423 0.017338799 0.082993217
0.25722852 0.017338799 0.089112438
0.2790156 0.017338799 0.081190027
-0.27222356 0.0212026 0.080606446
-0.15779553 0.021202601 0.087053984
0.094516084 0.0212026 0.082399465
0.11029082 0.0212026 0.089459941
0.17300585 0.0212026 0.088739127
0.24081253 0.021202598 0.080350749
0.29517329 0.0212026 0.084564634
0.30769274 0.0212026 0.082705595
0.32050145 0.021202598 0.082607299
0.34673193 0.021202601 0.08372616
0.41670501 0.037597824 0.089103475
0.27586195 -0.028197143 0.092638858
-0.36134404 0.019861719 0.098685756
-0.26480564 0.017338799 0.097990602
-0.13226685 0.017338799 0.093731977
-0.03631328 0.017338799 0.097079068
0.018998113 0.017338799 0.092838034
0.06674616 0.017338799 0.096458852
0.35919654 0.017338799 0.092938095
0.36410964 0.018018465 0.093147367
-0.32261464 0.0212026 0.09724085
-0.25929195 0.0212026 0.095462739
-0.22817577 0.0212026 0.09406092
-0.13371891 0.0212026 0.091343485
-0.015611205 0.0212026 0.09882734
0.048800085 0.021202598 0.096289083
0.16960083 0.0212026 0.091969423
0.22196853 0.021202598 0.096853942
0.27130291 0.0212026 0.093115687
0.32340977 0.021202598 0.097601578
-0.43275803 0.046780579 0.094758376
0.27745512 -0.061543204 0.10816569
-0.3235583 -0.050285548 0.10758951
-0.30414921 -0.053116191 0.10856549
-0.29132265 -0.053207494 0.10505898
-0.31667033 -0.046952486 0.10249056
0.30680078 -0.045607634 0.10918624
0.31873474 -0.037271831 0.10723656
-0.32958198 -0.025961233 0.10587914
-0.31740174 -0.024568165 0.10156988
-0.26566136 -0.023448713 0.10489412
0.30725509 -0.025652012 0.10400653
-0.26908842 -0.016232366 0.10212734
0.31822681 -0.015660424 0.10666572
0.26196569 -0.006938077 0.10834184
0.28531113 -0.0084489416 0.10437357
0.31101462 -0.0052453522 0.10596836
-0.29309726 0.00513023 0.10542134
0.29631567 0.0038114518 0.10859821
0.30369321 0.00071421347 0.10904072
-0.35100812 0.017338799 0.10102862
-0.23944445 0.017338799 0.10526924
-0.12388386 0.017338799 0.10568404
-0.063614309 0.017338799 0.10445197
-0.025301725 0.017338799 0.10131503
0.032104969 0.017338799 0.10868563
0.16806617 0.017338801 0.10579054
0.24595007 0.017338799 0.10891987
0.25764745 0.017338799 0.10104711
0.35677662 0.017338799 0.10823475
-0.35897741 0.021202601 0.10647608
-0.28487775 0.0212026 0.10633041
-0.27877989 0.0212026 0.10607095
-0.2357717 0.0212026 0.10331105
-0.065131649 0.0212026 0.10015802
-0.0090457164 0.0212026 0.10332386
0.0839746 0.0212026 0.10904536
0.16337523 0.0212026 0.10869405
0.18902318 0.0212026 0.10696686
0.20789187 0.0212026 0.10227138
0.23039451 0.0212026 0.10807506
0.27999505 0.0212026 0.10632589
0.28769785 0.0212026 0.10552178
0.2967394 0.0212026 0.10481142
0.34825498 0.021202598 0.10365994
0.36302006 0.021438025 0.10554567
0.26312119 -0.053016424 0.1150696
0.27933744 -0.059898317 0.11537382
0.28357172 -0.057550773 0.11397118
-0.32401446 -0.036606975 0.11839583
0.25199324 -0.03581249 0.11552943
0.3122507 -0.03864684 0.11939812
-0.26050407 -0.029259209 0.11076341
0.2920675 -0.020342696 0.11053611
0.31439039 -0.027701896 0.11804211
-0.29343444 -0.016163483 0.11578141
0.31520033 -0.017242333 0.11937888
-0.33150482 -0.0098586837 0.11938141
-0.32191733 -0.0059207976 0.11239791
0.31310296 -0.0077358 0.11169697
-0.28518581 0.0041363067 0.11929587
0.2968969 0.0030209546 0.11780426
0.3029097 0.0071421643 0.11994812
-0.29829943 0.010498306 0.11864133
-0.27052447 0.017338799 0.11199023
-0.26053503 0.017338799 0.11514906
-0.21816558 0.017338797 0.11616527
-0.19020274 0.017338799 0.11034986
0.026213903 0.017338799 0.11694717
0.12983957 0.017338799 0.1147293
-0.36087361 0.021125756 0.11533017
-0.2900992 0.0212026 0.11574557
-0.22814824 0.0212026 0.11803119
-0.15684043 0.021202598 0.1153758
-0.12941329 0.0212026 0.11339036
-0.1094187 0.0212026 0.11087498
0.015446203 0.0212026 0.11489068
0.065762371 0.0212026 0.11644042
0.071745291 0.0212026 0.11798389
0.13962986 0.0212026 0.11515026
0.19626069 0.0212026 0.11199701
0.3028082 0.021202598 0.11558338
0.37751672 0.027408827 0.11322889
0.38924369 0.027375039 0.11857398
-0.30619049 -0.060014803 0.12275444
-0.30097634 -0.05372186 0.12086489
-0.28694779 -0.053898308 0.12509465
0.27598017 -0.05439641 0.12439792
0.28814265 -0.055280387 0.12457809
0.29795378 -0.052270819 0.12137351
0.30011877 -0.059763201 0.12934366
-0.32898295 -0.042416591 0.12536001
0.25583398 -0.043170594 0.12638345
-0.33380207 -0.030990306 0.12379517
0.27876174 -0.032188613 0.12681764
0.28683999 -0.03454468 0.12711802
0.32088229 -0.015717698 0.12973258
0.25425476 -0.0047080731 0.12234707
0.27008054 -0.00043057575 0.1223524
0.3157894 -0.0070170439 0.12730458
-0.29856342 0.0089384075 0.12895755
-0.28869528 0.0037646233 0.12037811
-0.27696532 0.0062274979 0.1239441
0.27501538 0.007942454 0.12586986
0.28755888 0.0074251355 0.12126472
0.29114372 0.0031498945 0.12461546
-0.33641291 0.017338799 0.12201513
-0.30633962 0.014445997 0.12329099
-0.26530305 0.017338799 0.12056962
-0.17028961 0.017338799 0.12740582
-0.14207394 0.017338797 0.12758455
-0.097444251 0.017338799 0.12045832
0.061167613 0.017338799 0.12819427
0.084628187 0.017338799 0.12367769
0.16032214 0.017338799 0.12814689
0.1881153 0.017338799 0.12057386
0.28371474 0.017338799 0.12567091
0.33956611 0.017338801 0.12249202
-0.36158249 0.02147714 0.12566663
-0.30195031 0.0212026 0.12075406
-0.29382527 0.0212026 0.12728947
-0.26544833 0.0212026 0.12814318
-0.11378862 0.0212026 0.12348182
-0.073795408 0.0212026 0.12864727
-0.050623968 0.0212026 0.12743086
0.079493515 0.0212026 0.12090641
0.28152466 0.0212026 0.12382784
0.32880855 0.0212026 0.12712677
0.37374902 0.026006205 0.12829019
0.38448218 0.030001717 0.12514186
0.27915949 -0.062470291 0.13594335
-0.31900486 -0.053325973 0.13370982
-0.29335666 -0.058694996 0.13330421
-0.28015122 -0.05760172 0.13202505
0.26664466 -0.056814969 0.13628539
0.27670747 -0.05496832 0.13844413
0.28254378 -0.055160593 0.13365109
0.30625656 -0.054138884 0.13506356
-0.32519829 -0.04876497 0.13105151
0.31784657 -0.044068582 0.13161309
-0.30031624 -0.032748647 0.13243073
-0.26453194 -0.031916402 0.13290119
-0.33167428 -0.022809096 0.13068496
-0.3049472 -0.028625205 0.13398966
-0.28552696 -0.026668694 0.13735761
0.25196075 -0.027325872 0.13258302
0.31646147 -0.025025925 0.13602588
-0.2636252 -0.012765257 0.13411981
0.2567786 -0.011632306 0.13599983
0.29202929 -0.019959737 0.13132137
0.32163244 -0.018300299 0.13001728
-0.32491359 -0.0073891263 0.13467479
-0.31574538 -0.0017902335 0.13518935
0.25713584 -0.0011416492 0.13382052
0.26943064 -0.00086721568 0.13248864
-0.31053722 0.0016799761 0.13039334
0.26653525 0.0049007912 0.13114162
0.31037396 0.00039656865 0.13194427
-0.25153393 0.019826073 0.133203
-0.22368866 0.017338799 0.13302819
-0.17419524 0.018856375 0.133203
-0.086433738 0.017338799 0.13303927
-0.07725741 0.018679138 0.133203
0.17431121 0.017338799 0.13304648
0.32910728 0.017338799 0.13280852
-0.32131982 0.0212026 0.132837
-0.31476104 0.020164205 0.133203
-0.2211649 0.020232607 0.133203
0.11296769 0.0212026 0.13277389
0.13812698 0.0212026 0.13086414
0.31817812 0.020525159 0.133203
0.33042881 0.02105411 0.133203
0.29447979 -0.046993639 0.14127821
0.31203079 -0.031853445 0.14103128
0.26889336 -0.025329657 0.1417093
0.25895241 -0.010454235 0.14121215
0.27724683 -0.014511772 0.14159794
