# .PCD v0.7 - Point Cloud Data file format
VERSION 0.7
FIELDS x y z
SIZE 4 4 4
TYPE F F F
COUNT 1 1 1
WIDTH 887
HEIGHT 1
VIEWPOINT 0 0 0 1 0 0 0
POINTS 887
DATA ascii
-0.37634069 -0.025468778 -0.16016588
-0.3304894 0.016149431 -0.16254134
-0.35846239 -0.034648292 -0.15395722
-0.34015474 -0.022132868 -0.15416574
0.3202996 -0.029527843 -0.15549652
0.33947793 -0.023823066 -0.15487887
-0.37894401 -0.01468079 -0.15865174
-0.33148879 -0.018803209 -0.15886112
-0.38545859 -0.004173805 -0.15939257
-0.37709063 -0.0035680714 -0.15385851
-0.33299187 0.019769268 -0.1519087
0.301175 0.012829567 -0.15154651
-0.36112171 0.027135316 -0.15531318
0.30392441 0.021023156 -0.15520659
0.31749988 0.028136814 -0.15578175
-0.3407723 -0.015825113 -0.14848611
-0.34210798 -0.008784757 -0.14268994
0.30427551 -0.0061888127 -0.14470147
0.32468656 -0.0029846702 -0.14281425
0.34191674 -0.0082116667 -0.14587791
0.30528677 0.0054759667 -0.14424533
-0.36521775 0.025754727 -0.14762717
0.23387544 0.020223347 -0.140352
0.29914793 0.020044649 -0.14757702
0.34443629 0.02202915 -0.14712079
-0.36560395 -0.03268899 -0.13334934
0.34499693 -0.022709627 -0.13824759
-0.38163769 -0.018363301 -0.13294303
-0.32659221 -0.018328767 -0.13881235
0.31385538 -0.011480406 -0.13849616
-0.3854759 -0.0054956656 -0.13454622
-0.36261845 -0.0061615827 -0.13146178
-0.35825559 -0.0062730913 -0.13729078
-0.34828338 -0.0036729632 -0.13281932
0.29163131 -0.0051001552 -0.13195436
0.31832293 -0.0025774008 -0.13112658
0.32128692 -0.003837707 -0.1348356
-0.10895212 0.0187934 -0.13074461
0.046081267 0.0187934 -0.13916057
0.072368927 0.0187934 -0.137548
0.10430638 0.0187934 -0.13290827
0.1655589 0.0187934 -0.13099022
0.22924422 0.010869963 -0.13586859
0.24252103 0.019602181 -0.13003755
-0.26877913 0.023057636 -0.13021839
0.2423577 0.026873544 -0.13308066
-0.33506504 0.0360232 -0.13266742
-0.32977742 0.035500456 -0.13361508
-0.31428564 0.032839142 -0.13256209
0.30758485 0.032890402 -0.13724911
0.32583171 0.030645378 -0.13618863
-0.37322146 -0.020642651 -0.12439026
-0.36435729 -0.027021114 -0.1243684
-0.34342504 -0.026804144 -0.12438494
-0.32770881 -0.02020557 -0.12617941
-0.37082058 -0.013518848 -0.12368189
-0.38346338 -0.0042740796 -0.12700838
-0.37430087 -0.0090534883 -0.12384553
-0.35533714 -0.0090371463 -0.126095
-0.37006193 0.0024448405 -0.12338583
0.32019007 0.0050418251 -0.12484065
0.35414308 0.0020129003 -0.1237779
-0.23361027 0.0187934 -0.12515712
-0.16746686 0.0187934 -0.12646146
-0.14217451 0.0187934 -0.12803011
-0.103899 0.0187934 -0.12264124
-0.043322749 0.0187934 -0.1234404
-0.026630491 0.0187934 -0.12465771
0.054319147 0.0187934 -0.12469297
0.12991901 0.0187934 -0.12939256
0.1754759 0.0187934 -0.12964582
0.24020472 0.018078722 -0.12353355
0.34936222 0.016014693 -0.12997927
-0.35497972 0.022494018 -0.12440938
-0.3580544 0.0360232 -0.12578073
-0.34996343 0.033916824 -0.12590271
-0.33965349 0.0360232 -0.12502097
-0.3107233 0.031324498 -0.12527297
-0.30046976 0.0360232 -0.12381835
-0.29020143 0.032999765 -0.12336375
0.25096318 0.031401448 -0.12691928
0.34613815 0.032890335 -0.12187546
0.32673201 -0.026747469 -0.11928265
0.30683893 -0.0083470466 -0.11830211
-0.25746816 0.0187934 -0.1111475
-0.22520791 0.0187934 -0.11458727
-0.1879186 0.0187934 -0.11758152
-0.031059854 0.0187934 -0.11833493
0.0016449839 0.0187934 -0.11340879
0.083583787 0.0187934 -0.11398755
0.15713486 0.0187934 -0.11471585
0.18370368 0.0187934 -0.11154208
0.227001 0.015033386 -0.11208133
0.32136384 0.019283917 -0.11854855
0.24483225 0.024822399 -0.11309586
0.25342023 0.026770631 -0.11691843
0.31723732 0.022237351 -0.11896788
-0.3804245 0.0360232 -0.11622551
-0.37491319 0.035381451 -0.11448978
-0.36228728 0.031232094 -0.11555417
0.24904095 0.030390052 -0.11899801
0.28094 0.032890402 -0.11817892
0.35453713 0.034456886 -0.11454028
0.17937113 0.0093945898 -0.10152356
0.18716717 0.0093945898 -0.10836433
-0.25646621 0.0187934 -0.10851002
-0.22646235 0.0187934 -0.10046639
-0.11735192 0.0187934 -0.1040163
-0.063841425 0.0187934 -0.10585483
-0.053984113 0.0187934 -0.10701509
-0.0067126602 0.0187934 -0.10673462
0.076470852 0.0187934 -0.10250828
0.093784943 0.0187934 -0.10492831
0.10303751 0.0187934 -0.10682265
0.13108742 0.0187934 -0.10374593
0.17569795 0.0187934 -0.10906811
-0.27385703 0.025414301 -0.10528805
-0.36974704 0.031065635 -0.10812138
-0.33764532 0.030304052 -0.103404
0.26864928 0.037590101 -0.10541344
0.27616954 0.032890402 -0.1008155
0.28252041 0.037590101 -0.10037181
0.35448864 0.034456849 -0.10606482
0.3893196 0.032890402 -0.10566019
0.1661621 0.0093945898 -0.091402471
0.19728543 0.0093945898 -0.092269428
0.22724387 0.00955432 -0.096927024
0.33207732 0.0039152363 -0.091941997
-0.17416863 0.0187934 -0.095259711
-0.15119825 0.0187934 -0.096197084
-0.094915405 0.0187934 -0.09270294
-0.067945689 0.0187934 -0.091440827
0.0024992675 0.0187934 -0.096445374
0.022300672 0.0187934 -0.094838694
0.047527257 0.0187934 -0.092153795
0.090904944 0.0187934 -0.094773158
0.12470463 0.0187934 -0.091184177
0.20414808 0.0187934 -0.091636278
0.22695407 0.0187934 -0.098629303
0.23383509 0.013889397 -0.091408558
-0.41200113 0.032152943 -0.091237485
-0.40448999 0.031141276 -0.09031716
-0.31347793 0.030062595 -0.095875867
0.28978187 0.032890402 -0.094769858
0.29527807 0.037590101 -0.096347801
0.30143276 0.032890402 -0.099823564
0.32659149 0.032890096 -0.094681896
0.36121711 0.032890178 -0.092671797
0.38204277 0.037590101 -0.094137631
0.32661292 -0.0037845969 -0.088284232
0.16349196 0.0093945898 -0.086454704
0.20672596 0.0093945898 -0.087514222
0.30322441 0.0022493685 -0.081794873
0.34384108 0.001139145 -0.084321901
-0.24165429 0.0187934 -0.089349285
0.066509023 0.0187934 -0.080739021
0.097614475 0.0187934 -0.08157786
0.11739054 0.0187934 -0.086012065
0.13341865 0.0187934 -0.082128853
0.14073975 0.0187934 -0.08176852
0.15554778 0.0187934 -0.087735474
0.16050003 0.0187934 -0.084575541
0.22656889 0.0187934 -0.084535301
0.23166336 0.01246104 -0.084151484
-0.26863104 0.022988908 -0.088517137
-0.40344691 0.036023203 -0.08241044
-0.36895815 0.0360232 -0.080892652
-0.30454922 0.0360232 -0.082040653
-0.28908283 0.032480616 -0.087425478
0.262725 0.033121664 -0.08069586
0.3027384 0.032890402 -0.08526884
0.32643625 0.032890044 -0.087527066
0.33559388 0.037590101 -0.084261611
0.34846479 0.037590101 -0.087707125
0.35629731 0.032890074 -0.084285624
0.37180108 0.032890402 -0.08094357
0.38832286 0.032890402 -0.082308397
0.39251626 0.037590101 -0.085468464
0.40802523 0.032890402 -0.089558549
0.42613733 0.034263983 -0.088760376
-0.37276468 -0.002634862 -0.071723305
0.3260757 -0.0038038415 -0.07154417
0.34045449 -0.001727425 -0.078998275
0.13287717 0.0093945898 -0.07352867
-0.21767603 0.0187934 -0.078057572
-0.13892367 0.0187934 -0.072313458
-0.094833001 0.0187934 -0.079413444
-0.04421537 0.0187934 -0.073036082
-0.014064718 0.0187934 -0.075640321
0.0023541227 0.0187934 -0.075702086
0.081062421 0.0187934 -0.075937845
0.18573651 0.0187934 -0.070898876
0.22668906 0.0187934 -0.078101039
-0.36883947 0.029625341 -0.076069847
-0.33507991 0.028808579 -0.07353238
-0.40338618 0.030724719 -0.079154193
-0.38494316 0.0360232 -0.077466972
-0.35381728 0.0360232 -0.07918103
0.29132128 0.037590101 -0.073289365
0.34235963 0.037590101 -0.074335456
0.36890352 0.032890402 -0.071652219
0.37983578 0.032890402 -0.073031604
0.40271443 0.032890402 -0.079702206
0.43122041 0.032890402 -0.072323576
-0.37278989 -0.00631015 -0.064116538
0.33305171 -0.0032907287 -0.068113387
0.13971218 0.0093945898 -0.065555468
0.1744131 0.0093945898 -0.06229265
0.2054445 0.0093945898 -0.067259245
0.3436892 0.0013559521 -0.066889837
-0.17943074 0.0187934 -0.063288987
-0.14833817 0.0187934 -0.060009446
-0.11327031 0.0187934 -0.063560978
-0.00811667 0.0187934 -0.066196159
0.0011929944 0.0187934 -0.063196771
0.16440037 0.0187934 -0.066859394
0.21627268 0.0187934 -0.060746051
0.22700101 0.011224542 -0.065847814
-0.36232048 0.029153571 -0.068637967
-0.35884738 0.028915776 -0.064984187
-0.31691593 0.028247699 -0.066263214
-0.2642765 0.020967945 -0.066815525
-0.4085657 0.0360232 -0.067923263
-0.377321 0.0360232 -0.064449981
0.27938721 0.032890402 -0.066779181
0.28495699 0.032890402 -0.060025539
0.29799727 0.037590101 -0.06797599
0.37505776 0.035240252 -0.064818896
0.38939363 0.037590101 -0.06618803
0.40553558 0.032890402 -0.062137831
0.34209275 -0.0010364455 -0.051100049
0.17001215 0.0093945898 -0.050904319
-0.22800538 0.0187934 -0.057468392
-0.18311198 0.0187934 -0.053036749
-0.13974907 0.0187934 -0.051381517
-0.057307608 0.0187934 -0.053225689
-0.023190062 0.0187934 -0.052441113
-0.0091534182 0.0187934 -0.057951361
0.0026022792 0.0187934 -0.056137159
0.090136968 0.0187934 -0.056012258
0.10730789 0.0187934 -0.053552657
0.13876921 0.0187934 -0.059335209
0.14973718 0.0187934 -0.050680123
0.20148097 0.0187934 -0.059481878
0.21421073 0.0187934 -0.051502824
0.23222321 0.012829272 -0.050276469
-0.37699577 0.029149704 -0.056200322
-0.36200869 0.028593499 -0.053005982
-0.3232525 0.027708257 -0.05394914
-0.43844566 0.031135092 -0.053392027
-0.41766608 0.030508941 -0.057422366
0.26519656 0.032890402 -0.055393934
0.28668886 0.032890402 -0.058281805
0.32537913 0.037590101 -0.059236091
0.3324253 0.032889817 -0.055628847
0.36236238 0.035240166 -0.052846603
0.38216001 0.037590101 -0.053376712
0.43632972 0.032890402 -0.055564731
0.45239508 0.037590101 -0.057059333
0.32844219 -0.0037190667 -0.043146987
0.082820296 0.0093945898 -0.044491217
0.33103448 0.0051646675 -0.049161598
-0.24952279 0.0187934 -0.046196967
-0.18169834 0.0187934 -0.049497955
-0.13086364 0.0187934 -0.043694895
-0.068495341 0.0187934 -0.046934016
0.045945548 0.0187934 -0.045960076
0.21660098 0.0187934 -0.044442825
-0.40290213 0.029675694 -0.041777261
-0.38069004 0.029063884 -0.048826169
-0.36725336 0.02856157 -0.046788961
-0.41063008 0.0360232 -0.0443983
-0.36199489 0.0360232 -0.046139278
0.26292163 0.037590101 -0.046738014
0.28879622 0.037590101 -0.045308471
0.29141849 0.037590101 -0.043127142
0.3348802 0.037590101 -0.040369909
0.34244788 0.037590101 -0.047421422
0.36245117 0.032890242 -0.048526715
0.37701967 0.032890402 -0.048722874
0.39849967 0.037590101 -0.044572987
-0.35846418 -0.00853993 -0.031985804
0.30505958 -0.00034630735 -0.030244432
-0.37208861 0.0033428529 -0.032651007
0.062057212 0.0093945898 -0.033488359
0.1882202 0.0093945898 -0.037334882
0.32440186 0.005517615 -0.039675649
-0.3877973 0.014244251 -0.032256145
-0.3160812 0.018439993 -0.032839701
-0.25392562 0.0187934 -0.033202477
-0.22887005 0.0187934 -0.035135783
-0.19385098 0.0187934 -0.03514564
-0.15087079 0.0187934 -0.035407126
-0.068055734 0.0187934 -0.03943776
-0.032071956 0.0187934 -0.030852254
-0.0034675859 0.0187934 -0.036460992
0.0079688001 0.0187934 -0.035425156
0.037230432 0.0187934 -0.036880244
0.11295618 0.0187934 -0.031372149
0.18947807 0.0187934 -0.036310904
0.19170301 0.0187934 -0.030426655
0.21809617 0.0187934 -0.037324414
-0.40103441 0.029538952 -0.038304854
-0.33832321 0.026833976 -0.03304233
-0.32329407 0.026934179 -0.037795201
0.23866796 0.024932148 -0.035330892
0.24121304 0.026271271 -0.038525306
0.31220293 0.026511505 -0.030506
0.351825 0.024847606 -0.030506
0.36530399 0.028609864 -0.030435443
-0.44698298 0.030730508 -0.034254197
-0.35428542 0.0360232 -0.032245189
-0.3326579 0.0360232 -0.03205169
-0.29668766 0.036010049 -0.036242247
0.28296962 0.037590101 -0.035658713
0.30638212 0.031869236 -0.03409541
0.31071147 0.032890402 -0.038090356
0.32082611 0.032889631 -0.033225119
0.35198852 0.037590101 -0.033744797
0.42699289 0.035240252 -0.032226074
0.4575856 0.037590101 -0.030253045
0.4654091 0.034108952 -0.031043401
-0.36991045 -0.0049888934 -0.021126602
-0.33578485 -0.0069197249 -0.026405316
0.30723548 -0.0022020875 -0.021242537
0.31080842 -0.0029511149 -0.028530519
0.033458881 0.0093945898 -0.026895583
0.095267214 0.0093945898 -0.026962958
0.12521583 0.0093945898 -0.027297271
0.19426662 0.0093945898 -0.020141535
-0.38162053 0.010197141 -0.021032117
-0.29886651 0.019523093 -0.024310363
-0.22516982 0.0187934 -0.02101538
-0.12441243 0.0187934 -0.023898084
-0.052691437 0.0187934 -0.022275332
-0.034315161 0.0187934 -0.025296992
-0.023392722 0.0187934 -0.020329382
-0.012011476 0.0187934 -0.023045722
0.00037912093 0.0187934 -0.021013649
0.18608519 0.0187934 -0.027688261
0.2155965 0.0187934 -0.023915749
0.28509092 0.016086435 -0.02180909
0.35374975 0.014699969 -0.027278518
-0.42611626 0.028959777 -0.027723968
-0.30010396 0.021173261 -0.027167106
0.24814315 0.023299869 -0.021092124
0.36408147 0.0256707 -0.023037696
-0.30401284 0.031108178 -0.026047999
0.30016127 0.032890402 -0.029835302
0.33001533 0.037590101 -0.028463598
0.37885189 0.037590101 -0.021394042
0.43868476 0.035240252 -0.022062322
0.45606887 0.032890402 -0.027951956
-0.37066263 -0.0025284204 -0.016286789
-0.36699137 -0.00086602417 -0.01932193
-0.34266481 -0.0084633231 -0.012582636
-0.32633075 -0.0017869046 -0.013542984
0.31945968 -0.0037940876 -0.015046325
-0.37449086 0.004932058 -0.015201904
-0.31831503 0.0023728297 -0.012297397
0.007709601 0.0093945898 -0.011673826
0.038319357 0.0093945898 -0.012756634
0.066552445 0.0093945898 -0.014454782
0.16790125 0.0093945898 -0.016141023
0.18018706 0.0093945898 -0.011216659
0.29644218 0.0031379156 -0.011327997
0.3285751 0.0037049446 -0.01714889
0.34091404 0.0076165209 -0.018293485
-0.37629575 0.015597375 -0.014265744
-0.30464464 0.016525125 -0.011988115
-0.23732772 0.0187934 -0.010259874
-0.19339575 0.0187934 -0.017593369
-0.12938836 0.0187934 -0.01423962
-0.079921581 0.0187934 -0.016947091
-0.0684174 0.0187934 -0.012921114
0.0022989661 0.0187934 -0.016780194
0.096627995 0.0187934 -0.019117331
0.10781448 0.0187934 -0.01935518
0.13954096 0.0187934 -0.011750657
0.14036559 0.0187934 -0.013059694
0.15799198 0.0187934 -0.012687407
0.22846517 0.010357584 -0.013154289
0.23337395 0.013586107 -0.014652044
0.33470982 0.012200826 -0.017174773
-0.30683273 0.023095701 -0.015130659
-0.29777178 0.02009121 -0.01624264
-0.2686421 0.022994027 -0.015855264
-0.43546396 0.0360232 -0.01827218
-0.38236165 0.0360232 -0.015517369
-0.31151381 0.0360232 -0.019238792
0.32174811 0.032889511 -0.017146092
0.41766757 0.037590101 -0.019761246
0.42139551 0.035240252 -0.017309511
-0.35899097 -0.0090335635 -0.0068654902
-0.33473444 -0.002313189 -0.0030775152
-0.31815755 0.0059262803 -0.0070310114
0.040318199 0.0093945898 -0.0066326968
0.069753051 0.0093945898 -0.0086434595
0.095930018 0.0093945898 -0.007352747
0.14916544 0.0093945898 -0.0071222745
0.1519466 0.0093945898 -0.0014010612
0.22788687 0.0099772345 -0.0075393124
0.28661627 0.0098356726 -0.0032055599
0.32030433 0.0054844143 -0.0081257969
-0.39363199 0.018360963 -0.0016462469
-0.37223804 0.011858271 -0.0038982686
-0.31674945 0.010244269 -0.006047287
-0.3071081 0.015246907 -0.0024004099
-0.089626439 0.0187934 -0.0076319985
-0.076984361 0.0187934 -0.0051079905
-0.065492257 0.0187934 -0.0044071451
0.067161128 0.0187934 -0.0064671822
0.085772604 0.0187934 -0.0022163121
0.097813576 0.0187934 -0.007732084
0.10640084 0.0187934 -0.0099526569
0.227001 0.014899038 -0.0076794475
-0.39376804 0.0203593 -0.0088291708
0.36530399 0.026184034 -0.0047239028
-0.45572743 0.033392943 -0.0050152177
-0.36897802 0.0360232 -0.0088869072
0.26093742 0.036649548 -0.0044360161
0.29454762 0.035240252 -0.0034439769
0.31078118 0.032890402 -0.0084261149
0.41057083 0.037590101 -0.0073108589
0.42120752 0.037590101 -0.0072563048
0.44061744 0.032890402 -0.0082605304
0.45791137 0.032890402 -0.0033668354
-0.39209342 0.005805999 0.0012983575
-0.38416129 0.0031290497 0.0023712693
0.0086909458 0.0093945898 0.0026045553
0.025986318 0.0093945898 0.0047219214
0.071564615 0.0093945898 0.005475983
0.082797348 0.0093945898 0.0033766218
0.22235316 0.0093945898 0.0072251833
0.29625946 0.0032330626 0.0051575014
-0.17844643 0.0187934 0.009556625
-0.13756919 0.0187934 0.0076949764
-0.037394837 0.0187934 0.0060105789
0.0052562356 0.0187934 0.0046356916
0.064734876 0.0187934 0.0051510669
0.16402036 0.0187934 0.0015409477
0.34609306 0.012760741 0.0096291322
0.36198297 0.010689817 0.006261663
-0.42987573 0.0290855 0.0016381089
0.25241539 0.026109735 0.0058947802
-0.46559361 0.033959717 0.0032702647
-0.45536634 0.0360232 0.00021062791
-0.3958343 0.0360232 0.0022381451
-0.37706131 0.0360232 0.0041903108
-0.3308205 0.0360232 0.0048235534
-0.30204025 0.031324498 0.0047128238
0.2569972 0.031983614 0.0048612282
0.26664191 0.037590101 0.0077004656
0.34575993 0.037590101 0.0023170952
0.39879951 0.032890402 0.0074506514
0.42451191 0.037590101 0.0019071139
0.44270325 0.035240252 0.007787101
-0.36929533 -0.0037565439 0.016061664
-0.35647851 -0.0057735518 0.018281559
-0.33779991 -0.0029214495 0.010477725
0.30483729 -0.0012180252 0.018381182
-0.36378726 0.0015649276 0.016801842
0.048397541 0.0093945898 0.013014691
0.09051428 0.0093945898 0.011494074
0.19999877 0.0093945898 0.014495585
0.20304544 0.0093945898 0.010922525
0.22700101 0.0095912442 0.017244987
0.29324955 0.0047948617 0.01921656
0.34533757 0.0051752329 0.014055582
-0.37546453 0.012568563 0.011684857
-0.24462318 0.0187934 0.01621671
-0.088793397 0.0187934 0.018831603
-0.050835263 0.0187934 0.017129971
-0.044844903 0.0187934 0.013187658
-0.026946612 0.0187934 0.011403043
-0.0015795082 0.0187934 0.015458465
0.12802726 0.0187934 0.013802322
0.21086307 0.0187934 0.010740735
-0.31306201 0.027905503 0.015149713
-0.27473545 0.025821971 0.012894915
0.23706153 0.024086904 0.010332569
0.25757864 0.029505625 0.018969551
0.27687985 0.02034772 0.019342417
0.36530399 0.029106569 0.011070548
-0.45634216 0.031236969 0.01555419
-0.32446924 0.0360232 0.012855107
-0.29836917 0.031324498 0.015353084
0.28961998 0.037590101 0.011696503
0.31535399 0.037590101 0.018372051
0.32260278 0.037590101 0.012878843
0.34994811 0.037590101 0.014095467
0.35482758 0.037590101 0.011787593
-0.37427533 -0.0050563966 0.020770576
-0.36743343 -0.002818319 0.022731848
-0.33791825 -0.0026933651 0.020769149
-0.37024093 0.0063885064 0.026683997
-0.36424273 0.0027975882 0.026683999
-0.037708297 0.0093945898 0.025022542
-0.0010191426 0.0093945898 0.020803381
0.05529163 0.0093945898 0.026649199
0.11805123 0.0093945898 0.029114347
0.20085233 0.0093945898 0.024475139
-0.32851362 0.014250525 0.026683997
-0.30241472 0.017682014 0.020354034
-0.25038627 0.0187934 0.02110423
-0.2289651 0.0187934 0.023650872
-0.21403034 0.0187934 0.025747262
-0.17095095 0.0187934 0.027667305
-0.13204461 0.0187934 0.023742028
-0.084249198 0.0187934 0.029895186
0.0042725829 0.0187934 0.025950912
0.014836317 0.0187934 0.028929595
0.02562286 0.0187934 0.020607505
0.06164185 0.0187934 0.023704465
0.07586848 0.0187934 0.027389444
0.12650244 0.0187934 0.022677874
0.22792202 0.01469611 0.028006082
0.32374689 0.013818886 0.029017698
0.35755101 0.01690316 0.023399981
-0.37600863 0.021966921 0.026683999
0.25393823 0.02711132 0.02102983
0.27246127 0.022640161 0.02314481
-0.45290276 0.031077098 0.022883618
-0.44991636 0.03087822 0.025333406
-0.43284616 0.0360232 0.020253751
-0.4055624 0.0360232 0.027367264
-0.39793146 0.0360232 0.026504613
-0.38330546 0.0360232 0.028577913
-0.36097613 0.0360232 0.026959617
-0.29672545 0.031324498 0.029519551
0.262725 0.035721321 0.0207041
0.28284186 0.032890402 0.027599294
0.36640406 0.032890402 0.025027474
0.38654089 0.037590101 0.027685046
0.40550315 0.037590101 0.028913189
0.41609064 0.037590101 0.02115418
0.44406632 0.032890402 0.026749255
0.46545091 0.034217782 0.027564375
-0.36661315 -0.00080401194 0.039461359
-0.35966915 -0.0090062255 0.03407795
-0.34017339 -0.0009152682 0.038317326
-0.33572197 -0.0068879235 0.03326115
-0.071903482 0.0093945898 0.032619368
0.053704262 0.0093945898 0.032859117
0.15353818 0.0093945898 0.035511233
-0.25474823 0.0187934 0.034898456
-0.21167578 0.0187934 0.030875124
-0.12631266 0.0187934 0.035319746
-0.045388613 0.0187934 0.034704808
-0.021302644 0.0187934 0.039216209
0.023611873 0.0187934 0.035530906
0.11879978 0.0187934 0.039192919
-0.32248598 0.027053308 0.035909615
0.24514306 0.02833911 0.032106861
-0.46279812 0.0360232 0.032682903
-0.45637083 0.032113735 0.030019207
-0.41881859 0.0360232 0.034545925
-0.31659308 0.0360232 0.030560743
0.26845479 0.032890402 0.039859783
0.30148306 0.037590101 0.037962779
0.32955933 0.037590101 0.035457473
0.38446885 0.032890402 0.036270052
0.39741638 0.037590101 0.034961611
0.42616445 0.032890402 0.039089449
0.431209 0.037590101 0.034529738
0.44828445 0.032890402 0.03102502
-0.34652454 -6.3822954e-05 0.041920856
-0.033666082 0.0093945898 0.049392384
0.0059402175 0.0093945898 0.041818794
0.15757057 0.0093945898 0.044077091
0.21555087 0.0093945898 0.046361789
-0.20864812 0.0187934 0.042189937
-0.15117662 0.0187934 0.044083115
-0.12098388 0.0187934 0.049743712
-0.025884876 0.0187934 0.041113943
-0.0095793903 0.0187934 0.045579202
0.00073987246 0.0187934 0.044114083
0.22124989 0.0187934 0.047449581
0.23792645 0.016580304 0.042113848
-0.39790395 0.028854394 0.045502305
0.23739189 0.024260718 0.045578882
0.24477066 0.02814316 0.042726979
-0.44309542 0.031324498 0.045387313
-0.41081896 0.0360232 0.046811968
-0.4027108 0.0360232 0.041790254
0.25268045 0.032305013 0.042220406
0.32144582 0.035239577 0.042181842
0.39901242 0.037590101 0.043687254
0.42822987 0.037590101 0.04306769
0.43712381 0.036023535 0.045702379
-0.37405589 -0.0055288984 0.05813114
-0.35168386 -0.0091435537 0.056330584
-0.33778775 -0.0014431676 0.053546786
-0.09374658 0.0093945898 0.056024682
0.1647916 0.0093945898 0.052148007
-0.24469148 0.0187934 0.054185718
-0.15260559 0.0187934 0.054854192
-0.05921182 0.0187934 0.050878525
-0.034685872 0.0187934 0.054528665
0.049507149 0.0187934 0.052785274
0.072562508 0.0187934 0.051470373
0.24037275 0.018189251 0.052048124
-0.39873171 0.02947405 0.050564546
-0.35293415 0.027854461 0.053158164
-0.44608656 0.032847315 0.05285351
-0.38183421 0.0360232 0.05038517
-0.35094658 0.0360232 0.058471609
0.26521742 0.037292123 0.054803137
0.33321512 0.03288896 0.059160925
0.40594479 0.032890402 0.058507469
0.43157971 0.032890402 0.055619251
-0.33632958 -0.0070843212 0.061063733
-0.120775 0.0093945898 0.063980579
-0.058920864 0.0093945898 0.064359322
-0.026270546 0.0093945898 0.067703828
0.036785349 0.0093945898 0.069043852
0.059497304 0.0093945898 0.069286801
0.32460564 0.0055014016 0.066745967
0.33985659 0.0035951459 0.061043747
-0.26207349 0.019945526 0.063287929
-0.24527194 0.0187934 0.066430807
-0.20797238 0.0187934 0.06167189
-0.18425561 0.0187934 0.063570008
-0.17885897 0.0187934 0.060441777
-0.096517622 0.0187934 0.06834539
-0.060697496 0.0187934 0.066976063
-0.026448168 0.0187934 0.066304274
0.019115102 0.0187934 0.064879023
0.14871202 0.0187934 0.066939786
0.1687104 0.0187934 0.064982504
-0.36851996 0.029276019 0.066769689
-0.35255727 0.028314801 0.06306915
0.23976278 0.025508203 0.069812045
-0.41722712 0.034456965 0.065742925
-0.3045738 0.034184128 0.063786037
-0.296716 0.033264939 0.065106705
0.25917947 0.035724565 0.066679545
0.2880615 0.037590101 0.062025666
0.2903499 0.037590101 0.064238846
0.3041366 0.037590101 0.06733752
0.34793296 0.037590101 0.060016647
0.35533887 0.03288988 0.060623027
0.42878568 0.032890402 0.06467364
-0.35819536 -0.0090618264 0.075905889
-0.35633415 0.00017508812 0.074665159
0.064351663 0.0093945898 0.072048798
0.087287866 0.0093945898 0.071813799
0.10238087 0.0093945898 0.074843414
0.157198 0.0093945898 0.076570645
0.30941087 0.004373475 0.077884339
-0.2206569 0.0187934 0.07806278
-0.17727384 0.0187934 0.075208172
-0.054938622 0.0187934 0.070062257
-0.016527783 0.0187934 0.07006187
0.063217439 0.0187934 0.071036659
0.11589842 0.0187934 0.073145442
0.12798893 0.0187934 0.079091437
0.1553787 0.0187934 0.077291831
0.17727128 0.0187934 0.070974916
0.18887474 0.0187934 0.075749964
-0.35429657 0.029232891 0.074848041
-0.2803759 0.028439719 0.072205208
-0.42128801 0.0360232 0.071974032
-0.39371282 0.031324498 0.070681617
-0.32508183 0.0360232 0.079037197
0.26154992 0.035555501 0.076803736
0.27483001 0.032890402 0.071112186
0.297777 0.035240252 0.073719323
0.34190354 0.035239674 0.075008705
0.37837204 0.032890402 0.076745659
0.3828488 0.032890402 0.0730744
0.41774571 0.037590101 0.076497912
-0.37459865 -0.004361378 0.08059179
0.34350538 -3.3866247e-05 0.086584367
-0.34915677 0.00010859106 0.083065957
-0.15794086 0.0093945898 0.088193849
-0.05245287 0.0093945898 0.087600589
0.020548843 0.0093945898 0.086702861
0.032865182 0.0093945898 0.081744663
0.34255564 0.0014612791 0.086690694
-0.25419691 0.0187934 0.081945293
-0.24072407 0.0187934 0.085591115
-0.18511912 0.0187934 0.086426675
-0.17403871 0.0187934 0.085193612
-0.16141348 0.0187934 0.082027502
-0.06000597 0.0187934 0.087390393
-0.0034328699 0.0187934 0.084146753
0.21427977 0.0187934 0.087253593
-0.33688384 0.029688068 0.089291565
0.24409097 0.027785528 0.083915815
0.25790417 0.029719718 0.086046696
-0.41017115 0.031324498 0.086906433
-0.35447153 0.0360232 0.08079958
-0.33472803 0.0360232 0.089469984
-0.31831807 0.0360232 0.083544888
-0.28530651 0.030728035 0.084333293
0.27257699 0.032890402 0.08020366
0.28026468 0.032890402 0.084891073
0.29080763 0.032890402 0.084344201
0.31062657 0.037590101 0.081165455
0.33908385 0.032889057 0.086802199
0.38510948 0.037590101 0.084654324
0.41354495 0.035240252 0.085728697
0.42246425 0.037590101 0.083415128
-0.15910737 0.0093945898 0.098605067
-0.1207042 0.0093945898 0.097799942
-0.063856058 0.0093945898 0.095691159
-0.059569232 0.0093945898 0.098005474
0.042551897 0.0093945898 0.098866642
0.051435836 0.0093945898 0.097496897
0.083377182 0.0093945898 0.096677199
0.14689404 0.0093945898 0.090303123
0.17600848 0.0093945898 0.094804414
0.18992396 0.0093945898 0.09715493
0.20311964 0.0093945898 0.092067868
-0.23171701 0.0187934 0.095616318
-0.15169452 0.0187934 0.095922038
-0.14010465 0.0187934 0.098585472
-0.13031784 0.0187934 0.091319934
-0.10763899 0.0187934 0.091684297
-0.018777065 0.0187934 0.092806458
-0.00010784715 0.0187934 0.099810705
0.065189242 0.0187934 0.091566481
0.15940548 0.0187934 0.093934938
0.21840134 0.0187934 0.096065849
0.22865458 0.019663459 0.094781242
-0.27771595 0.027205225 0.092482626
0.24467182 0.028091155 0.097334117
-0.39994577 0.032251589 0.097880095
-0.38696772 0.031324498 0.096789926
-0.37124562 0.031324498 0.098354742
-0.36072785 0.031324498 0.09851791
-0.3346346 0.0360232 0.097882047
-0.31307122 0.0360232 0.096775234
-0.30066672 0.0360232 0.09174417
-0.29758999 0.031324498 0.098605461
0.27488601 0.032890402 0.098604649
0.30548292 0.035240252 0.093492188
0.31218836 0.032890402 0.091588348
0.35382381 0.035240002 0.091824174
0.36484107 0.032890361 0.094455861
-0.16005792 0.0093945898 0.10243772
-0.15709141 0.0093945898 0.10695108
-0.11150319 0.0093945898 0.10983376
0.022553541 0.0093945898 0.10574539
0.1349692 0.0093945898 0.10924453
0.14982007 0.0093945898 0.10147255
-0.25758216 0.0187934 0.10098545
-0.18634987 0.0187934 0.10266787
-0.16976891 0.0187934 0.10784587
-0.07798779 0.0187934 0.10745308
-0.031850182 0.0187934 0.10589102
0.0037610382 0.0187934 0.10076536
0.059605449 0.0187934 0.10065545
0.11685584 0.0187934 0.10708137
0.12338319 0.0187934 0.10600944
0.13090497 0.0187934 0.1030218
0.2100018 0.0187934 0.10222299
-0.27641451 0.026601233 0.10459927
0.23617652 0.023621229 0.10469899
-0.33666921 0.031149125 0.10410668
-0.30884674 0.030266358 0.10508557
0.26363686 0.032890402 0.10587454
-0.36826217 -0.03446335 0.11847848
-0.35232866 -0.024050951 0.11155632
-0.32846382 -0.019053848 0.11284669
-0.35905346 -0.0076064733 0.113184
-0.36067992 0.00059788954 0.11318399
-0.35311234 0.0024096454 0.11192541
-0.32552141 0.0045354483 0.11889971
-0.14395872 0.0093945898 0.11225815
-0.112295 0.0093945898 0.11203764
-0.083116964 0.0093945898 0.11440345
-0.046707012 0.0093945898 0.11124635
-0.019159935 0.0093945898 0.113938
0.087825321 0.0093945898 0.11954789
0.12672445 0.0093945898 0.11812812
0.13265489 0.0093945898 0.11817146
0.20925596 0.0093945898 0.11808804
-0.33971766 0.015988626 0.11253589
-0.22626312 0.0187934 0.11422667
-0.18861276 0.0187934 0.1158723
-0.13854639 0.0187934 0.1105543
-0.070862383 0.0187934 0.11230303
-0.06708134 0.0187934 0.11769701
-0.022830166 0.0187934 0.11489876
-0.0091070682 0.0187934 0.11318762
0.083408415 0.0187934 0.11395045
0.098902844 0.0187934 0.11665741
0.1319059 0.0187934 0.11244655
0.2276352 0.019339778 0.11908646
0.23184882 0.021344151 0.11581956
0.24125192 0.026291728 0.11675838
0.25228402 0.026023336 0.11551875
-0.35290012 0.0360232 0.11592132
-0.33855522 0.031324498 0.1174264
-0.2901679 0.032984201 0.11527092
0.262725 0.036671348 0.11425128
0.28622532 0.032890402 0.11267623
0.35285339 0.037590101 0.11238032
0.37337834 0.037590101 0.11011869
0.38167143 0.032890402 0.11237642
0.31274962 -0.011027995 0.12321675
0.3449558 -0.019359179 0.1296351
0.30042449 -0.0083385063 0.12412699
-0.24259019 0.0093945898 0.12852697
-0.22110376 0.0093945889 0.12019598
-0.096613482 0.0093945898 0.1282289
0.024238773 0.0093945898 0.12801853
0.078154683 0.0093945898 0.12958032
0.11193633 0.0093945898 0.12069
0.18707313 0.0093945898 0.1223939
0.19350868 0.0093945898 0.12050555
-0.33458358 0.017768439 0.12068642
-0.20796794 0.0187934 0.12339205
-0.18104535 0.0187934 0.12720756
-0.15943602 0.0187934 0.12409993
-0.14342588 0.0187934 0.12142825
-0.098832123 0.0187934 0.12516211
0.041368641 0.0187934 0.12966828
0.10323744 0.0187934 0.12529944
0.13671544 0.0187934 0.12269957
0.34328604 0.024281453 0.12692118
-0.3316586 0.031324498 0.12160291
-0.30135405 0.031115841 0.12323618
-0.28855634 0.032236278 0.12858909
0.27593428 0.037590101 0.1226766
0.2850295 0.032890402 0.12565848
0.31876826 0.030567266 0.12475722
0.32513052 0.032888599 0.12357829
-0.36227208 -0.023134854 0.13689035
-0.33823341 -0.015043 0.1373547
-0.35359883 -0.0040684124 0.13742219
0.35231301 -0.0049424432 0.13650914
-0.34237862 0.0054175206 0.13516739
-0.21572514 0.0093945898 0.13623299
-0.093408495 0.0093945898 0.13691461
-0.036311693 0.0097506661 0.13709101
-0.0037582517 0.0093945898 0.13141522
0.031092092 0.0093945898 0.13579088
0.073241204 0.0093945898 0.13371223
0.12738526 0.009937685 0.137091
0.29042327 0.0045837592 0.13444093
0.31512374 0.0018239926 0.138382
0.32579833 0.0034923595 0.13981262
-0.35665333 0.014242536 0.13882861
-0.24865915 0.0187934 0.13521393
-0.21243881 0.0187934 0.13583995
-0.20235479 0.010589914 0.137091
-0.19706085 0.0187934 0.13348866
-0.17346802 0.0187934 0.13603787
-0.15679994 0.0187934 0.13630962
-0.12268578 0.01518149 0.13390726
-0.10634939 0.017539257 0.13639838
-0.0014982549 0.014849157 0.137091
0.095430396 0.0187934 0.13368648
0.12708923 0.0187934 0.13166544
0.20843521 0.013500199 0.137091
-0.37218907 0.020365328 0.13557564
0.34255496 0.025032058 0.13014627
-0.30754465 0.033855397 0.1318209
-0.29168049 0.031733539 0.13270932
0.31623715 0.035173237 0.13386977
0.29245031 -0.010322361 0.14482871
0.31939763 -0.016028481 0.14792767
-0.38660765 -0.0067507494 0.14491515
-0.38218644 0.00998565 0.14422825
0.32663313 0.0012555164 0.1468918
0.35293984 0.00090707291 0.14286178
-0.3611733 0.015389216 0.14092192
-0.33734983 0.019824669 0.14501019
0.31449708 0.018008921 0.14800838
0.32887906 0.015458642 0.14547031
0.31867278 -0.023376236 0.15625611
0.29423887 -0.0038317158 0.15587699
0.29655927 0.0091109294 0.1575205
0.33844146 0.018526599 0.15485302
-0.36020967 0.024874421 0.15124303
0.29984248 0.024111871 0.15648969
0.33957389 0.023459053 0.15969498
0.34446084 0.02307523 0.1583008
0.3098942 -0.027583553 0.16192065
0.29177696 0.0045188698 0.16177353
0.29448509 0.01541118 0.16205625
0.3023192 0.026525173 0.16234151
0.312428 0.029057914 0.16057223
0.34341735 0.024084698 0.1633268
