# .PCD v0.7 - Point Cloud Data file format
VERSION 0.7
FIELDS x y z
SIZE 4 4 4
TYPE F F F
COUNT 1 1 1
WIDTH 904
HEIGHT 1
VIEWPOINT 0 0 0 1 0 0 0
POINTS 904
DATA ascii
-0.14859071 0.031604983 -0.15327242
-0.064878806 0.034363724 -0.15572545
-0.012568355 0.03137181 -0.15064909
0.0505125 0.031435579 -0.15164334
0.072858147 0.031375602 -0.15070081
0.11522826 0.038111877 -0.15920858
0.12494624 0.033210758 -0.15674342
-0.33842498 0.043464061 -0.15022951
-0.13216552 0.047760077 -0.15519583
-0.11896202 0.047331765 -0.1556139
-0.021496054 0.044227641 -0.15794307
-0.00948436 0.047541603 -0.15711233
0.051109158 0.043995164 -0.15882564
0.090843201 0.04279799 -0.15930536
0.13448693 0.044985801 -0.15572488
0.16900732 0.040078476 -0.1581876
0.18769166 0.048889183 -0.15525991
-0.2300995 0.050346252 -0.15148088
-0.20912495 0.051325604 -0.15123801
0.1398474 0.051027119 -0.15580156
-0.21328583 0.036156729 -0.14864518
-0.16330935 0.033786964 -0.14846575
-0.094526388 0.030919529 -0.14350846
-0.025452845 0.031084005 -0.14610296
0.13416046 0.030946111 -0.14392969
-0.35568336 0.047911815 -0.14927313
0.22362345 0.047500521 -0.1491131
0.27649367 0.043672141 -0.14802375
-0.30105674 0.051914304 -0.14194998
-0.16279745 0.05104968 -0.14045882
-0.12068826 0.051086254 -0.14746135
-0.053783 0.051038288 -0.14670204
-0.04803317 0.050973792 -0.1456911
-0.03514703 0.050981965 -0.1458118
0.04353781 0.050629795 -0.14026001
0.091521122 0.051580057 -0.14883086
0.10577245 0.051224127 -0.14964053
0.1395971 0.051609948 -0.14931013
0.17319612 0.051182061 -0.14897968
0.18317389 0.051593021 -0.14904195
0.20197199 0.051021125 -0.14000916
0.21446157 0.051223498 -0.14534341
0.23149475 0.050852884 -0.14377806
-0.39773524 0.062530734 -0.14087304
-0.36980629 0.039616875 -0.13054666
-0.34136558 0.036185201 -0.13678527
-0.28316116 0.030561212 -0.13408259
-0.17355742 0.038408227 -0.13500923
0.061938554 0.030485749 -0.13666907
0.12998345 0.030514224 -0.13711801
0.1512211 0.030220242 -0.13181113
0.17795783 0.0306041 -0.13853584
0.24920462 0.030519791 -0.13720746
0.32698637 0.030413659 -0.13404135
-0.37486643 0.040596273 -0.13642436
-0.26986319 0.047703698 -0.13569833
-0.20976686 0.047262646 -0.13902131
0.31955838 0.046818625 -0.13395062
0.32672819 0.042096116 -0.1371462
-0.31736401 0.052876513 -0.13395317
-0.29353887 0.050976727 -0.13482396
-0.25023818 0.050705679 -0.13503325
-0.19495112 0.050379373 -0.13266507
-0.1743561 0.050079659 -0.13054991
-0.15663415 0.05038704 -0.13642947
-0.14794502 0.050207131 -0.13336861
-0.11758584 0.050129209 -0.1316456
-0.030753836 0.050177421 -0.1327116
0.0025387576 0.050565839 -0.13227232
0.10848126 0.050072998 -0.13040257
0.1625769 0.050674461 -0.13453192
0.25713766 0.05053043 -0.13869198
0.29802325 0.050557937 -0.1321007
-0.42004469 0.060739826 -0.13382672
-0.38224053 0.061471723 -0.13616432
0.07698714 0.029852569 -0.12367328
0.13554685 0.029746344 -0.12132172
-0.36168665 0.038335513 -0.12601973
-0.22242892 0.034075506 -0.12370099
-0.17213392 0.036106028 -0.12534432
-0.16800603 0.030967902 -0.12615247
-0.43477222 0.047774903 -0.12088411
-0.10608789 0.049812905 -0.12465143
-0.089084446 0.049876854 -0.12606549
0.016869534 0.049740605 -0.12305276
0.039360199 0.049617417 -0.12032881
0.091429628 0.049721021 -0.12261973
0.19632535 0.04982511 -0.12492129
0.21259499 0.04988049 -0.12614593
0.25495234 0.049870849 -0.12593274
0.27691191 0.049853839 -0.12555653
0.29012734 0.041655526 -0.121899
0.30712748 0.040470336 -0.12968494
0.33222327 0.049745742 -0.12316633
-0.38499945 0.05290702 -0.12921251
-0.35141665 0.056666031 -0.12107632
-0.28790975 0.05043108 -0.12006922
-0.24758779 0.050172463 -0.1235823
-0.15132353 0.050101984 -0.1220247
-0.089581214 0.050045069 -0.12978505
0.12396637 0.050187312 -0.12391558
0.17579797 0.050412793 -0.12889892
0.18498358 0.050032236 -0.12950127
-0.22747317 0.02993964 -0.11285998
-0.16461878 0.029448185 -0.11472453
-0.1584768 0.029678559 -0.1198202
-0.11103944 0.029388558 -0.11340632
-0.065583929 0.029620416 -0.11854149
-0.049350306 0.029403169 -0.11373341
0.019630015 0.02930668 -0.11160354
0.21042138 0.029410474 -0.1138927
0.36062551 0.029387165 -0.11338577
-0.35257235 0.036553323 -0.11340393
-0.34616119 0.035833888 -0.11623445
-0.29537061 0.030363454 -0.11726612
-0.22508946 0.032806523 -0.11837401
0.36853072 0.031142544 -0.11875018
-0.24746381 0.049703747 -0.11622724
-0.21422189 0.044747248 -0.1132054
-0.18784562 0.049917337 -0.11794395
-0.091504909 0.049192645 -0.11093628
-0.02404315 0.049537692 -0.118566
0.021779831 0.049427763 -0.11613521
0.16518027 0.049459808 -0.11684377
0.21207912 0.049696177 -0.11305637
0.23376223 0.049822494 -0.11584798
0.31100965 0.049277246 -0.11280698
0.34693977 0.049400277 -0.11552753
0.38534898 0.046652921 -0.11064173
-0.32126492 0.052543461 -0.11690532
-0.31400415 0.051791012 -0.11781017
-0.28833926 0.05011189 -0.11265675
-0.413982 0.06501852 -0.11359195
-0.26541391 0.028878147 -0.10212893
-0.16095434 0.029070001 -0.10636378
-0.12297569 0.028923132 -0.10311683
0.12766337 0.029156186 -0.10827619
0.21718508 0.028855385 -0.10162157
0.38730061 0.029015038 -0.10515194
0.059733108 0.048795179 -0.10214756
0.12145323 0.049082585 -0.10850266
0.14171258 0.048890684 -0.10425943
0.22197959 0.049412854 -0.10679497
0.2364772 0.049150459 -0.10099605
0.25407571 0.049424883 -0.10706072
0.27071717 0.048785783 -0.10193989
0.3040756 0.041837141 -0.10210254
-0.35694277 0.056469791 -0.10074242
-0.32209855 0.052253723 -0.10842341
-0.44149935 0.067897946 -0.10591088
-0.39561319 0.061923422 -0.10807303
-0.38969368 0.061469428 -0.10626492
-0.25448221 0.028500972 -0.093787894
-0.075152688 0.028528426 -0.094390787
0.10502857 0.028388383 -0.091294795
0.14724743 0.028606962 -0.096127048
0.15984136 0.028355114 -0.090559334
0.21721882 0.028750537 -0.099303856
0.38054392 0.028713167 -0.098479889
0.41349351 0.029525213 -0.09060546
-0.32684556 0.032205965 -0.092601657
-0.17952505 0.034718663 -0.09294951
-0.19830887 0.041687164 -0.099015251
-0.17087811 0.048559569 -0.096937791
-0.1319284 0.048604429 -0.097929686
-0.030374397 0.048415616 -0.093754753
0.04405582 0.048948314 -0.096523657
0.10465931 0.048286349 -0.090896495
0.12698907 0.048414871 -0.093738198
0.18902847 0.049068376 -0.099182017
0.20430246 0.048681941 -0.099643722
0.28169972 0.048865959 -0.094708532
0.31536984 0.044492334 -0.096339382
0.33544686 0.048488174 -0.095359094
0.3864153 0.048419133 -0.093832523
-0.32959926 0.052999955 -0.094981074
-0.41468999 0.063742466 -0.092615001
-0.26531011 0.028181935 -0.084916368
-0.21320036 0.028180862 -0.084876701
-0.092478126 0.02821226 -0.086034
-0.082789376 0.028055096 -0.080242164
0.063157782 0.02822068 -0.086267158
0.10262492 0.028181348 -0.084895551
0.24796852 0.028057422 -0.080328934
-0.29846027 0.049123362 -0.086388469
-0.28010607 0.048571896 -0.08167161
-0.27127647 0.048202414 -0.088224649
-0.24534753 0.048293538 -0.084613949
-0.23294091 0.048612978 -0.088875562
-0.2209124 0.048167132 -0.087466292
-0.21697234 0.047980968 -0.080605961
-0.1243475 0.048098005 -0.084918916
-0.034886345 0.048149869 -0.086830251
-0.012856111 0.048019167 -0.082013711
0.054774258 0.048399527 -0.080985203
0.082004048 0.048575282 -0.087479219
0.15962207 0.048629284 -0.089477703
0.1791048 0.048580088 -0.087657064
0.22604547 0.048049178 -0.083119586
0.23305228 0.048606277 -0.088626221
0.2617709 0.048605196 -0.08858636
0.28757006 0.048096448 -0.08486142
0.40968016 0.048182875 -0.088046513
0.41771483 0.048209198 -0.085609674
-0.35198095 0.055112023 -0.082657948
-0.44909638 0.068400621 -0.083410874
-0.43737516 0.066799663 -0.081612378
-0.39433318 0.061198287 -0.085119262
-0.26496151 0.027916472 -0.075133801
-0.16441852 0.027924221 -0.075419351
0.27821982 0.027944453 -0.076165855
0.29433697 0.027952217 -0.076452032
-0.3491194 0.034620959 -0.075491406
-0.2858119 0.04818102 -0.0756502
-0.25813949 0.04828044 -0.07661134
-0.23641098 0.047959141 -0.079801522
-0.20503011 0.048240881 -0.075154386
-0.19622496 0.048146088 -0.071658075
-0.16636819 0.04772038 -0.071002997
-0.15833069 0.047914334 -0.078150339
-0.14826766 0.04779011 -0.073572807
-0.12528557 0.047769763 -0.072822809
-0.036115378 0.047963817 -0.079973809
0.083632529 0.048124816 -0.070865139
0.23006684 0.04811468 -0.070508204
0.24396479 0.048123684 -0.07083495
0.25240174 0.048139766 -0.071425825
0.34238338 0.047961522 -0.072372064
0.35174739 0.048159517 -0.072151467
0.37559801 0.047808386 -0.074246146
0.42571184 0.047368992 -0.075268798
-0.43395144 0.065986261 -0.075990804
-0.29766768 0.028458618 -0.060618673
-0.068940289 0.027768411 -0.069677494
0.063587107 0.027544817 -0.061437812
0.082441568 0.027717218 -0.067790672
0.11469681 0.027600748 -0.063499004
0.26761097 0.027655059 -0.065500818
0.32719958 0.027675755 -0.066263668
-0.28263855 0.048156813 -0.063666701
0.021991039 0.045665894 -0.060168173
0.16982065 0.04793622 -0.063930288
0.17237338 0.04773074 -0.063869208
0.19791192 0.047674675 -0.069318682
0.20461631 0.047424302 -0.060092069
0.22972399 0.04783196 -0.060070224
0.27301484 0.047644194 -0.068195656
0.30501378 0.047919668 -0.063305236
0.31621787 0.047615137 -0.067124575
0.34686753 0.04781941 -0.067132369
0.44297996 0.046127819 -0.062799014
-0.32644057 0.051779415 -0.068953186
-0.43213838 0.065616041 -0.063674152
-0.39013055 0.060176991 -0.068117544
-0.29784924 0.028436311 -0.059393775
-0.23053259 0.027466545 -0.058553446
-0.20830263 0.027348388 -0.054199215
-0.19995457 0.027372694 -0.055094883
-0.085374668 0.027395647 -0.055940717
-0.017705401 0.02729081 -0.052077442
0.059591509 0.027302492 -0.052507896
0.10835315 0.027248129 -0.050504573
0.12833264 0.02728733 -0.051949199
0.15560696 0.027301114 -0.05245718
0.44651356 0.027310885 -0.052817225
-0.37478447 0.037494019 -0.056339253
-0.32223663 0.030634541 -0.058144651
-0.42805654 0.044391945 -0.050732933
-0.26238137 0.047416445 -0.059802525
-0.25905019 0.047586359 -0.05101167
-0.20967732 0.047202632 -0.051923402
-0.19973487 0.047234304 -0.053090401
-0.17305592 0.046507068 -0.05138544
-0.16040608 0.047172092 -0.050798066
-0.14273693 0.047190085 -0.051460955
-0.10770679 0.047293019 -0.055254225
-0.017833978 0.047164775 -0.050528347
0.1632041 0.04772649 -0.056180246
0.19212757 0.047666393 -0.053963538
0.23682475 0.047727801 -0.056228586
0.25758165 0.047282178 -0.054854777
0.36621901 0.047680587 -0.054487251
0.42610261 0.047282737 -0.054875366
0.45029411 0.045434806 -0.052911818
-0.32862902 0.05138275 -0.059347227
-0.4498449 0.06783051 -0.058942534
-0.28548884 0.027394406 -0.042667247
-0.24189091 0.027066309 -0.041949499
-0.20438622 0.027220862 -0.049499795
-0.18762104 0.027213963 -0.049245503
-0.004079029 0.02707997 -0.043458685
0.049576618 0.027058804 -0.041120339
0.10177942 0.02722764 -0.049749568
0.13871586 0.027164731 -0.047431245
0.17318445 0.027167723 -0.047541481
0.18228832 0.027112857 -0.045519702
0.23856434 0.027135968 -0.046371296
0.24882609 0.027182065 -0.04807004
0.38681957 0.02709654 -0.044296257
-0.34445474 0.033157554 -0.044305328
-0.43486816 0.04525819 -0.049448188
-0.42237702 0.043595985 -0.049125545
-0.22741315 0.047075745 -0.047247335
-0.18211409 0.047142047 -0.049690798
0.041293576 0.047012307 -0.044909813
0.067569382 0.047397312 -0.042633928
0.10540148 0.046986308 -0.042382792
0.12184045 0.047104236 -0.048297442
0.17652631 0.047490746 -0.047485333
0.21460316 0.047070369 -0.047049358
0.2625657 0.047543056 -0.049414665
0.38620502 0.047006201 -0.04458838
0.39108256 0.047088936 -0.047733605
0.41818166 0.047465492 -0.046553817
0.42690304 0.047106531 -0.048381951
-0.38163531 0.057970822 -0.041605659
-0.37782454 0.058024693 -0.048986025
-0.34215868 0.052857295 -0.047794942
-0.29256025 0.027683001 -0.039670214
-0.246181 0.027000047 -0.034628659
-0.21632828 0.027025037 -0.037389714
-0.19172749 0.026984874 -0.032952487
-0.16293071 0.026958212 -0.030006509
0.071893811 0.027041957 -0.039259128
0.080672249 0.027026527 -0.037554435
0.097578667 0.026999736 -0.034583475
0.10229591 0.027006241 -0.035289221
0.11709666 0.027004857 -0.035149503
0.17690459 0.027004492 -0.035079271
0.1927664 0.027016286 -0.036390595
0.25570711 0.026985776 -0.033028431
0.3206847 0.026995234 -0.034084637
0.33060789 0.026981484 -0.032569163
0.43584028 0.027008094 -0.03551846
0.4499087 0.026999054 -0.034510627
-0.35517001 0.034487989 -0.034656011
-0.28547126 0.047620155 -0.031671621
-0.27286842 0.046901502 -0.030400658
-0.26953039 0.047342744 -0.035983246
-0.24017018 0.046877272 -0.030294344
-0.22857586 0.046896297 -0.032403842
-0.17621687 0.046925209 -0.035608865
-0.052191332 0.046963464 -0.039850429
0.0046683103 0.046892386 -0.031997874
0.22499897 0.046921771 -0.035225891
0.23273908 0.046913337 -0.03429687
0.28457239 0.047295101 -0.031314351
0.36193335 0.047349915 -0.037369698
0.38653532 0.047332309 -0.035425935
0.40502411 0.04729281 -0.031064048
0.42673379 0.046924531 -0.035553411
0.45194209 0.046934541 -0.036660295
-0.45426401 0.067910343 -0.031994764
-0.44378704 0.066383183 -0.039246708
-0.39824012 0.06008618 -0.032528616
-0.26031917 0.02695607 -0.029769838
-0.23823555 0.026915019 -0.025166336
-0.22693565 0.026955539 -0.029711578
0.039275996 0.02694308 -0.028276367
0.048415005 0.026937017 -0.027609002
0.20884708 0.026951838 -0.029274661
0.25570831 0.026955491 -0.029686695
0.27377722 0.026871648 -0.020385258
0.32125708 0.026909128 -0.0246015
0.37257576 0.026952025 -0.029272785
0.44214731 0.026919626 -0.025730278
-0.37143743 0.03656254 -0.026014265
-0.45830816 0.04805588 -0.025369536
-0.44630808 0.046476852 -0.02640488
-0.42868173 0.044093791 -0.020933783
-0.26908129 0.047234163 -0.024283776
-0.25411764 0.046853967 -0.02771024
-0.18410634 0.047221571 -0.023218356
-0.13748054 0.046872206 -0.029732306
-0.10506062 0.046857499 -0.028102648
-0.024372898 0.046862945 -0.028682455
-0.0069203973 0.046810038 -0.022828203
0.046576146 0.047234923 -0.024663301
0.052957661 0.046829481 -0.025007021
0.076141633 0.047015339 -0.02295075
0.11337274 0.04685884 -0.028258752
0.15519433 0.046815757 -0.023460709
0.16492561 0.047258519 -0.027271789
0.17100701 0.046831887 -0.025297612
0.19663012 0.047061801 -0.028118633
0.21352282 0.047028329 -0.024425894
0.22997244 0.047211133 -0.022040326
0.33192793 0.047211595 -0.022093572
0.45184538 0.047246303 -0.02592992
-0.38208961 0.057876855 -0.024691727
-0.42893916 0.064311862 -0.027678153
-0.41420633 0.062090173 -0.020566875
-0.15963784 0.026812568 -0.013878421
-0.14181772 0.026802599 -0.012775425
0.057510264 0.026814409 -0.014083316
0.089866906 0.026781013 -0.010387561
0.15408306 0.026850501 -0.018068792
0.16050574 0.026860388 -0.019168738
0.25438613 0.026828483 -0.015599448
0.30907685 0.026817493 -0.014443655
0.32199794 0.026808795 -0.013480881
0.44906861 0.026852282 -0.018278148
-0.33560199 0.031721737 -0.015337726
-0.40667921 0.04113701 -0.016074229
-0.28519765 0.047437329 -0.01258332
-0.27098 0.046783224 -0.018411899
-0.25458255 0.046721481 -0.013083147
-0.23186153 0.04672277 -0.013225473
-0.10455161 0.046695285 -0.010185521
-0.031758491 0.046783689 -0.019918088
0.04930798 0.046737261 -0.01482741
0.076870918 0.046767544 -0.018156653
0.12185429 0.04716729 -0.017195448
0.19413269 0.047126278 -0.012668445
0.21144822 0.047147874 -0.015053649
0.22134842 0.046960376 -0.016881216
0.30146748 0.047127128 -0.012765303
0.33185089 0.047113426 -0.011252942
0.34851927 0.04673009 -0.014004348
0.36200538 0.046699546 -0.01068158
0.37377375 0.046738859 -0.015000719
0.43768495 0.046710607 -0.011884444
0.46029031 0.046778392 -0.019383494
-0.32725486 0.050975271 -0.01776538
-0.45587379 0.067543335 -0.013755376
-0.42357993 0.063270397 -0.013946646
-0.28412446 0.026999822 -0.0048464518
-0.22928375 0.026750047 -0.0069622737
-0.14811334 0.026720656 -0.0037114955
-0.13106868 0.026777383 -0.009986164
-0.013674423 0.026724655 -0.0041537452
-0.0053799786 0.026707556 -0.0022623208
0.020966388 0.026771449 -0.0093297241
0.033177122 0.026708603 -0.0023784044
0.29883349 0.026739828 -0.0058320733
0.36831731 0.026736874 -0.005503091
-0.35017529 0.033601828 -0.0099643981
-0.45289677 0.047143787 -0.0039620236
-0.30461732 0.048049748 -0.0016001918
-0.29031104 0.047559641 -0.0022447424
-0.26358214 0.04663438 -0.0034484894
-0.2183156 0.046889905 -0.0091117062
-0.11267164 0.046692938 -0.0099261273
-0.10287141 0.046690259 -0.0096296836
0.046416923 0.046627026 -0.0026352701
0.055611297 0.047080453 -0.0076166401
0.1318772 0.047033198 -0.0024208548
0.16892733 0.047055591 -0.0048739128
0.29950699 0.046663277 -0.0066295564
0.34108502 0.046647172 -0.0048513343
0.37202013 0.047087274 -0.0083656274
0.44763255 0.046864994 -0.006371635
-0.39090902 0.059273161 -0.0044596978
-0.37397784 0.057029009 -0.0041246116
-0.40192586 0.060715109 -0.0026702737
-0.31604934 0.029234722 0.0067757857
-0.28728065 0.027134329 0.0062821796
-0.25308561 0.026747365 0.0066661444
-0.22160888 0.026726402 0.0043476517
-0.1671609 0.026741369 0.0060027614
0.086150572 0.026740344 0.0058894451
0.24390127 0.026741514 0.0060189315
0.30105829 0.026736047 0.0054069869
0.37728655 0.026751436 0.0071236012
-0.35665691 0.034394108 0.0027618734
-0.27114052 0.047057983 0.003465011
-0.15968095 0.046688452 0.009430117
-0.13320282 0.046624005 0.0023013731
0.025112569 0.046623498 0.0022454041
0.035606205 0.046624605 0.0023678881
0.13845219 0.047091037 0.0087720519
0.19701973 0.047058195 0.005125924
0.22598788 0.047042854 0.0034421601
0.25250858 0.046637461 0.0037897003
0.26568797 0.047032677 0.0023252342
0.30819732 0.047080968 0.0076490962
0.34557256 0.046647053 0.0048398776
0.37299958 0.046641983 0.0042850268
0.40799996 0.047081884 0.0077597746
-0.35233819 0.05396628 0.0050235102
-0.44031167 0.065821454 0.0054016449
-0.42183322 0.062999077 0.0095380899
-0.40378094 0.060565062 0.0046551884
-0.097164266 0.026844826 0.017447049
-0.027421251 0.026783228 0.010632911
0.035247877 0.026802666 0.012783087
0.12240306 0.026845047 0.017454581
0.23617584 0.026842307 0.017180769
0.24415115 0.026783904 0.010694848
0.33189327 0.02681124 0.013755066
0.38632894 0.026784871 0.010840875
0.42694044 0.026852466 0.018311735
0.44215143 0.026846424 0.017634897
-0.39744571 0.039867681 0.010928003
-0.43248364 0.044545177 0.015283796
-0.41605467 0.042376883 0.01595105
-0.31469178 0.049507588 0.015399633
-0.27714634 0.046841636 0.016774997
-0.2567212 0.047189813 0.01970222
-0.22267209 0.047154672 0.015774684
-0.036766581 0.046745118 0.015697671
0.01197606 0.046698183 0.010506829
0.027198901 0.047142621 0.014471755
0.092489772 0.04712484 0.012507312
0.10030094 0.047135383 0.013655394
0.17724052 0.046726882 0.013665566
0.19577813 0.046763234 0.017713387
0.21030083 0.046707861 0.011560404
0.24329562 0.047166422 0.017068835
0.29017729 0.047177251 0.018267879
0.30666733 0.046732936 0.014378541
0.3695586 0.04710225 0.010002674
0.42549592 0.047175433 0.018080436
-0.39783859 0.059860162 0.013591606
-0.38409588 0.058465648 0.014746036
-0.43230304 0.064711623 0.015046943
-0.42716593 0.064151272 0.01299932
-0.39913446 0.060416646 0.010365637
-0.30138525 0.028127294 0.027575636
-0.1738759 0.026933689 0.027274406
-0.083839901 0.026896974 0.023150785
-0.028858092 0.026928248 0.026627498
0.048322603 0.026909512 0.024574848
0.18337214 0.026940707 0.02804273
0.39459491 0.026935538 0.02749081
0.4082216 0.026917674 0.025534783
-0.38131896 0.037882481 0.027323987
-0.33158824 0.031287238 0.025960013
-0.4009693 0.040440578 0.022609763
-0.31108901 0.049215157 0.02260562
-0.2592555 0.047195759 0.020359274
-0.2336154 0.047240701 0.025268296
-0.2134921 0.047201231 0.020906847
-0.19965521 0.047278751 0.029489905
-0.18273078 0.046851542 0.027442332
-0.17711294 0.046816491 0.023548698
-0.11090297 0.046863697 0.028821943
-0.074861221 0.046856593 0.027995802
-0.047001928 0.046802372 0.021991305
0.11468203 0.047233101 0.024411714
0.16749197 0.047232419 0.02434211
0.17651182 0.047215454 0.022471532
0.22233999 0.047019787 0.023464195
0.26671875 0.047196954 0.020439234
0.312516 0.046848044 0.02711134
0.32276869 0.046800785 0.021839339
0.33205563 0.046812888 0.023206536
0.40061855 0.047266677 0.028142747
0.42530626 0.047023483 0.023876034
-0.33414519 0.05197024 0.027482994
-0.45939171 0.063180119 0.02497638
-0.44027132 0.065571181 0.023919677
-0.4154036 0.062676102 0.022027923
-0.21724862 0.026968766 0.031172885
-0.090398438 0.026975065 0.031868882
0.068376973 0.026990855 0.033605121
0.072867461 0.026989179 0.033427987
0.088440239 0.026984334 0.032838896
0.22286823 0.026982328 0.032642912
-0.4462226 0.046528514 0.033356
-0.40581706 0.041159116 0.031037796
-0.26195133 0.047101323 0.032488763
-0.22576997 0.047328595 0.03498495
-0.17795712 0.047299687 0.031813093
-0.11951016 0.046952941 0.038684126
-0.075712778 0.046959594 0.039421622
0.028289914 0.046921097 0.035153251
0.03962326 0.04735307 0.037733857
0.11360424 0.046910867 0.034016035
0.15978304 0.046938732 0.037108988
0.18001801 0.046927422 0.03584037
0.22057824 0.047327943 0.034888811
0.24433079 0.047123484 0.034916408
0.25841203 0.046886526 0.031345364
0.28668666 0.04693763 0.036989305
0.32100281 0.046941239 0.037394971
0.41465983 0.04737154 0.039710786
0.45614946 0.046921492 0.035217185
-0.43703982 0.065699555 0.03950065
-0.41726923 0.062607028 0.03273467
-0.29825023 0.028074816 0.045063145
-0.21062373 0.027071765 0.04255284
-0.077210113 0.027231816 0.049902156
-0.06856066 0.027087566 0.044298869
0.0070430487 0.027094275 0.044835716
0.011716992 0.027076187 0.043041538
0.1398994 0.027081231 0.043598875
0.33068469 0.027231792 0.049901299
-0.32163227 0.030320987 0.04922086
-0.27752745 0.047083206 0.042768091
-0.045570508 0.04696586 0.040116534
-0.0017625839 0.046991069 0.042911567
0.074582271 0.047376223 0.040284406
0.085670769 0.047389209 0.041699506
0.13225059 0.047411382 0.044116102
0.15437348 0.047404934 0.043413606
0.16909215 0.047421306 0.044873092
0.25873464 0.047534548 0.049049612
0.29755533 0.047387324 0.041469678
0.3216024 0.047455244 0.046124585
0.33540028 0.047402702 0.043157551
0.34232295 0.046966232 0.040156811
0.37292957 0.04710133 0.048191201
0.38022098 0.047374234 0.040005289
0.44826603 0.047116898 0.04876487
-0.35701212 0.054707214 0.041154217
-0.46032101 0.068475567 0.046978459
-0.45334271 0.067546256 0.046773277
-0.41973197 0.063014075 0.0416306
-0.13016878 0.027235387 0.050033726
0.077670261 0.027367726 0.054908611
0.11491048 0.027372045 0.055067696
0.23095047 0.027269941 0.051306576
0.27876553 0.027451778 0.0580098
0.28725207 0.027313832 0.05292337
0.32013267 0.027465977 0.058531374
0.35145563 0.02735164 0.054318912
0.43405485 0.027382508 0.055457532
0.44377869 0.02740694 0.056357898
-0.44154763 0.046266645 0.05397097
-0.43432546 0.045406587 0.057489533
-0.42048326 0.043403201 0.051229928
-0.22918469 0.047405791 0.059410952
-0.1758147 0.047199979 0.0518266
-0.11925666 0.047387231 0.058727019
0.067958362 0.047828019 0.059879594
0.072772145 0.04772836 0.056209717
0.10306576 0.047660731 0.053703662
0.11094726 0.047399662 0.059184939
0.12717287 0.047798265 0.058790751
0.24578331 0.047575284 0.055588737
0.26673961 0.047613114 0.051947325
0.29367107 0.047757719 0.057280775
0.3458845 0.047565389 0.057743087
0.39336228 0.047555476 0.057378016
0.42542705 0.047307521 0.055789717
-0.34198502 0.053027663 0.054856084
-0.42572987 0.064154394 0.056382716
-0.39554399 0.060596742 0.057210002
-0.15573448 0.027635865 0.064785756
-0.03057003 0.027511634 0.060209535
0.13035773 0.02764634 0.065173708
0.24548097 0.027671287 0.066096261
0.29654381 0.027713142 0.067636259
0.33174768 0.027593415 0.063225046
0.34458223 0.027755793 0.069205686
-0.41675276 0.043273881 0.0645447
-0.39546388 0.040564571 0.06852033
-0.17211102 0.048099931 0.069906332
-0.13387454 0.047525849 0.063835241
0.066685714 0.047512624 0.063347839
0.074557915 0.047609895 0.066932485
0.19384305 0.047977291 0.065386869
0.22990859 0.047870949 0.06145709
0.27068508 0.048013546 0.066716306
0.29384559 0.04791072 0.062923916
0.34886086 0.048049249 0.068033375
0.35671932 0.04755741 0.064998254
0.3822943 0.048075095 0.068986446
0.42093244 0.048050437 0.068076923
-0.33721954 0.052546397 0.060317449
-0.4637143 0.065743744 0.06416703
-0.45509887 0.062415138 0.063169673
-0.43649828 0.066165797 0.062622324
-0.41154772 0.062636353 0.069504827
-0.39329579 0.060543392 0.066142842
-0.18977723 0.027842825 0.072409347
-0.14862299 0.027842917 0.072412655
-0.057049781 0.02802683 0.079197124
-0.034067579 0.027809618 0.071186118
-0.027916618 0.027899222 0.074488238
0.097653434 0.027935214 0.075822607
0.17891324 0.027820669 0.07160081
0.20959118 0.027860889 0.073081285
0.28658062 0.02782698 0.071829632
0.33426672 0.027993392 0.077964835
0.36684039 0.027798435 0.0707836
0.37811574 0.027780037 0.070106879
-0.43613881 0.046246968 0.079420865
-0.22866538 0.047874607 0.076687373
-0.21825132 0.048325501 0.078223996
-0.12720522 0.047742404 0.071815453
-0.078176863 0.047874808 0.076694891
-0.026249386 0.047862072 0.076225318
0.10183964 0.048316073 0.077857584
0.12237357 0.048312403 0.077725068
0.17423324 0.048206307 0.073823452
0.18915713 0.048141509 0.071437202
0.26788107 0.047824912 0.074856102
0.29765362 0.047848061 0.075709119
0.31809679 0.047822766 0.074776977
0.35387421 0.047711134 0.070663221
0.39625067 0.048145611 0.071587361
0.42260531 0.048352093 0.079197966
-0.46336591 0.059649441 0.076444589
-0.36018398 0.055883378 0.071173638
-0.42105573 0.063994773 0.073146686
-0.27190363 0.028106287 0.081464857
-0.20934823 0.028234091 0.086832397
-0.1747729 0.028157873 0.084017299
-0.050427362 0.028253708 0.087558836
0.10564747 0.02815292 0.083841264
-0.20496595 0.03904938 0.088566244
0.29268703 0.037944499 0.086092845
-0.41881478 0.04415616 0.086808845
-0.30275771 0.049340162 0.083115466
-0.29075307 0.048970796 0.08169876
-0.21202122 0.048498083 0.084587738
-0.17832561 0.047972776 0.080305085
-0.012996366 0.048220072 0.089418262
0.014685329 0.048629977 0.089442074
0.042014919 0.048073612 0.084021002
0.065738022 0.04802689 0.082299128
0.079413384 0.048438948 0.082390554
0.11223214 0.048407022 0.081211746
0.12079348 0.048597731 0.088258758
0.17033984 0.04803779 0.082700998
0.18312781 0.048581161 0.087645531
0.31914377 0.04812853 0.086044937
0.35440779 0.048411496 0.08139392
0.36384067 0.048545517 0.086336292
-0.41871995 0.064037621 0.085910328
-0.40963238 0.063282318 0.087222584
-0.27928415 0.028534733 0.091659077
-0.25569522 0.028643105 0.096932232
-0.15483339 0.028352996 0.090513468
-0.057292584 0.028512312 0.094035447
-0.0099635497 0.028482083 0.093367159
0.016726494 0.028452266 0.092707992
0.093193948 0.028598726 0.09594579
0.12355009 0.028451931 0.092700601
0.27687457 0.033498123 0.093208186
-0.26032713 0.048794895 0.093086839
-0.22773704 0.048360117 0.092528537
-0.16695546 0.049091648 0.099645071
-0.14066136 0.04825807 0.090272106
0.059809811 0.048933402 0.09614785
0.067968033 0.048707332 0.091151662
0.090391427 0.048857316 0.094466351
0.10747369 0.048304901 0.091307595
0.1114813 0.049028505 0.098249555
0.12211259 0.048675384 0.090445593
0.13111269 0.04892911 0.096052907
0.21195622 0.049102891 0.099893592
0.23255984 0.048624106 0.098365597
0.29394594 0.048473712 0.095040217
0.30009806 0.048699323 0.090974674
0.31683651 0.040375151 0.094444528
0.32881817 0.048731916 0.091694981
-0.36768651 0.058002204 0.094070159
-0.34229705 0.054617018 0.093534745
-0.44706038 0.068076253 0.093683183
-0.39233908 0.06110115 0.099559531
-0.2921645 0.02970597 0.10671992
-0.26750171 0.028914634 0.1029364
-0.16649057 0.029198986 0.10921562
0.035923071 0.028893232 0.10245643
0.15068632 0.029069409 0.10635729
0.36153331 0.028915236 0.10295008
-0.1815241 0.038410749 0.10496041
0.32064122 0.038587704 0.10024067
0.39601827 0.031068347 0.10393603
-0.44790912 0.049218677 0.10590785
-0.40702561 0.043362733 0.10467951
-0.26024845 0.048859686 0.10357464
-0.20883128 0.041315809 0.10787082
-0.19173041 0.049017385 0.10706155
-0.17255473 0.048802134 0.10230207
-0.10104518 0.049011115 0.10692297
-0.034021258 0.049139239 0.10975598
0.17971885 0.04917746 0.10154161
0.23273207 0.049067825 0.1081769
0.26010054 0.049095564 0.10879025
0.34872925 0.049549878 0.10977202
0.40197578 0.046207059 0.10024111
-0.4457165 0.068434633 0.10543656
-0.26138407 0.029439319 0.11454214
0.02007409 0.029567583 0.11737712
0.058925673 0.02941275 0.11395222
-0.33687001 0.034421574 0.11223654
-0.29987413 0.030472767 0.11330038
-0.17144552 0.032928858 0.11408655
0.37828273 0.032593921 0.11511274
-0.43002814 0.046770245 0.11263118
-0.2553325 0.049465965 0.11698035
-0.20530333 0.049563482 0.11460433
-0.19369721 0.049730118 0.1137554
-0.18591602 0.04924614 0.11211966
-0.16664544 0.049429156 0.11616649
-0.14168879 0.04937458 0.11495963
-0.087909959 0.049452513 0.11668286
0.0073288232 0.049320545 0.11376493
0.020661965 0.04954873 0.11881034
0.071445107 0.049789011 0.1150576
0.082706094 0.049709409 0.11329355
0.09241616 0.049500316 0.11773995
0.1443664 0.049952529 0.11866748
0.19590686 0.049525142 0.11828873
0.24475273 0.049470805 0.11708738
0.28696167 0.040867023 0.11202091
0.32981679 0.049825061 0.11585355
0.38715377 0.040825874 0.11186951
-0.43087658 0.056042615 0.1131786
-0.3093062 0.051076777 0.11193146
-0.10977824 0.029875997 0.12419568
-0.091334671 0.029912967 0.12501588
-0.034490775 0.029724989 0.1208591
-0.026920538 0.029989509 0.12670675
-0.015610017 0.029992573 0.12677379
0.061051816 0.029809572 0.12272421
0.17098314 0.029795386 0.12240452
0.22285968 0.029806243 0.12264486
0.35676897 0.029876063 0.12360033
-0.33581194 0.035069574 0.12950318
-0.32543468 0.033469111 0.12422645
-0.2711311 0.030124463 0.1293698
0.13288927 0.030135876 0.12994328
0.2778368 0.039004259 0.1201577
0.35170543 0.031998489 0.12651414
0.36013156 0.038424969 0.12544352
-0.24436168 0.049670346 0.12149954
-0.20688727 0.049630363 0.12061543
0.040108249 0.049697764 0.12210563
-0.31649804 0.052984588 0.12921429
-0.28275493 0.050051264 0.12491495
0.03464511 0.050133169 0.12266769
0.099373259 0.05006662 0.12119733
-0.42190871 0.066021323 0.12161704
-0.40599158 0.064266779 0.12023049
-0.31301048 0.032812223 0.13880993
-0.2833792 0.030879952 0.13903324
-0.21787345 0.035916481 0.13156414
-0.16613525 0.031749897 0.13177794
0.0052921325 0.030266538 0.13283631
0.12803045 0.030632623 0.13898735
0.15259129 0.030462136 0.1362979
0.18236536 0.030182794 0.13098207
0.20180079 0.030196548 0.13128656
0.22866398 0.030155251 0.13037223
0.31384939 0.036544628 0.13870603
0.3201988 0.0312226 0.13226348
-0.34123737 0.048741929 0.13169611
-0.24863364 0.046410173 0.13683136
-0.19111893 0.041843608 0.13285619
0.32594943 0.047371045 0.13432714
-0.33801967 0.055600028 0.13588442
-0.17201431 0.050262555 0.13446519
-0.15236491 0.050237391 0.1338015
-0.14701189 0.050300583 0.13506524
-0.12177669 0.050247286 0.13422424
0.0050203744 0.050432421 0.1371458
0.052730896 0.050280474 0.13474801
0.088971093 0.050133578 0.13174234
0.16761912 0.05018755 0.13293563
0.23722452 0.050524592 0.13483584
0.26752558 0.050531738 0.13147269
0.30017093 0.050524022 0.13130075
-0.38572109 0.062154379 0.13963883
-0.24636653 0.030921664 0.14354153
-0.22028655 0.030962488 0.14418879
-0.20804431 0.038796984 0.14694868
-0.15499878 0.030930812 0.14369142
-0.092297398 0.031006545 0.14488614
0.0041173771 0.030773176 0.14120464
0.052797131 0.030827608 0.1420633
0.065340057 0.030799251 0.14161599
0.08372426 0.030698616 0.14002845
0.19520801 0.030969743 0.14430618
-0.34689346 0.042373054 0.14915705
0.055523694 0.04792241 0.14922501
0.29625323 0.048901442 0.14006259
-0.37100151 0.057899289 0.14616971
-0.36323172 0.058848858 0.14390036
-0.34622666 0.057223808 0.14428461
-0.25613889 0.050794944 0.14286658
-0.12251991 0.051043134 0.14677496
-0.1027053 0.051246312 0.14998451
0.0073375106 0.050792649 0.14282869
0.058539614 0.051021624 0.14643838
0.08692091 0.0512821 0.14407325
0.095302142 0.051551804 0.14833196
0.16307537 0.051059648 0.14703889
0.18275601 0.051166572 0.14872757
0.21351874 0.051092528 0.14108339
0.24746719 0.051301219 0.14437693
-0.37325257 0.060726888 0.14312473
-0.26798019 0.032250561 0.15054151
-0.17040041 0.039212406 0.15309316
-0.10432776 0.036947921 0.15637265
-0.081575684 0.035670355 0.15555236
-0.046514452 0.031595174 0.15416414
-0.0025695562 0.031534333 0.15320833
0.022638073 0.032336604 0.15567714
0.041970186 0.039769646 0.15881726
0.065001473 0.031639513 0.15487468
0.1635371 0.033238459 0.15582016
-0.18358235 0.041707028 0.15157975
0.021414746 0.049005255 0.15669082
0.05531425 0.045862492 0.15849973
0.11868633 0.049366087 0.15733485
0.14297925 0.044576485 0.15892346
0.040555395 0.051559526 0.15493028
0.067085966 0.051465251 0.15344049
0.14868438 0.051442396 0.15307511
