# .PCD v0.7 - Point Cloud Data file format
VERSION 0.7
FIELDS x y z
SIZE 4 4 4
TYPE F F F
COUNT 1 1 1
WIDTH 913
HEIGHT 1
VIEWPOINT 0 0 0 1 0 0 0
POINTS 913
DATA ascii
0.26498595 0.0117502 -0.14005795
0.28823116 0.01965226 -0.14154723
0.33094546 0.018699223 -0.14198737
0.15069336 0.026330059 -0.14013
0.21694016 0.023465443 -0.14081262
0.27183592 0.024515245 -0.1413783
0.29467875 0.025054598 -0.14161366
0.31326535 0.020608161 -0.14180519
-0.34452051 0.01602415 -0.13385212
-0.33598062 0.018084545 -0.13506603
-0.21138804 0.011750201 -0.13097909
-0.18582401 0.011750201 -0.13620417
-0.163055 0.0117502 -0.13349606
-0.15170047 0.016097302 -0.13701405
-0.040975824 0.014124805 -0.13815498
-0.026503228 0.012688182 -0.13572322
0.0021778792 0.0117502 -0.13292977
0.069350593 0.01471087 -0.13929182
0.077853099 0.0117502 -0.13196445
0.1187784 0.0117502 -0.13841733
0.13248435 0.011750201 -0.1335815
0.21193215 0.011750201 -0.139709
0.2382234 0.0117502 -0.13743335
0.36974847 0.016854675 -0.13375898
-0.33537939 0.028052 -0.13467273
-0.2695066 0.022703715 -0.13580014
-0.23097771 0.028052002 -0.13431299
-0.20510677 0.024006428 -0.13646373
-0.14497077 0.021741673 -0.1370834
-0.12862527 0.023848481 -0.13725182
-0.10020416 0.022088867 -0.13754468
-0.07097353 0.020800117 -0.13784587
-0.067883477 0.026161877 -0.13787773
-0.050259054 0.020269239 -0.13805933
0.026753522 0.025687639 -0.13885289
0.067581519 0.02505598 -0.13927358
0.081467465 0.028052 -0.13453841
0.095071152 0.026358549 -0.13955685
0.10731658 0.025052529 -0.13968304
0.13069107 0.024919691 -0.13992389
0.38291311 0.02401587 -0.13192299
-0.37349063 0.019688312 -0.12914637
-0.33279905 0.0117502 -0.12659284
-0.24611668 0.0117502 -0.1216647
-0.22761953 0.011750199 -0.1263586
-0.20359354 0.0117502 -0.12913084
-0.19389647 0.011750199 -0.12479996
-0.1758876 0.0117502 -0.12111837
-0.13300699 0.011750201 -0.12835379
-0.11467404 0.0117502 -0.1254791
-0.046701163 0.0117502 -0.12807569
0.032485604 0.0117502 -0.1298489
0.099506639 0.011750201 -0.1220777
0.13536406 0.011750199 -0.12358811
0.14953116 0.0117502 -0.12117487
0.20900959 0.0117502 -0.12149338
0.21573842 0.0117502 -0.12435057
0.22898604 0.0117502 -0.12725206
0.24265574 0.0117502 -0.12639581
-0.38703692 0.022744607 -0.12337182
-0.28972572 0.028052 -0.12548453
-0.23065116 0.028052 -0.1238128
-0.19861533 0.028052002 -0.1205157
-0.064162634 0.028051998 -0.12302224
-0.040116861 0.028052 -0.12278384
0.026174664 0.028052 -0.12834686
0.042322256 0.028051998 -0.12132812
0.065711886 0.028052002 -0.12539473
0.073175743 0.028052002 -0.12192259
0.13357452 0.028052 -0.12979743
0.20558564 0.028052 -0.12914729
0.33641449 0.028363947 -0.12584017
0.35121751 0.029974552 -0.12644559
0.39082265 0.022796733 -0.1287417
-0.38786975 0.034236543 -0.12301651
-0.37827036 0.034547925 -0.12506364
0.35491416 0.030483909 -0.12439462
-0.3232699 0.0117502 -0.11836869
-0.28959501 0.011750199 -0.1127526
-0.26410455 0.011750199 -0.11123699
-0.23634753 0.011750201 -0.11133481
-0.20867243 0.0117502 -0.11601464
-0.19388318 0.0117502 -0.1134629
-0.16907346 0.011750201 -0.11032593
-0.15580392 0.0117502 -0.1192739
-0.068637878 0.011750199 -0.11399143
-0.010175541 0.0117502 -0.1163032
0.01406458 0.011750201 -0.11395995
0.068216786 0.0117502 -0.11522549
0.1033086 0.011750201 -0.11912485
0.1210169 0.0117502 -0.11495472
0.13954653 0.0117502 -0.11219764
0.18436287 0.0117502 -0.11928031
0.26931202 0.0117502 -0.11012933
0.28922275 0.0117502 -0.11438856
0.30174485 0.011750201 -0.11906886
0.31989518 0.0117502 -0.11436281
0.33851182 0.012238856 -0.11442964
0.36999249 0.016873598 -0.11979992
0.37522465 0.01812131 -0.1199937
-0.34465814 0.028882699 -0.1102186
-0.29545712 0.028051998 -0.11645608
-0.23918438 0.028051998 -0.11499414
-0.20433313 0.028052 -0.11326411
-0.10703368 0.028052002 -0.11263177
-0.082119912 0.028052 -0.11180378
-0.036953256 0.028052 -0.11064956
0.021940246 0.028052002 -0.11213888
0.076958045 0.028052 -0.11803843
0.10040122 0.028051998 -0.11805998
0.1339329 0.028051998 -0.11171933
0.14317445 0.028051998 -0.11936803
0.24227394 0.028052 -0.11982436
0.25803626 0.028052 -0.11980629
-0.36829585 0.032393023 -0.11827235
0.40105116 0.041930124 -0.11414957
-0.3288883 0.0117502 -0.10258748
-0.26747757 0.0117502 -0.10524214
-0.23465303 0.0117502 -0.10177195
-0.11459826 0.011750201 -0.10063167
-0.09498065 0.011750201 -0.1097872
-0.022472322 0.011750199 -0.10717814
0.012218088 0.0117502 -0.10909601
0.10320092 0.011750201 -0.10324297
0.15859398 0.0117502 -0.10867933
0.18265076 0.0117502 -0.1035934
0.32089782 0.0117502 -0.10307477
0.36685061 0.016247489 -0.10259975
-0.39180821 0.021916531 -0.10402101
-0.34629408 0.0290721 -0.10618086
-0.30436778 0.028052 -0.10600406
-0.26033017 0.028052002 -0.10124555
-0.13372748 0.028052 -0.10476333
-0.067937836 0.028052 -0.10963591
-0.054714624 0.028051998 -0.1090223
-0.0062976368 0.028052002 -0.10263727
0.033875152 0.028052 -0.10526408
0.055805851 0.028052 -0.10417907
0.079114676 0.028051998 -0.10965255
0.09431994 0.028052 -0.10774937
0.16148815 0.028052002 -0.10141398
0.21519041 0.028051998 -0.10614181
0.22512162 0.028052 -0.10557504
0.33144918 0.028052 -0.10817605
0.34416273 0.029038616 -0.10744238
-0.40541568 0.042642895 -0.1089601
-0.17109063 0.0117502 -0.098348752
-0.15462197 0.0117502 -0.097939074
-0.12646344 0.011750199 -0.092111655
-0.0052704997 0.011750199 -0.095414013
0.045397535 0.0117502 -0.093321547
0.11261322 0.011750201 -0.091615781
0.16145936 0.0117502 -0.096449763
0.18540773 0.0117502 -0.094005451
0.19498068 0.0117502 -0.099154808
0.2129963 0.0117502 -0.09826722
0.25823271 0.0117502 -0.093205556
0.30365199 0.0117502 -0.095152795
0.33895096 0.012258505 -0.093172312
0.35621724 0.014313338 -0.090117127
-0.24935019 0.028052 -0.092046909
-0.090471007 0.028052 -0.095801823
-0.084865294 0.028052 -0.09860976
-0.031575948 0.028052 -0.090062782
-0.0073498506 0.028052 -0.091632694
0.00011981651 0.028052002 -0.092230923
0.012258872 0.028052 -0.094369732
0.031970866 0.028051998 -0.094180241
0.057230748 0.028051998 -0.091292202
0.15308011 0.028052 -0.090436384
0.2361268 0.028052 -0.095127463
0.24231641 0.028051998 -0.094546311
0.30611089 0.028052 -0.092024513
0.39377651 0.023098921 -0.098600648
-0.36293089 0.031435601 -0.090509765
0.42035222 0.033146441 -0.097050257
-0.41509077 0.046399064 -0.097167075
0.41260481 0.046193376 -0.094400041
-0.34243485 0.01240562 -0.085020348
-0.33462781 0.0117502 -0.082561046
-0.31327608 0.0117502 -0.086502835
-0.22963977 0.0117502 -0.084492154
-0.21871491 0.011750201 -0.080427796
-0.16726573 0.0117502 -0.083211571
-0.066926971 0.0117502 -0.081760749
0.065819234 0.0117502 -0.084249206
0.18330477 0.0117502 -0.089019723
0.19306517 0.011750201 -0.085478261
0.21889111 0.011750201 -0.081025511
0.24884459 0.0117502 -0.086319871
0.36578935 0.016018124 -0.087535471
-0.40963942 0.027970061 -0.083687119
-0.3965373 0.023366719 -0.083635554
-0.25772542 0.028052 -0.085671388
-0.236003 0.028052 -0.08616367
-0.19915956 0.028051998 -0.08194086
0.035148367 0.028052002 -0.087754689
0.17232764 0.028052 -0.086741619
0.21579596 0.028052 -0.082688302
0.25634873 0.028052002 -0.087091371
0.30248785 0.028051998 -0.081163347
-0.42069682 0.032458365 -0.082319416
-0.36983758 0.032752749 -0.082698673
-0.3579022 0.030602887 -0.082361676
0.3522349 0.030054647 -0.083795287
-0.41717845 0.047305405 -0.080113702
-0.43839449 0.057284981 -0.086310297
-0.38341039 0.019604724 -0.072972134
-0.35984331 0.014582461 -0.074428916
-0.22190401 0.0117502 -0.074472189
-0.05709492 0.0117502 -0.073116697
-0.046672381 0.0117502 -0.073121741
0.01751361 0.0117502 -0.079727255
0.091703795 0.011750199 -0.079064749
0.22594066 0.0117502 -0.070827134
0.23798202 0.011750201 -0.079752214
0.24089913 0.0117502 -0.07882987
0.26512682 0.0117502 -0.075261846
0.30737448 0.011750201 -0.075907126
-0.40758198 0.027226252 -0.070117354
-0.29104114 0.028052002 -0.077512227
-0.27147931 0.028052 -0.071557358
-0.22220963 0.028052002 -0.075259015
-0.18805894 0.028052 -0.077000231
-0.15383852 0.028051998 -0.079252109
-0.13085356 0.028052002 -0.073438585
-0.078893684 0.028052 -0.070495784
-0.069043301 0.028052 -0.072692171
-0.033903949 0.028051998 -0.079369977
-0.026004173 0.028051998 -0.076385796
0.0058967471 0.028052002 -0.078459263
0.026664123 0.028051998 -0.077432655
0.076728448 0.028052 -0.075495154
0.20487294 0.028052 -0.073370963
0.21596238 0.028052 -0.073609404
0.23997438 0.028052 -0.074452564
-0.37710983 0.034394648 -0.074554645
0.36835307 0.032778449 -0.074717544
0.45159507 0.054114942 -0.076347917
-0.44934672 0.063507989 -0.070222139
-0.36417311 0.015426831 -0.060027853
-0.28771907 0.011750199 -0.060085855
-0.26908764 0.0117502 -0.069818825
-0.24521644 0.0117502 -0.064370342
-0.23137411 0.011750201 -0.062748551
-0.22328101 0.0117502 -0.06413959
-0.18156932 0.0117502 -0.067391269
-0.1618914 0.0117502 -0.069949627
-0.11091027 0.0117502 -0.068760261
-0.097282059 0.0117502 -0.063427538
0.038003638 0.011750199 -0.06239932
0.080943212 0.011750199 -0.064070605
0.11966801 0.011750199 -0.068905912
0.14359146 0.011750199 -0.069470122
0.2398508 0.0117502 -0.069015205
0.28050733 0.011750199 -0.064022206
0.2971366 0.011750199 -0.062394522
0.30794555 0.0117502 -0.069889076
0.36797386 0.016389964 -0.066919275
-0.40965062 0.028032828 -0.069556542
-0.16544418 0.028052 -0.067407683
-0.1593501 0.028052 -0.064847887
-0.10499965 0.028052 -0.062123701
-0.062598526 0.028052002 -0.065398537
-0.032243822 0.028052002 -0.060504481
0.013126448 0.028052002 -0.064056702
0.060371384 0.028052002 -0.064166002
0.11234499 0.028052002 -0.065421849
0.20145999 0.028051998 -0.061934281
0.23987135 0.028052 -0.06688457
0.31053624 0.028052 -0.067145929
0.32605657 0.028052 -0.065796554
-0.38205713 0.035592012 -0.069427848
-0.37830245 0.034713719 -0.060993563
0.41371101 0.030219622 -0.066464551
0.43298706 0.039006762 -0.068575062
-0.40706563 0.043361921 -0.066774093
-0.42363346 0.050174493 -0.067608967
-0.44622064 0.061737083 -0.062303469
-0.37391075 0.017372223 -0.056242861
-0.34454799 0.012621986 -0.05484432
-0.31428957 0.011750199 -0.052519627
-0.1848397 0.0117502 -0.052211203
-0.16662544 0.0117502 -0.058877356
-0.12878662 0.0117502 -0.059979077
-0.067152575 0.0117502 -0.050628819
-0.055035781 0.011750199 -0.050795149
0.04355114 0.011750199 -0.054171331
0.050400198 0.0117502 -0.052951328
0.22181013 0.011750201 -0.050103266
0.32577601 0.0117502 -0.052385923
-0.41429994 0.029966924 -0.052080795
-0.40401718 0.026058773 -0.052419309
-0.35084826 0.029665817 -0.053991474
-0.19417691 0.028052 -0.058785476
-0.17443952 0.028052 -0.056670457
-0.13063714 0.028052002 -0.053756315
-0.11648843 0.028052002 -0.055649225
0.013835333 0.028052 -0.059252143
0.090706572 0.028052 -0.055685788
0.10790807 0.028052 -0.057711627
0.15104552 0.028052 -0.05645391
0.28866243 0.028051998 -0.05403959
0.31476897 0.028052002 -0.051794533
-0.44118041 0.042594679 -0.054806363
0.4420175 0.043690294 -0.054644845
0.45124906 0.049041834 -0.051511005
0.43524891 0.056407392 -0.054618862
0.45974463 0.054558568 -0.056151897
0.46090588 0.055279512 -0.051292196
-0.4449777 0.061069261 -0.053101324
-0.32885748 0.0117502 -0.049656995
-0.2248418 0.0117502 -0.040038727
-0.1817944 0.0117502 -0.049733926
0.0087384582 0.011750201 -0.047250647
0.022927627 0.011750199 -0.045933254
0.052716557 0.0117502 -0.041529879
0.099392332 0.0117502 -0.048966538
0.17139661 0.0117502 -0.042968482
0.29693553 0.011750199 -0.04492512
0.3093347 0.0117502 -0.046886329
0.36938223 0.016613221 -0.045147728
-0.33215797 0.028052002 -0.041646346
-0.32656637 0.028052 -0.047633246
-0.29954204 0.028052002 -0.049832996
-0.26249546 0.028052002 -0.049193945
-0.20186134 0.028052002 -0.042643987
-0.17817388 0.028051998 -0.048815727
-0.017635044 0.028052 -0.04986161
0.0031525418 0.028052002 -0.04123129
0.016389355 0.028052 -0.04918037
0.028248601 0.028052 -0.0429703
0.066002741 0.028051998 -0.045726188
0.25758308 0.028052002 -0.046047054
0.28657278 0.028051998 -0.044945475
0.29814434 0.028052002 -0.043636568
-0.42195833 0.049504366 -0.04701354
-0.41417757 0.046268795 -0.040126633
-0.45017576 0.064169951 -0.040249377
-0.44783613 0.062778518 -0.04533701
-0.35467216 0.013918024 -0.03691572
-0.2130211 0.011750199 -0.030413773
-0.20706089 0.0117502 -0.034163896
-0.15530197 0.0117502 -0.032853466
-0.067626916 0.0117502 -0.038416296
-0.0085853711 0.0117502 -0.035374381
0.01215744 0.0117502 -0.032597095
0.12629302 0.0117502 -0.030291121
0.21783137 0.0117502 -0.037762493
0.32245576 0.0117502 -0.03166271
-0.24244317 0.028052 -0.031019982
-0.14660826 0.028052 -0.032611802
-0.097796947 0.028051998 -0.034285516
-0.077632487 0.028052002 -0.034095425
-0.035659887 0.028052002 -0.036480311
0.026482444 0.028052 -0.031380281
0.21890649 0.028052 -0.03931528
0.2379142 0.028051998 -0.032279216
0.40685546 0.027352229 -0.035942014
-0.42804611 0.036069542 -0.03031357
-0.41982666 0.048595704 -0.032641891
0.41012231 0.044938929 -0.031282451
0.447092 0.046519812 -0.034190483
-0.43594897 0.056303896 -0.032675393
-0.45451057 0.066869222 -0.033100106
-0.30363622 0.0117502 -0.027399555
-0.29432285 0.0117502 -0.023371108
-0.27188212 0.0117502 -0.02454773
-0.16661903 0.0117502 -0.028154701
-0.14927523 0.0117502 -0.022654532
-0.075900473 0.0117502 -0.029930759
0.0017222036 0.011750199 -0.022660283
0.057347655 0.0117502 -0.022805814
0.086868465 0.0117502 -0.027372384
0.31949478 0.0117502 -0.022733551
0.35942608 0.01469911 -0.026180711
0.36716098 0.016147953 -0.021242069
-0.3323971 0.028051998 -0.026000937
-0.28495145 0.028051998 -0.026758745
-0.17056619 0.028051998 -0.028476095
-0.040063545 0.028052 -0.022013396
-0.024289535 0.028052 -0.022960782
0.020094758 0.028052 -0.022475479
0.068185106 0.028051998 -0.023013968
0.11974755 0.028052 -0.025168169
0.20117705 0.028052002 -0.022083189
0.28929627 0.028051998 -0.022826359
0.41321811 0.02984637 -0.023834914
0.38155228 0.035696004 -0.021676246
-0.42307106 0.050130535 -0.022351159
0.46141979 0.055423092 -0.022891702
-0.46869737 0.065171309 -0.028511589
-0.46947592 0.070693426 -0.022087406
0.46740019 0.074372843 -0.029743724
-0.33526176 0.011828805 -0.016026054
-0.3217712 0.0117502 -0.019395456
-0.31797037 0.011750199 -0.01251734
-0.25938582 0.011750201 -0.019737761
-0.24173656 0.011750201 -0.016250031
-0.18551727 0.0117502 -0.018529195
-0.13541725 0.011750199 -0.016271437
-0.084621891 0.011750201 -0.010303516
-0.035550997 0.0117502 -0.011598952
-0.014764681 0.0117502 -0.012867846
-0.0027931733 0.011750201 -0.01251119
0.018935706 0.0117502 -0.019453716
0.022251174 0.011750201 -0.018057935
0.045153663 0.0117502 -0.018585183
0.1307513 0.011750199 -0.018209262
0.35145009 0.013544104 -0.013886936
0.37471831 0.017751517 -0.01918293
-0.39994481 0.02478181 -0.016332071
-0.33947963 0.02850996 -0.012896039
-0.3114261 0.028052002 -0.014518589
-0.25889677 0.028052 -0.019459713
-0.10479994 0.028051998 -0.011584908
0.024053564 0.028052 -0.013920465
0.035184115 0.028052 -0.010886483
0.077660039 0.028052 -0.016749611
0.10028682 0.028052002 -0.013847791
0.21802007 0.028051998 -0.010646246
0.26886851 0.028051998 -0.018756393
0.34055746 0.028628316 -0.011193104
-0.43067569 0.037371371 -0.013172923
-0.39202669 0.038539149 -0.018502921
0.36219612 0.031506225 -0.017262258
-0.4366346 0.040464699 -0.012429845
0.44269413 0.043889813 -0.016458353
0.46540496 0.058174759 -0.016505409
-0.45482478 0.067210563 -0.012525607
-0.38391578 0.019926926 -0.00041192397
-0.35096857 0.013452616 -0.003488712
-0.28366292 0.0117502 -0.0043892954
-0.27387273 0.0117502 -0.0070869178
-0.18606105 0.0117502 -0.0030846857
0.014858164 0.0117502 -0.0089995824
0.1149319 0.011750201 -0.00098241493
0.14477226 0.0117502 -0.0011496991
0.19656929 0.011750199 -0.0011971798
0.2391485 0.0117502 -0.0092387646
0.31960946 0.0117502 -0.0095530152
-0.39870918 0.024387782 -0.007235311
-0.18901072 0.028052002 -0.0044350177
-0.15993795 0.028052 -0.0041837394
-0.02994372 0.028052 -0.002156198
0.058933571 0.028052002 -0.0054714531
0.067016765 0.028052 -0.002684094
0.14761567 0.028052 -0.0025597364
0.15178487 0.028051998 -0.0067936089
0.21862014 0.028052 -0.0087898672
0.22712612 0.028052 -0.0056540221
0.24820027 0.028052 -0.0090664476
0.27064902 0.028052 -0.0011408553
0.31722081 0.028052 -0.0068025291
0.33647984 0.028259445 -0.005847469
0.40033099 0.024977587 -0.0012528598
0.4113397 0.029035389 -0.0096043553
0.36644989 0.032276709 -0.0010974742
0.380541 0.035415076 -0.0059707537
-0.44807786 0.046842434 -0.0077294596
0.45082548 0.04853892 -0.0086868312
-0.43032113 0.053511269 -0.0097514465
0.42284334 0.050132602 -0.0002837088
0.4667705 0.059108417 -0.0097907372
-0.32461202 0.0117502 0.0085770264
-0.2679466 0.011750201 0.0039002728
-0.2591618 0.0117502 0.0061443523
-0.24785161 0.0117502 0.0085491929
-0.10254098 0.0117502 0.00082741305
-0.067546561 0.0117502 0.0034697838
-0.051279247 0.0117502 0.0091487914
0.0024003452 0.0117502 0.0058779251
0.1146814 0.0117502 0.0036499351
0.14278845 0.011750199 0.0066066366
0.16452447 0.0117502 0.0051324079
0.17483166 0.0117502 0.0057159364
0.24893576 0.011750199 0.002477888
0.3463428 0.012829534 0.0033497438
-0.34382209 0.028916448 0.0076409653
-0.300708 0.028052002 0.0059011802
-0.27838808 0.028052002 0.0045004115
-0.1691436 0.028052 0.0038051084
-0.02055873 0.028052 0.0091036037
0.0079316832 0.028052 0.0078328205
0.097023576 0.028052 0.0086609572
0.19226058 0.028051998 0.0088530779
0.21815437 0.028051998 0.002147682
0.42517042 0.034858964 0.0076966584
0.41891506 0.0483291 0.00051533146
0.42296004 0.050173275 0.0024237074
-0.45344421 0.066425785 0.0040529352
0.46527648 0.074247062 0.0020908187
-0.34188274 0.012451099 0.018037118
-0.2511467 0.0117502 0.015398838
-0.2430934 0.0117502 0.018451178
-0.22877166 0.0117502 0.018273592
-0.15521021 0.011750199 0.014195338
-0.016504508 0.0117502 0.015093645
-0.0049028238 0.011750201 0.015146138
0.025695726 0.0117502 0.014869157
0.05942734 0.0117502 0.010063495
0.091583163 0.0117502 0.010473609
0.12374029 0.0117502 0.01305698
0.24882063 0.0117502 0.015076285
0.31874511 0.0117502 0.018977625
-0.38564062 0.020483794 0.017579649
-0.32006162 0.028051998 0.016354859
-0.26663077 0.028052 0.014439151
-0.14583443 0.028052 0.013453342
-0.12281237 0.028052002 0.011159761
-0.064081632 0.028052002 0.012856961
-0.047754511 0.028052 0.016150281
-0.017194584 0.028052 0.015722409
0.0077011948 0.028052 0.011289156
0.013798863 0.028052002 0.016426317
0.056171753 0.028052002 0.01009839
0.20912778 0.028052002 0.010808606
0.25986639 0.028051998 0.017903186
0.41020811 0.028497424 0.010946793
-0.43203521 0.038244739 0.018306412
0.39597982 0.039726518 0.01322097
-0.45013413 0.048194796 0.01828176
-0.43275884 0.054903734 0.014764283
0.42597887 0.051516373 0.010893305
0.45147645 0.065103911 0.010608427
-0.32669091 0.0117502 0.021544062
-0.31978095 0.0117502 0.026721489
-0.27173707 0.0117502 0.02947804
-0.25099513 0.0117502 0.027599176
-0.22237009 0.011750199 0.022611324
-0.20137477 0.011750199 0.027715098
-0.15356337 0.011750199 0.021058355
-0.14529929 0.011750201 0.021711716
-0.051146585 0.0117502 0.020554559
-0.021369815 0.011750201 0.029411562
0.0061040372 0.0117502 0.021330051
0.046869617 0.0117502 0.020095665
0.051474988 0.0117502 0.028736919
0.087095357 0.0117502 0.028168898
0.11003592 0.0117502 0.021502912
0.27606839 0.011750199 0.026295241
0.3703827 0.016656112 0.029877692
-0.27065724 0.028052 0.023014113
-0.23416913 0.028051998 0.029502898
-0.15871957 0.028051998 0.025914449
-0.12687977 0.028052002 0.026264723
0.096963704 0.028051998 0.025376249
0.13895796 0.028052 0.028081924
0.22234118 0.028052002 0.029851887
0.2928901 0.028052 0.024013415
0.31710091 0.028052 0.024310585
0.39430141 0.022877675 0.026020184
0.40190053 0.025420429 0.026516449
-0.42745167 0.036066268 0.026677491
-0.38290805 0.036026679 0.024142455
-0.3685005 0.032713369 0.026799198
0.37702399 0.034502525 0.022513499
-0.42941713 0.053250711 0.02277784
0.46881649 0.060347259 0.027530035
-0.38321581 0.019837312 0.037684478
-0.34105289 0.012396933 0.039682891
-0.33310795 0.0117502 0.030483689
-0.30306661 0.0117502 0.033882733
-0.29163879 0.0117502 0.036475565
-0.097951733 0.0117502 0.030792128
-0.084896266 0.0117502 0.035890087
-0.055814616 0.0117502 0.032368422
0.073882893 0.0117502 0.034451775
0.094432153 0.0117502 0.035938755
0.2293227 0.0117502 0.038441222
0.31458801 0.0117502 0.034526326
0.33355051 0.011750201 0.039946582
0.37328646 0.017272582 0.036050908
-0.40208384 0.025694175 0.03268962
-0.32631275 0.028052 0.034961317
-0.27347976 0.028052002 0.039775066
-0.17371298 0.028051998 0.034224845
-0.082181767 0.028052002 0.032520454
0.014286496 0.028052 0.036274325
0.026473686 0.028051998 0.036803886
0.069008708 0.028052 0.033200491
0.083837077 0.028052 0.03676749
0.095205329 0.028051998 0.03542041
0.1009828 0.028051998 0.031253383
0.21900377 0.028052 0.034866713
0.22636679 0.028052 0.037350018
0.24494587 0.028052002 0.034460101
0.27984622 0.028051998 0.038354285
0.29449359 0.028052 0.031659145
0.3934316 0.02259719 0.034980707
-0.38100156 0.035589319 0.031914931
-0.36827326 0.032689977 0.036809091
0.44208357 0.043199241 0.033690065
-0.31989259 0.0117502 0.047816381
-0.29598403 0.0117502 0.043693326
-0.27771455 0.0117502 0.044882294
-0.10275668 0.0117502 0.046236936
-0.035139725 0.011750199 0.044136945
-0.016628861 0.0117502 0.047299061
0.22516514 0.0117502 0.047558025
0.24154422 0.0117502 0.04626447
0.29721045 0.0117502 0.042193845
0.31712556 0.0117502 0.046552699
0.34588912 0.012748412 0.04753489
0.36081278 0.014822477 0.0449019
-0.39689571 0.023934441 0.041270148
-0.26742741 0.028052002 0.04348762
-0.1703538 0.028052002 0.042487342
-0.13886422 0.028052002 0.047068581
-0.01238364 0.028052 0.04655106
0.15918723 0.028052002 0.049557358
0.20663778 0.028052 0.048011556
0.21513149 0.028051998 0.045624875
0.24352773 0.028051998 0.049303219
0.28620762 0.028052 0.041371558
0.29893643 0.028052002 0.047919083
0.38929766 0.021368355 0.04289338
0.42890915 0.036393225 0.045450788
0.4509896 0.048321526 0.043549046
-0.45617926 0.052165359 0.044189468
0.42785048 0.052218679 0.04377079
0.44645432 0.061946921 0.049959946
0.46201837 0.071658455 0.045331612
-0.34525383 0.01278927 0.058570966
-0.28394794 0.0117502 0.052625149
-0.22860332 0.0117502 0.053708375
-0.1964711 0.0117502 0.051247075
-0.091373675 0.0117502 0.050177068
0.026517347 0.0117502 0.054176729
0.13880083 0.0117502 0.057853766
0.16470799 0.0117502 0.055918872
0.17393312 0.0117502 0.054063737
0.1851619 0.0117502 0.053399302
0.21358307 0.0117502 0.055443868
0.27332062 0.011750199 0.059925482
0.2894288 0.0117502 0.05064043
0.29972264 0.0117502 0.054702774
0.32005292 0.0117502 0.055756137
0.35688281 0.01420324 0.051612973
-0.39057934 0.022024473 0.051196218
-0.38790539 0.021242939 0.050515585
-0.34707153 0.029301448 0.057400331
-0.31250083 0.028052 0.050675754
-0.2732636 0.028052 0.057495721
-0.23731415 0.028052 0.054055892
0.092133217 0.028052002 0.057530731
0.19339217 0.028052002 0.053480022
0.20466456 0.028052 0.05966853
0.39953792 0.024488468 0.059345186
0.41127408 0.028755311 0.051920861
-0.43136591 0.038081437 0.05268063
-0.4210031 0.033264101 0.058678657
0.35625839 0.030410241 0.057659164
0.38313264 0.03592762 0.053799223
0.41719943 0.047420368 0.054177284
-0.37559938 0.018082194 0.067756362
-0.33310238 0.0117502 0.069965035
-0.25394052 0.0117502 0.062452003
-0.18390068 0.011750199 0.063834324
-0.13256362 0.0117502 0.063232042
0.0068091452 0.011750201 0.0602277
0.011897802 0.0117502 0.0643759
0.024654284 0.0117502 0.061248187
0.27821425 0.0117502 0.066329524
0.33306965 0.0117502 0.067177393
-0.25089017 0.028052 0.065362588
-0.23891562 0.028051998 0.061931532
-0.15744427 0.028052 0.061132357
-0.13255194 0.028052 0.065525018
-0.10640458 0.028052 0.065332346
-0.033779494 0.028052 0.067516983
0.0051050857 0.028052 0.065895021
0.034035746 0.028051998 0.067102857
0.12248468 0.028052 0.061651558
0.13940082 0.028052 0.060931161
0.14310163 0.028052 0.064155921
0.16031356 0.028051998 0.063185178
0.17997983 0.028052 0.062635414
0.22994629 0.028052002 0.063613631
0.24102315 0.028052002 0.065588258
0.25315559 0.028052002 0.064046964
0.28132695 0.028052 0.063625291
-0.37852585 0.035089917 0.06979242
0.38368207 0.036002047 0.061021119
0.41464511 0.030047309 0.065984689
0.42232069 0.033289693 0.063660599
-0.44401026 0.044905938 0.062448833
0.44838157 0.046698082 0.061258804
-0.43595782 0.056805417 0.060319852
0.4398163 0.058129139 0.066262886
-0.45706117 0.063639767 0.065526672
-0.33945385 0.012282614 0.070576437
-0.20576926 0.0117502 0.073381931
-0.051781051 0.0117502 0.077175751
-0.02736178 0.0117502 0.073649094
0.026377842 0.0117502 0.073722742
0.13449046 0.0117502 0.072844222
0.15358877 0.011750201 0.072350219
0.20646834 0.011750199 0.078287102
0.25737876 0.0117502 0.077185705
0.28173959 0.011750201 0.072467908
0.33604568 0.01186247 0.076306149
0.34177297 0.012355464 0.075316325
-0.30131778 0.028052002 0.071102947
-0.29954994 0.028051998 0.072392181
-0.17321676 0.028052 0.076881178
-0.15701291 0.028052 0.073077366
-0.09492372 0.028051998 0.074431494
0.05126293 0.028052 0.07729286
0.070448354 0.028052002 0.076214552
0.09567216 0.028052 0.079198778
0.11801636 0.028052 0.076457359
0.13258523 0.028052002 0.073365808
0.38882953 0.02112538 0.078366004
0.39376065 0.038883194 0.072245136
0.41524181 0.030257083 0.073060155
-0.43800223 0.041642219 0.07526423
-0.41962928 0.049032107 0.078941256
0.44617495 0.058543261 0.076208495
-0.4513253 0.065513194 0.072226882
-0.35760722 0.014496287 0.083368532
-0.34729314 0.013072021 0.086629413
-0.2862004 0.0117502 0.084804088
-0.11440516 0.011750201 0.086261883
-0.017213196 0.0117502 0.089888543
0.1460924 0.0117502 0.08418265
0.1698056 0.011750201 0.087388545
0.18449283 0.011750199 0.08239273
0.23692164 0.011750199 0.083574109
0.24383916 0.0117502 0.08273115
0.27203235 0.011750199 0.085676521
0.34371722 0.012520161 0.084935762
0.35510492 0.01391381 0.081829272
-0.24524346 0.028051998 0.08414124
-0.19522855 0.028052 0.088923484
-0.17415151 0.028052002 0.082695752
-0.14359529 0.028052 0.080966115
-0.10208976 0.028051998 0.082603909
-0.083712012 0.028052 0.086199731
-0.048605721 0.028052002 0.08873491
0.10458103 0.028052002 0.085201442
0.17358115 0.028051998 0.082713984
0.20662045 0.028052 0.086120486
0.22979705 0.028052 0.089086063
0.23353691 0.028052 0.084041968
0.29319698 0.028051998 0.089578912
0.30224594 0.028052 0.089506879
0.38883719 0.021112321 0.083457492
0.39712352 0.023551544 0.088543937
-0.42977178 0.037414763 0.082659483
-0.38099766 0.035720594 0.085488088
0.43292192 0.038171496 0.081410304
-0.40697035 0.043912042 0.088232458
0.41326943 0.045703162 0.088962041
0.43677604 0.045531951 0.088722773
0.43608993 0.056074046 0.089365661
-0.37925196 0.019031383 0.09812814
-0.25056955 0.0117502 0.099023074
-0.23504917 0.011750199 0.09004955
-0.18432392 0.011750201 0.096367545
-0.1256824 0.0117502 0.09344653
-0.11378328 0.0117502 0.09903273
-0.10705228 0.0117502 0.092080817
-0.096554205 0.011750201 0.094067261
-0.086645678 0.011750199 0.094460696
-0.069775887 0.011750201 0.091035232
0.055279866 0.0117502 0.091949403
0.20249827 0.011750199 0.090393908
0.22255087 0.011750199 0.090806812
-0.18412475 0.028052 0.096413553
-0.13266596 0.028051998 0.091868721
-0.092982419 0.028051998 0.095788494
-0.073235005 0.028051998 0.094583526
0.017564487 0.028052002 0.093562141
0.27439401 0.028052 0.097194739
0.38888711 0.03740539 0.09139856
-0.43919045 0.04234428 0.09137392
-0.40357888 0.042727362 0.093078397
0.43403542 0.049695347 0.09237171
0.43150458 0.051374219 0.094830014
-0.3796562 0.019143881 0.10451011
-0.31166169 0.0117502 0.10895476
-0.28765938 0.0117502 0.10169721
-0.26066533 0.0117502 0.10945432
-0.17898718 0.0117502 0.10969204
-0.13775364 0.0117502 0.10369876
-0.064235136 0.0117502 0.10477783
-0.035215333 0.011750199 0.10113572
-0.014554761 0.0117502 0.10280679
0.014243439 0.011750201 0.10484803
0.1403874 0.0117502 0.10869713
0.15226388 0.0117502 0.1016214
0.20884088 0.0117502 0.10939392
0.2413336 0.0117502 0.10946587
0.2658515 0.0117502 0.10774671
0.27584028 0.011750199 0.10695492
0.31176683 0.0117502 0.10490286
0.3824304 0.019289304 0.1058305
-0.38311967 0.02000959 0.10436293
-0.33961928 0.028633207 0.10757816
-0.20241711 0.028052 0.10929757
-0.14076646 0.028051998 0.10951918
-0.12368603 0.028051998 0.10185368
-0.076713711 0.028052 0.10231294
0.0062427633 0.028052 0.10615358
0.035268277 0.028052 0.1006214
0.060580619 0.028052 0.10803319
0.11654724 0.028052 0.1075118
0.18311599 0.028052 0.10581562
0.2231026 0.028051998 0.107209
0.31471992 0.028052 0.10296536
0.34919026 0.029367674 0.10187303
-0.42406324 0.034869354 0.10186374
-0.38758004 0.037609387 0.10343859
0.41602808 0.035733476 0.10696139
-0.42745057 0.052722123 0.10163882
-0.31834316 0.0117502 0.11441268
-0.26561564 0.011750199 0.11214007
-0.1363208 0.011750201 0.11153448
-0.085667059 0.0117502 0.11791013
-0.072520807 0.0117502 0.11298746
0.081451453 0.011750199 0.11564405
0.16423941 0.0117502 0.11919251
0.2177356 0.011750199 0.1129244
0.23742484 0.0117502 0.11153632
0.29116124 0.0117502 0.11328881
0.32212406 0.0117502 0.11665858
0.34021193 0.012175487 0.11951484
-0.33094347 0.028052 0.1170021
-0.28183213 0.028052002 0.11312864
-0.12600799 0.028052 0.1130202
-0.027843736 0.028052002 0.1133501
0.0505227 0.028052 0.11448836
0.095420659 0.028052002 0.11449742
0.16366138 0.028052002 0.11874182
0.17764479 0.028051998 0.11296457
0.1944637 0.028052002 0.11542594
0.20355213 0.028051998 0.11874942
0.26784688 0.028052 0.11400394
0.28340822 0.028052 0.11296072
0.39395273 0.022494197 0.11986821
-0.41874549 0.032472976 0.11011136
-0.39115813 0.038698655 0.1189109
-0.36197132 0.031659774 0.11808828
-0.35299003 0.030205652 0.1162519
0.36367589 0.031522959 0.11774564
0.37570912 0.033969417 0.11096875
-0.34740645 0.013137333 0.12139393
-0.33199087 0.011750199 0.12681907
-0.25725472 0.0117502 0.12564245
-0.17160173 0.011750201 0.12803638
-0.045381859 0.0117502 0.12224387
-0.035870627 0.0117502 0.12205282
-0.016526341 0.0117502 0.12830827
0.053982973 0.0117502 0.12905943
0.092460901 0.0117502 0.1287417
0.14821416 0.011750201 0.12080482
0.16795346 0.0117502 0.12829089
0.20531209 0.0117502 0.12324093
0.32023275 0.0117502 0.12297431
0.36910352 0.016222645 0.12884849
-0.3993569 0.027377592 0.12531036
-0.29408816 0.028052 0.12310751
-0.1235052 0.028051998 0.12618738
-0.11811139 0.028052002 0.1205696
-0.04509718 0.028052 0.12128635
-0.0096321702 0.028052 0.12135883
0.034766998 0.028051998 0.12676966
0.092019953 0.028052002 0.12436624
0.13106486 0.028052002 0.12426543
0.2457169 0.028052 0.12317706
0.31290641 0.028052 0.12371026
0.35192269 0.029710181 0.12718508
0.38497734 0.029809669 0.12424911
-0.37086508 0.03339424 0.12610435
0.37894505 0.034716371 0.12232696
-0.31323498 0.0117502 0.13992977
-0.30718762 0.0117502 0.13006169
-0.28003016 0.0117502 0.13698398
-0.22590272 0.0117502 0.13155295
-0.093772613 0.011750201 0.13000199
-0.084584452 0.016503973 0.13944879
-0.0069705248 0.0117502 0.13618371
0.025061578 0.0117502 0.13356408
0.087092526 0.0117502 0.1364896
0.1041952 0.012268319 0.13744481
0.12900719 0.014407763 0.13724788
0.19365035 0.01222808 0.13658178
0.26568198 0.013430038 0.13342205
0.27335042 0.01675484 0.13576053
0.29422027 0.016586017 0.13554548
0.32401249 0.014736559 0.13523848
-0.38349861 0.024931341 0.13168743
-0.24592292 0.028052 0.13341759
-0.14614142 0.028052 0.13482144
-0.1144646 0.025306873 0.13940519
-0.076258525 0.028051998 0.13863018
-0.054496095 0.028051998 0.13392644
-0.014457852 0.026366903 0.13872619
0.081978217 0.028052002 0.1375621
0.1333459 0.028051998 0.13135633
0.15543914 0.028051998 0.13448611
0.17144111 0.023639277 0.13681063
0.18565339 0.020219481 0.13666418
0.29003078 0.023779556 0.13558865
0.31751472 0.022624046 0.13530545
-0.32989937 0.014214793 0.14197659
-0.23921522 0.012435959 0.14104214
-0.33730268 0.028457539 0.14140382
-0.28121442 0.022433508 0.14147492
-0.20763616 0.026952062 0.1407083
-0.19222006 0.021374779 0.1405579
-0.14033084 0.021771083 0.14002322
