# .PCD v0.7 - Point Cloud Data file format
VERSION 0.7
FIELDS x y z
SIZE 4 4 4
TYPE F F F
COUNT 1 1 1
WIDTH 921
HEIGHT 1
VIEWPOINT 0 0 0 1 0 0 0
POINTS 921
DATA ascii
-0.19639531 0.020202935 -0.16150671
-0.17704272 0.02498851 -0.16585939
-0.23227541 0.030244701 -0.16001108
-0.15961029 0.030244701 -0.16025066
-0.28581116 0.0200403 -0.15251847
-0.25704962 0.020644406 -0.15889513
-0.12553754 0.029668435 -0.15756151
-0.097195506 0.028634712 -0.15300468
0.21744786 0.023039782 -0.15200746
0.29345003 0.030244701 -0.15004706
-0.23343062 0.0200403 -0.14805982
-0.06081086 0.024589274 -0.14763464
-0.045191478 0.0200403 -0.14007629
-0.034251574 0.029067893 -0.14237961
-0.016112227 0.029344609 -0.14016029
0.17155541 0.025900014 -0.1458181
0.22012487 0.0200403 -0.14030331
0.24592194 0.020230314 -0.14997666
0.29870293 0.0200403 -0.1484164
0.34750298 0.021601945 -0.14670017
-0.29379436 0.030350382 -0.1484299
-0.22243965 0.030244702 -0.14268416
-0.21576652 0.030244701 -0.14019062
-0.19540304 0.030244701 -0.1455394
-0.14591517 0.030244701 -0.14858665
-0.11099898 0.030244701 -0.14620902
-0.096754238 0.030244701 -0.14635304
0.20497593 0.030244701 -0.1405609
0.26203942 0.030244701 -0.14093289
0.2590557 -0.062372915 -0.13117334
-0.27511698 -0.047100361 -0.13221379
0.2799814 -0.028696252 -0.13439099
-0.24771059 -0.012188808 -0.1304464
0.23360839 -0.018082229 -0.13439099
-0.28441834 0.0200403 -0.13753323
-0.21551698 0.0200403 -0.13406751
-0.13513406 0.0200403 -0.13446239
-0.098817497 0.0200403 -0.13541274
-0.083603188 0.0200403 -0.13043183
-0.014459184 0.020765852 -0.13933137
-0.0030410921 0.020223368 -0.13650094
0.051511034 0.02827947 -0.13735136
0.074572362 0.020361431 -0.13281807
0.092927851 0.021552552 -0.13732737
0.24254404 0.0200403 -0.13503475
-0.30526137 0.030684851 -0.13844959
-0.25842375 0.030244701 -0.13392667
-0.17481922 0.030244701 -0.13467351
-0.070555337 0.030244701 -0.13892896
-0.054174792 0.030366899 -0.13125828
0.051661778 0.030244701 -0.13049354
0.26833758 0.030244701 -0.13246335
0.30108196 0.030244701 -0.13238715
0.32615876 0.030244701 -0.13169892
-0.27674383 -0.065770462 -0.12396646
-0.30853197 -0.045134779 -0.12509415
-0.31187639 -0.032397471 -0.12088829
-0.28507966 -0.033207208 -0.1233919
-0.24005733 -0.028127972 -0.12829463
0.29427642 -0.02265342 -0.12450498
-0.2762498 0.0063713337 -0.12790321
0.26685691 0.005371809 -0.12681149
-0.28465641 0.020040302 -0.12536843
-0.26040295 0.0200403 -0.12270886
-0.23604077 0.020040298 -0.12879588
-0.17363229 0.0200403 -0.12229457
-0.051130727 0.0200403 -0.12248439
-0.011341624 0.0200403 -0.12859856
0.079498656 0.0200403 -0.12014459
0.14657629 0.0200403 -0.12403403
0.21801117 0.0200403 -0.12630582
0.36385363 0.0200403 -0.12337709
-0.29692498 0.030392412 -0.1269725
-0.27403605 0.030244701 -0.12450077
-0.23281722 0.030244702 -0.1268438
-0.065376237 0.030366899 -0.12593555
-0.053386632 0.030244701 -0.12363303
0.041448135 0.030244701 -0.12131798
0.25261867 0.030244701 -0.12515047
0.33111402 0.030244701 -0.12668961
0.28423479 -0.055769823 -0.11452803
-0.30760121 -0.047381815 -0.11750324
0.22270873 -0.029841313 -0.11134386
0.28654951 -0.006744063 -0.11913484
0.24918932 0.0050125765 -0.11430655
0.26530442 0.0055760909 -0.11063385
-0.35669738 0.025708117 -0.11781564
-0.29213029 0.020123959 -0.11831494
-0.2364514 0.0200403 -0.11011875
-0.22005011 0.0200403 -0.1183529
-0.13206655 0.0200403 -0.11488606
0.08126469 0.0200403 -0.11131719
0.19380553 0.0200403 -0.11368473
0.4148218 0.023948379 -0.11583581
-0.33985215 0.03347706 -0.11096227
-0.27110326 0.030244702 -0.11818407
-0.2422215 0.030244701 -0.1147843
-0.18621157 0.030244701 -0.11763522
-0.13525438 0.030244701 -0.11182226
-0.083609022 0.030244701 -0.11048302
-0.038239118 0.0313874 -0.11262851
-0.016863381 0.030366898 -0.11334443
0.0099562965 0.030244701 -0.11268122
0.065192997 0.030244701 -0.11709031
0.12670258 0.030244701 -0.11901302
0.15618606 0.030244701 -0.1136566
0.18064666 0.030244701 -0.11242731
-0.38293815 0.040998697 -0.11157935
0.29027686 -0.048092473 -0.10015151
-0.31145933 -0.03556674 -0.10711915
0.27097547 0.0040882151 -0.10002582
-0.35725534 0.025802959 -0.10510378
-0.34782371 0.024373373 -0.10279424
-0.28425696 0.0200403 -0.1041318
-0.1952153 0.0200403 -0.10885751
-0.14054568 0.0200403 -0.10365175
-0.089597344 0.0200403 -0.10263185
0.047418352 0.020040298 -0.10229976
0.23234437 0.0200403 -0.10156619
-0.40619594 0.036717385 -0.10598023
-0.21506098 0.030244701 -0.10491373
-0.065438926 0.030244701 -0.10709268
0.013389952 0.030244701 -0.10194775
0.36064747 0.030244701 -0.10526487
-0.28133827 -0.065396607 -0.095854796
-0.27085546 -0.065434083 -0.095001817
-0.30350101 -0.052998241 -0.097612523
-0.24035883 -0.03487628 -0.092231318
0.29440737 -0.023647292 -0.095281728
-0.30942363 -0.016712941 -0.095814213
-0.25520831 -0.0004554968 -0.09629225
-0.28674436 0.004592794 -0.093313597
-0.061267 0.019918103 -0.094856769
-0.34031445 0.023336032 -0.094420671
-0.32429373 0.021679282 -0.094690934
-0.31601846 0.021054819 -0.096671462
-0.19460291 0.0200403 -0.09628737
0.011709455 0.0200403 -0.096204445
0.10050017 0.0200403 -0.096180066
0.14040293 0.0200403 -0.090256028
0.24168248 0.0200403 -0.093388021
0.25959697 0.0200403 -0.093093053
0.33298257 0.0200403 -0.09764871
0.43670961 0.028519684 -0.095959917
-0.27157596 0.030244701 -0.097932041
-0.15200819 0.030244701 -0.097549595
0.047552265 0.030244701 -0.094948821
0.069717683 0.030244701 -0.094518907
0.071127623 0.030244701 -0.094355509
0.13870378 0.030244701 -0.091224514
0.15629315 0.030244701 -0.093273148
0.16140857 0.030244701 -0.096554756
0.21082005 0.030244702 -0.092555143
0.22428705 0.030244701 -0.094462648
0.31280804 0.030244701 -0.095516756
0.22456993 -0.04074306 -0.081078246
0.28950122 -0.049103536 -0.081379429
-0.24191242 -0.018096359 -0.088021763
0.22811057 -0.011008498 -0.081142627
-0.25137934 -0.0033937329 -0.086783484
0.28390902 -0.0036755712 -0.08809413
-0.037295945 0.019918103 -0.089821532
-0.36790746 0.027655819 -0.086769193
-0.20777488 0.0200403 -0.08043211
-0.1982955 0.0200403 -0.086265683
-0.13253547 0.0200403 -0.080421895
-0.081108451 0.0200403 -0.088400416
-0.053863913 0.0200403 -0.086223766
-0.011028208 0.0200403 -0.088803641
0.025319684 0.0200403 -0.08453434
0.12799588 0.0200403 -0.08016783
0.27053764 0.0200403 -0.081881367
-0.26558316 0.030244701 -0.087982684
-0.23131168 0.030244701 -0.088387057
-0.19312724 0.030244701 -0.085029684
-0.18423426 0.030244701 -0.087439962
-0.065479785 0.030244701 -0.082239494
0.12068583 0.030244701 -0.085361421
0.15545569 0.030244701 -0.088620692
0.35968214 0.030244701 -0.088331096
-0.3840341 0.041255828 -0.084537849
-0.44561222 0.050013375 -0.083042294
0.25153127 -0.065126717 -0.079809301
0.26599783 -0.06517984 -0.076398
-0.24504082 -0.011083744 -0.074959099
-0.28767025 0.0042093587 -0.072569519
0.002375345 0.019918101 -0.074540779
-0.29475307 0.020159312 -0.077713922
-0.1185464 0.0200403 -0.076073743
-0.0090053938 0.0200403 -0.078312904
0.0038105417 0.0200403 -0.071126655
0.070887066 0.0200403 -0.072219327
0.13856201 0.0200403 -0.077297695
0.14528938 0.0200403 -0.070597202
0.20447618 0.0200403 -0.075082362
0.31595504 0.0200403 -0.073978126
0.38998771 0.020993546 -0.071114942
0.40783674 0.02292422 -0.078800738
-0.23047045 0.030244701 -0.072418548
-0.20324163 0.030244701 -0.076312535
-0.099881768 0.030244701 -0.075132653
-0.078783244 0.030244701 -0.079821549
0.0036912244 0.030244701 -0.075202137
0.025968876 0.030244701 -0.072676733
0.053186357 0.030244701 -0.075154096
0.11199149 0.030244701 -0.070761941
0.14644659 0.030244701 -0.077246219
0.24284016 0.030244701 -0.070092976
0.31397524 0.030244701 -0.073253997
0.37559372 0.030449338 -0.073035046
0.41120505 0.033619016 -0.074211434
0.44926822 0.031513032 -0.070506111
-0.4324452 0.046034243 -0.076873198
-0.41587675 0.04981938 -0.078013808
-0.37890291 0.04008206 -0.078517973
-0.25192934 -0.052395146 -0.061137486
0.27913651 -0.059681516 -0.063742593
0.28170088 -0.057714015 -0.066080794
0.28810465 -0.046249248 -0.061470006
-0.3120271 -0.031251907 -0.068070486
0.24983013 -0.028940059 -0.069982603
-0.28243756 0.0055569429 -0.068953581
-0.26592517 0.0041748816 -0.063645341
-0.027444754 0.019918101 -0.063073538
-0.36611372 0.027354907 -0.066233352
-0.25717404 0.0200403 -0.065353334
-0.013579847 0.0200403 -0.063900605
0.03990012 0.0200403 -0.069985718
0.044291448 0.0200403 -0.061722975
0.099697925 0.0200403 -0.064812481
0.16702938 0.0200403 -0.062996596
0.31642458 0.0200403 -0.067527205
0.38569304 0.020711195 -0.063861333
-0.34299809 0.033910591 -0.065820649
-0.32250848 0.031748697 -0.069049381
-0.3153775 0.031209907 -0.060341541
-0.30801547 0.030807361 -0.062611409
-0.24839832 0.030244701 -0.069812015
-0.20530653 0.030244701 -0.063887231
-0.11949241 0.030244701 -0.068629712
-0.018398043 0.0313874 -0.061185069
-0.0079308767 0.0313874 -0.069701351
0.014368341 0.030244701 -0.06602025
0.040730711 0.030244701 -0.062955536
0.096382566 0.030244701 -0.061535608
0.10524043 0.030244701 -0.067487225
0.11609422 0.030244701 -0.069417268
0.12713033 0.030244701 -0.065762982
0.16102263 0.030244701 -0.062372498
0.18027002 0.030244701 -0.062661082
0.25204143 0.030244701 -0.065998681
0.27797231 0.030244701 -0.065140754
0.34343424 0.030244701 -0.061453521
0.40712652 0.033024617 -0.068047076
-0.43009502 0.054491118 -0.060959663
-0.26901543 -0.032475047 -0.056267999
-0.25745293 -0.027796373 -0.058272399
0.2350713 -0.027803618 -0.057492904
0.23318905 -0.016156426 -0.058116086
-0.28394222 -0.0037250712 -0.057492901
-0.33022606 0.022245523 -0.054228492
-0.20353755 0.0200403 -0.0500746
-0.19890094 0.0200403 -0.05300907
-0.18121392 0.0200403 -0.050894175
-0.16675141 0.0200403 -0.058877666
-0.080389015 0.0200403 -0.05474551
0.055398166 0.0200403 -0.058419444
0.19660851 0.0200403 -0.052817509
0.2299488 0.0200403 -0.052360311
0.23521142 0.0200403 -0.055621654
0.3183732 0.0200403 -0.053236809
0.33060503 0.0200403 -0.052109126
-0.40541893 0.036481556 -0.057341795
-0.37070632 0.038425706 -0.055229872
-0.35664243 0.035903078 -0.056188468
-0.3204484 0.031593043 -0.054320414
-0.2769956 0.030244701 -0.055563264
-0.18152812 0.030244701 -0.053472593
-0.10391538 0.030244701 -0.056266323
-0.095632099 0.030244701 -0.053373471
0.05688335 0.030244701 -0.052105829
0.11645824 0.030244701 -0.057404563
0.14310879 0.030244701 -0.052764922
0.16560282 0.030244701 -0.054555818
0.27568507 0.030244701 -0.057350695
0.28279838 0.030244701 -0.05170757
0.33059153 0.030244701 -0.056065921
0.39504105 0.031658906 -0.055048101
0.46110499 0.037038181 -0.05851404
-0.44366387 0.049263023 -0.05066663
-0.43439722 0.045824796 -0.051706478
-0.42953324 0.044095065 -0.059818376
-0.38692951 0.041935153 -0.050826397
-0.45493224 0.053448468 -0.058119223
0.014038881 0.019918101 -0.048550766
-0.34740475 0.024315499 -0.043070301
-0.16278158 0.0200403 -0.047886655
-0.11489812 0.0200403 -0.043168329
-0.068489075 0.0200403 -0.045898251
0.01677426 0.0200403 -0.049455572
0.077943131 0.0200403 -0.048067108
0.11590973 0.0200403 -0.045462213
0.12856671 0.0200403 -0.047282103
0.15186131 0.0200403 -0.043707047
0.2088539 0.0200403 -0.041759908
0.26660624 0.0200403 -0.045691721
0.38539341 0.020691494 -0.047188275
0.39443237 0.021398336 -0.043250173
-0.41463029 0.039239459 -0.043555178
-0.40074733 0.035230912 -0.043127246
-0.22056755 0.030244701 -0.044365704
-0.17586039 0.030244701 -0.040640604
-0.048867311 0.030244701 -0.045386396
0.030113693 0.030244701 -0.042797416
0.24449441 0.030244701 -0.049004368
0.29845393 0.030244701 -0.047661681
0.33580476 0.030244701 -0.042278551
0.34103179 0.030244701 -0.043751135
0.43293336 0.037623357 -0.049658757
-0.43829814 0.047273971 -0.041154131
-0.40338361 0.046140485 -0.044832993
0.46215713 0.044874407 -0.047660083
-0.26549825 -0.031538777 -0.030200373
-0.26796076 -0.028901327 -0.0345538
0.26327837 -0.023648422 -0.03966862
-0.31152833 0.018325999 -0.031624489
-0.28442311 0.018325999 -0.031528007
0.025071066 0.019918101 -0.030319437
0.23597772 0.018325999 -0.030903246
0.2609154 0.018325999 -0.034168534
-0.35667467 0.025704259 -0.036528181
-0.31473282 0.020956896 -0.03128989
-0.26898983 0.0200403 -0.033013891
-0.25107506 0.0200403 -0.032441702
-0.20597506 0.0200403 -0.034074947
-0.13401753 0.0200403 -0.031315155
-0.02010718 0.0200403 -0.034662049
0.093822919 0.0200403 -0.037048399
0.10029907 0.0200403 -0.036816899
0.1488058 0.0200403 -0.034128662
0.20763279 0.0200403 -0.039518885
0.39494511 0.021445684 -0.038124826
0.42238328 0.025253758 -0.036480196
-0.37152958 0.038592074 -0.031793244
-0.34465635 0.034139745 -0.034986105
-0.13348638 0.030244701 -0.037893318
-0.11574104 0.030244701 -0.039817292
-0.041300148 0.030244701 -0.030790858
-0.022520844 0.030244701 -0.036451392
0.35466439 0.030244701 -0.03959721
0.36063313 0.030244701 -0.036933899
0.46139792 0.035464991 -0.034600742
0.45787436 0.044261489 -0.037715469
-0.27646273 -0.028886491 -0.026635502
0.26140732 -0.023656275 -0.026635498
-0.32031026 0.018325998 -0.026648367
-0.27265197 0.018325999 -0.025000907
0.27142221 0.018325999 -0.025202442
-0.32025775 0.0200403 -0.025942111
-0.31801254 0.021204699 -0.020750944
-0.29169732 0.020085264 -0.024665022
-0.27939761 0.0200403 -0.029379716
-0.25628275 0.0200403 -0.020799993
-0.24660161 0.0200403 -0.025142148
-0.22921593 0.0200403 -0.022472866
-0.14352411 0.0200403 -0.022308791
-0.12335786 0.0200403 -0.023700234
-0.070778146 0.0200403 -0.021280695
-0.053406656 0.0200403 -0.028086916
0.048202835 0.0200403 -0.027482349
0.059753098 0.0200403 -0.027531477
0.10823068 0.0200403 -0.024047211
0.14097705 0.0200403 -0.028234294
0.23285277 0.0200403 -0.029008457
0.26618859 0.0200403 -0.021255363
0.2800585 0.0200403 -0.024015721
0.43542939 0.027987465 -0.025754662
-0.3825236 0.030696481 -0.025247358
-0.25631216 0.030244701 -0.02689505
-0.14588337 0.030244701 -0.024892006
-0.075630054 0.030244701 -0.02427789
-0.023280876 0.030244701 -0.026108952
0.0088671818 0.030244701 -0.025156686
0.067788035 0.030244701 -0.024707457
0.14321759 0.030244701 -0.029322429
0.18098855 0.030244701 -0.023454119
0.20463473 0.030244701 -0.024231818
0.32271251 0.030244701 -0.023508955
0.41116631 0.033613373 -0.025642976
0.45328003 0.032651834 -0.025087496
-0.2649942 -0.034672126 -0.017579101
0.25457078 -0.035981975 -0.012565417
-0.26418394 -0.026708132 -0.018973665
-0.25921357 -0.027643206 -0.018197799
0.25579169 -0.019389801 -0.014002231
-0.26930934 -0.0032553691 -0.010119641
-0.27073562 0.0026612901 -0.01171
0.037152845 0.019918101 -0.012021292
-0.36821908 0.027718795 -0.010017815
-0.33550993 0.022809714 -0.014757378
-0.29112303 0.0200403 -0.015189822
-0.24304016 0.0200403 -0.017563475
-0.14619304 0.0200403 -0.015358418
-0.050004773 0.0200403 -0.018298145
-0.018862944 0.0200403 -0.011687635
0.017645739 0.0200403 -0.0142527
0.021305725 0.0200403 -0.010123363
0.035113934 0.0200403 -0.013490706
0.10426635 0.0200403 -0.011079812
0.13069257 0.0200403 -0.013908661
0.17304236 0.0200403 -0.011984861
0.19114603 0.0200403 -0.011047735
0.21113409 0.0200403 -0.017150521
0.2367433 0.0200403 -0.016257321
0.27584678 0.0200403 -0.011121695
0.33223206 0.0200403 -0.011941075
0.35235387 0.0200403 -0.019552097
-0.40236771 0.035664715 -0.013954814
-0.35853291 0.036224425 -0.010021898
-0.30954522 0.030875415 -0.013809814
-0.25127286 0.030244701 -0.018869564
-0.21105282 0.030244701 -0.011491705
-0.092542112 0.030244701 -0.015085724
-0.053370818 0.030244701 -0.011920024
0.0618871 0.030244701 -0.013799357
0.14632979 0.030244701 -0.018198719
0.22270834 0.030244701 -0.010152182
0.33699703 0.030244701 -0.01428284
0.44262892 0.039942373 -0.019852003
-0.43077901 0.044516116 -0.011929929
-0.40104666 0.045514856 -0.016841335
-0.46671969 0.06080126 -0.015163504
-0.28556028 -0.034332596 -0.00153444
-0.27203786 -0.022280846 -0.0025959739
-0.26066607 -0.02942403 -0.0086732293
0.24192035 -0.028900299 -0.0024439967
-0.28379789 -0.01227242 -0.0076977755
0.26486784 -0.015026677 -0.0068533844
-0.28857931 -0.0081563983 -0.0024892951
0.016560322 0.019918101 -0.0060894447
0.30449778 0.01821599 -0.0035629543
-0.24179831 0.0200403 -0.00032663773
-0.15213872 0.0200403 -0.0039490773
-0.1056492 0.0200403 -0.0023238119
0.029869001 0.0200403 -0.0075331009
0.079557538 0.0200403 -0.0053876191
0.21553206 0.0200403 -0.0040921201
0.22301519 0.0200403 -0.0066864355
0.3734557 0.020170923 -0.0026080485
0.39649516 0.021588823 -0.0056571392
0.41394454 0.023813909 -0.0041587413
0.43516731 0.027927823 -0.0026821578
-0.058657773 0.030244701 -0.0031964828
-0.0033402285 0.030244701 -0.0078620911
0.053512275 0.0310065 -0.0055202139
0.066958278 0.0313874 -0.00026706792
0.22733921 0.030244701 -0.0091273449
0.33027589 0.030244701 -0.0064994488
0.40301451 0.032518253 -0.0070444192
0.41530395 0.034267724 -0.0020968886
-0.42334509 0.052224308 -0.00602677
0.25564027 -0.0403051 0.0048810593
0.2607176 -0.0403051 0.0099889962
-0.28112486 -0.035387207 0.0035211178
-0.27036053 -0.02474677 0.0034331025
0.23590334 -0.022659523 0.0013446936
-0.26754427 0.0012187827 0.0099267485
-0.30888158 0.018325999 0.0047319429
-0.2436288 0.018325999 0.0029387255
-0.2292721 0.018325999 0.00015333574
0.057088491 0.019918101 0.0093199285
-0.35006845 0.024683466 0.0014948732
-0.33711302 0.022980884 0.0028982135
-0.32425138 0.0200403 0.009661735
-0.31499997 0.020977082 0.006304604
-0.23817204 0.0200403 0.0057216301
-0.13802442 0.0200403 0.0036340521
-0.063363194 0.0200403 0.0026585306
-0.057382211 0.0200403 0.0014556444
-0.017622177 0.0200403 0.0029900011
0.090113848 0.0200403 0.0016166894
0.16360581 0.0200403 0.0087983496
0.21830198 0.0200403 0.0072434433
0.2899766 0.0200403 0.0045885919
0.40210342 0.022205766 0.0040426422
-0.39147311 0.032797333 0.0023459252
-0.36601245 0.037529081 0.0040191552
-0.31038851 0.030912923 0.0062567173
-0.20337038 0.030244701 0.0097309956
-0.10004678 0.030244701 0.0073508061
-0.044299133 0.030244701 0.0080835894
-0.038058385 0.030244701 0.0020741955
-0.0039367313 0.030244701 0.0034715934
0.09344212 0.030244701 0.0080537489
0.15642557 0.030244701 0.0049699149
0.17250457 0.030244701 0.0046739988
0.24778385 0.030244701 0.00092362677
0.30767053 0.030244701 0.0043869964
0.45321488 0.03263364 0.0093152598
-0.38771158 0.042118639 0.0064687021
-0.28440082 -0.034380548 0.014202388
-0.25937185 -0.029253688 0.012182901
0.23685443 -0.028525991 0.014210563
-0.29012904 0.016939737 0.013146728
-0.23632404 0.018325999 0.015065904
0.22709447 0.018325999 0.013111063
-0.37023476 0.028125748 0.012127573
-0.32832968 0.022043031 0.018342074
-0.26399416 0.0200403 0.014927625
-0.14601773 0.0200403 0.012799681
-0.13924947 0.0200403 0.018420523
-0.0053353906 0.0200403 0.012178009
0.030576589 0.0200403 0.010577288
0.064160712 0.0200403 0.010091163
0.24947798 0.0200403 0.011864508
0.27608475 0.0200403 0.018589206
0.29288036 0.0200403 0.015416567
0.36727354 0.020061471 0.013267002
0.38450101 0.020632822 0.016433002
-0.40604007 0.036649704 0.017104641
-0.37827131 0.039954428 0.017010918
-0.28614959 0.030256778 0.013768353
-0.17278461 0.030244701 0.013169249
0.056617901 0.030244701 0.013180759
0.11368172 0.030244701 0.012618862
0.14988735 0.030244701 0.013949522
0.15404887 0.030244701 0.018421907
0.16458759 0.030244701 0.01363395
0.25980735 0.030244701 0.010646537
0.28202349 0.030244701 0.018206306
0.38074452 0.030623849 0.013299785
-0.43461764 0.045908093 0.014272894
-0.44945994 0.061621845 0.011153376
0.25445509 -0.034721285 0.026635502
0.26816675 -0.037523545 0.025083881
-0.28018042 -0.023581935 0.022589041
-0.27172118 -0.023587616 0.025423246
0.23332903 -0.028061952 0.021657784
0.25343248 -0.019181181 0.022966038
0.2525804 0.018325999 0.028137682
0.28157255 0.018325999 0.028889965
-0.24631859 0.0200403 0.025876293
-0.23766553 0.0200403 0.023914192
-0.14562126 0.0200403 0.022506937
-0.096757419 0.0200403 0.021944134
0.065925814 0.0200403 0.024846101
0.18347813 0.0200403 0.028686872
0.26937234 0.0200403 0.020925654
0.32654592 0.0200403 0.029960888
0.34503642 0.0200403 0.028393563
0.4056612 0.022629037 0.026429882
0.42904893 0.026579602 0.020258708
-0.22428469 0.030244701 0.029164933
-0.15874925 0.030244701 0.02226847
-0.1220319 0.030244701 0.020521007
-0.11011428 0.030244701 0.028465575
-0.093104526 0.030244699 0.026238386
-0.084057599 0.030244701 0.022883845
-0.06008549 0.030244701 0.028522711
0.0065250695 0.030244701 0.029096738
0.1001452 0.030244701 0.021334792
0.13358316 0.030244701 0.027000519
0.14459042 0.030244702 0.029782644
0.22778447 0.030244701 0.025186475
0.28037146 0.030244701 0.023794742
0.30061617 0.030244701 0.024080586
0.36800054 0.030275198 0.029417558
0.38781312 0.031054877 0.023024205
0.3974421 0.031880662 0.021618137
0.41766536 0.034643639 0.021429844
-0.40067828 0.045416236 0.02607402
-0.39882889 0.044921126 0.026471063
-0.41778171 0.050393753 0.026599886
-0.27185017 -0.02348863 0.036535423
-0.31007937 0.018325999 0.030740572
-0.23751366 0.018325999 0.033081796
0.22533356 0.018325999 0.0326676
-0.31229705 0.02079355 0.031782627
-0.30328774 0.020393189 0.035329208
-0.26117313 0.0200403 0.030573077
-0.22043684 0.0200403 0.034251962
-0.21856868 0.0200403 0.035217509
-0.12972111 0.0200403 0.031329904
-0.017717183 0.0200403 0.031694524
0.0070768446 0.0200403 0.034570754
0.12559275 0.0200403 0.03134378
0.16349252 0.0200403 0.039752658
0.20013028 0.0200403 0.033468422
0.2419183 0.0200403 0.032106336
0.2590498 0.0200403 0.031799804
0.31087708 0.0200403 0.030766252
0.38689506 0.020790219 0.032009441
0.42925218 0.026620241 0.030760795
-0.37075847 0.038436245 0.03579177
-0.24662024 0.030244701 0.03704118
-0.17259061 0.030244701 0.034949187
-0.039755777 0.030244701 0.030388774
-0.021669164 0.030244701 0.037852384
0.14859934 0.030244701 0.039314833
0.1524772 0.030244701 0.030341441
0.16071185 0.030244701 0.037773427
0.17437226 0.030244701 0.037471469
0.20147263 0.030244701 0.035245277
0.30327696 0.030244701 0.035392579
0.42949879 0.036873423 0.033925977
0.26132572 -0.037034787 0.046124265
-0.32418731 0.021671241 0.045221835
-0.29806069 0.02020389 0.044470862
-0.18351744 0.0200403 0.045967627
-0.13685372 0.0200403 0.046250306
-0.085067302 0.0200403 0.042879947
0.055398032 0.0200403 0.046621695
0.10052031 0.0200403 0.044686001
0.32626891 0.0200403 0.047395743
0.34309646 0.0200403 0.047885604
0.39242652 0.021213109 0.049317669
0.43938446 0.02890916 0.041168299
-0.34729779 0.034504756 0.040927492
-0.25813037 0.030244699 0.044307321
-0.24664214 0.030244701 0.046817347
-0.22097653 0.030244701 0.046241164
-0.20168373 0.030244701 0.048187781
-0.13646361 0.030244701 0.048348658
-0.026407029 0.030244701 0.044489756
0.0023482665 0.030244701 0.040032841
0.072528847 0.030244701 0.049673393
0.094956242 0.030244701 0.040391412
0.10441379 0.03081605 0.047941796
0.18124327 0.030244701 0.046731286
0.20904721 0.030244701 0.049119856
0.22977899 0.030244701 0.049702626
0.23450516 0.030244701 0.040354326
0.40869319 0.033252943 0.046105355
0.45923936 0.034491729 0.045474097
0.46561396 0.043811295 0.040042941
-0.43645808 0.056797609 0.047328983
-0.28764883 -0.055915453 0.05771479
-0.27167735 -0.058021538 0.057660241
0.24651203 -0.051739153 0.057492901
-0.25963026 -0.036488667 0.059039231
0.23718058 -0.021370685 0.057492897
-0.29557765 -0.0079754069 0.058312595
-0.3614412 0.026514495 0.056278255
-0.22951376 0.0200403 0.059608355
-0.1850737 0.0200403 0.052611321
-0.16105066 0.0200403 0.054785267
-0.15866256 0.0200403 0.056862783
-0.1011628 0.0200403 0.055051308
-0.079043768 0.0200403 0.059975933
-0.06861902 0.0200403 0.05173859
-0.017664399 0.0200403 0.051725797
-0.0071149617 0.0200403 0.056646079
0.012918029 0.0200403 0.055813842
0.063227549 0.0200403 0.051646166
0.10611635 0.0200403 0.057900831
0.11380038 0.0200403 0.051961638
0.17267214 0.0200403 0.054441277
0.29736608 0.0200403 0.059715331
0.39428225 0.021384472 0.058610663
0.43287367 0.027405825 0.053937905
-0.39916396 0.034807038 0.051904224
-0.079450384 0.030244701 0.055592135
-0.041536078 0.030244701 0.05284467
-0.036391631 0.030244701 0.054626174
0.025663108 0.030244701 0.054555256
0.077452257 0.0313874 0.053902831
0.13196605 0.03081605 0.054944515
0.21427974 0.030244701 0.051742304
0.23889354 0.030244701 0.055135533
0.26126841 0.030244701 0.054359522
0.38294953 0.030735116 0.051654432
-0.45833158 0.04675734 0.055694651
-0.44064081 0.048139498 0.051793728
0.45159712 0.042378183 0.058616076
0.23367503 -0.055752061 0.069249034
-0.28340635 -0.034559354 0.069982603
-0.23972659 -0.030071782 0.068362758
0.26659587 -0.03930185 0.06748423
0.25141633 -0.028431583 0.069982603
0.26752919 -0.02503298 0.069982603
0.29498875 -0.028060744 0.069836944
-0.27990657 -0.018649423 0.067927629
0.25398403 0.0057545146 0.06373512
0.26708215 0.0053421697 0.06545718
-0.36065254 0.02638044 0.065208755
-0.012524877 0.0200403 0.062198993
0.045928303 0.0200403 0.069056436
0.05223554 0.0200403 0.063743562
0.12936375 0.0200403 0.068819925
0.13633777 0.0200403 0.061575517
0.14390722 0.0200403 0.065903105
0.17132051 0.0200403 0.069363669
0.29818434 0.0200403 0.061242741
0.43835771 0.028653905 0.065256223
-0.36631536 0.037547335 0.060809925
-0.31922191 0.031500373 0.065519489
-0.24960148 0.030244701 0.066986635
-0.17917325 0.030244701 0.0680461
-0.16702968 0.030244701 0.064577289
-0.10629411 0.030244701 0.063286662
-0.096045896 0.030244701 0.067635164
-0.088891335 0.030244701 0.06375578
0.083148688 0.030244701 0.061946463
0.11743286 0.030244701 0.060433902
0.27718192 0.030244701 0.062035583
0.43153411 0.037304826 0.066665374
-0.42475939 0.0424878 0.061701495
-0.40720677 0.047205277 0.067347743
-0.25291583 -0.057480261 0.071083777
0.22349089 -0.023903579 0.077583693
-0.26746437 0.0052928976 0.070958868
0.095899351 0.019918101 0.071833886
-0.3543039 0.025301257 0.079486057
-0.28511566 0.020055508 0.07330133
-0.002556771 0.0200403 0.077962264
0.18838543 0.0200403 0.075361922
0.19285128 0.0200403 0.07598909
0.27837461 0.0200403 0.076195575
0.2997672 0.0200403 0.077608764
0.33630043 0.0200403 0.07156153
-0.3266964 0.032072924 0.074906252
-0.30164135 0.030523822 0.078927748
-0.12972511 0.030244701 0.079254702
-0.05968672 0.030244701 0.075327963
-0.045538448 0.030244701 0.077895038
0.19310197 0.030244701 0.070026636
0.27534997 0.030244701 0.070259735
0.43370372 0.037798721 0.070613995
-0.4371497 0.041445203 0.071697339
-0.42992705 0.04448184 0.077478409
-0.4109526 0.048334688 0.077332661
0.28955805 -0.049029462 0.084785305
0.22305223 -0.027233569 0.087250978
-0.27483109 0.0062622437 0.087229371
0.24894832 0.004912761 0.082639396
0.11277223 0.019918101 0.082801439
0.15736473 0.019918101 0.081273049
-0.37804213 0.029701158 0.087547541
-0.34288156 0.02369066 0.081398137
-0.33635941 0.022900417 0.082135126
-0.31485558 0.020966172 0.089030057
-0.2512269 0.0200403 0.086614512
-0.076221511 0.0200403 0.084145382
0.023815099 0.0200403 0.088662133
0.24815845 0.0200403 0.082793899
0.2913689 0.0200403 0.084643811
0.33316389 0.0200403 0.082256407
0.41011137 0.023255555 0.080454648
-0.3101846 0.030903853 0.089817747
-0.30779538 0.030797573 0.084159307
-0.21999891 0.030244701 0.082910657
-0.053263605 0.030244701 0.083563879
-0.021531226 0.030244701 0.084782317
0.36039782 0.030244701 0.082228564
-0.44178206 0.048761778 0.08529865
-0.4361124 0.046892453 0.080759898
-0.38975221 0.042597413 0.082893677
-0.45035988 0.05161836 0.080421925
-0.28161603 -0.065360047 0.096425831
-0.26807979 -0.065068863 0.093001969
-0.30078465 -0.056105334 0.094032958
0.22855511 -0.010429187 0.091640688
0.29260528 -0.017125007 0.09988416
-0.30160055 -0.0042208415 0.094462611
-0.28361046 0.0054025752 0.099668711
-0.32428688 0.021678766 0.097219504
-0.31708592 0.021134688 0.095241025
-0.29080752 0.020106133 0.09621603
0.024198364 0.0200403 0.0949395
0.076063499 0.0200403 0.097769849
0.1159121 0.0200403 0.092241019
0.15529788 0.0200403 0.099816851
0.25597259 0.0200403 0.091952942
0.34363288 0.0200403 0.095857732
-0.40535256 0.036463797 0.094649971
-0.28388345 0.030244701 0.090802826
-0.24814771 0.030244701 0.096672915
-0.12528062 0.030244701 0.092895776
-0.10385974 0.030244701 0.098088257
-0.093599997 0.030244701 0.099240273
-0.03685087 0.030244701 0.093718633
-0.02577159 0.030244701 0.099325314
0.016361523 0.030244701 0.091444217
0.0444685 0.030244701 0.097432829
0.12172312 0.0313874 0.09940505
0.41486686 0.034160551 0.099047638
-0.44004864 0.047700368 0.091018304
-0.42669058 0.043808594 0.091250077
-0.28086272 -0.065459192 0.10740753
-0.30309916 -0.053521898 0.10555638
0.2238616 -0.038606279 0.10160995
-0.29164332 0.0025640004 0.10803372
-0.28300118 0.0054827649 0.10817055
-0.26041168 0.0200403 0.10401708
-0.25662383 0.0200403 0.10797187
-0.2123186 0.0200403 0.10553514
0.20203671 0.0200403 0.10640114
0.30247554 0.0200403 0.10540151
0.43517661 0.029088 0.10043803
-0.4085958 0.03742028 0.102548
-0.31942588 0.031515785 0.10680854
-0.28062251 0.030244701 0.10327429
-0.15064096 0.030244701 0.10382936
0.0039708689 0.030244701 0.10982899
0.11368135 0.030244701 0.10473919
0.42655122 0.036284432 0.10529397
-0.26462829 -0.064065658 0.11975021
0.24456394 -0.062791198 0.11170279
-0.30979684 -0.042081133 0.11565508
-0.24261533 -0.043295864 0.11460477
0.22339988 -0.035100445 0.11140701
0.23166278 -0.0063796276 0.1164804
-0.30759367 0.020584539 0.11521529
-0.19678742 0.0200403 0.1164351
-0.13643138 0.0200403 0.11751329
-0.085946783 0.0200403 0.11815524
-0.065054677 0.0200403 0.11961664
-0.052754674 0.0200403 0.11236265
-0.046770856 0.0200403 0.11730514
0.024448961 0.0200403 0.11286123
0.054542422 0.0200403 0.11531548
0.13852391 0.0200403 0.11738269
0.17472953 0.0200403 0.11921452
0.30717126 0.0200403 0.11132887
0.39147106 0.021124875 0.11291623
-0.39295226 0.033144467 0.11530028
-0.33236501 0.032677941 0.11743557
-0.23640518 0.030244701 0.11868744
-0.17457509 0.030244701 0.116909
-0.042963669 0.030244701 0.11510013
0.32842129 0.030244701 0.1117667
0.3564868 0.030244701 0.11660767
0.4231708 0.03475973 0.11134492
-0.42388684 0.045310289 0.11132348
-0.29422346 -0.058397382 0.12994872
0.28147936 -0.057190511 0.1261781
0.22630624 -0.044934914 0.12442661
0.22307388 -0.032625079 0.12258703
0.29388744 -0.039474644 0.12399407
-0.26603746 -0.027952481 0.12268599
0.29421017 -0.022150353 0.12492871
-0.27967662 -0.015460224 0.12841439
0.22551283 -0.016675631 0.12554516
0.29171991 -0.014987225 0.12198902
-0.30148986 -0.0041313255 0.12385293
-0.25639656 0.00045630627 0.12364055
-0.24180889 0.0200403 0.12657879
-0.15706617 0.0200403 0.1273791
-0.077674575 0.0200403 0.12748103
0.25281346 0.0200403 0.12538245
0.27174792 0.0200403 0.12760964
0.28402382 0.0200403 0.12486748
0.32812542 0.0200403 0.12280817
0.34935486 0.0200403 0.1259446
0.40936449 0.027906122 0.12711519
-0.2600905 0.030244701 0.12902407
-0.25571248 0.030244701 0.12798992
-0.22327282 0.030244699 0.12647244
-0.21472166 0.030244701 0.1218811
-0.16065092 0.030244701 0.12480106
0.17396501 0.030244701 0.12475879
0.41193962 0.030750813 0.12436257
0.27279347 -0.053179752 0.13439099
-0.26726624 -0.044854235 0.13218422
-0.29274654 -0.03179742 0.13173379
-0.28895831 -0.039924935 0.13103792
-0.29024732 -0.017133983 0.1338453
-0.28099817 -0.012733927 0.13302577
-0.26618743 -0.017063871 0.13047703
-0.24473481 -0.017239105 0.13003278
0.24783203 -0.017688146 0.13099578
-0.2623044 -0.0038117024 0.13358761
-0.22269146 0.0200403 0.13488184
-0.1138171 0.0200403 0.13272244
-0.070197076 0.0200403 0.13620014
-0.060781278 0.0200403 0.13843471
0.003112732 0.020265352 0.13618074
0.024630023 0.023133844 0.13872573
0.04761475 0.023858216 0.13808556
0.11329735 0.023003278 0.13512847
0.15495415 0.0200403 0.13605013
0.18491541 0.0200403 0.132689
0.25969458 0.0200403 0.13455978
0.26038709 0.0200403 0.13369396
0.40172881 0.022919249 0.13024697
-0.25990438 0.030244701 0.13618474
-0.21917371 0.030244701 0.13310948
-0.16187738 0.030244701 0.13029848
-0.13283208 0.030244701 0.13767366
0.039945401 0.030244701 0.13220739
0.10514005 0.030053321 0.13627915
0.29826042 0.030244701 0.13025723
0.36591369 0.030248031 0.13976049
0.38550782 0.030903313 0.13129674
-0.29645956 0.020182308 0.14739777
-0.25671464 0.0200403 0.14291552
-0.06962996 0.023744533 0.14880472
-0.057222847 0.020268908 0.14169054
-0.026762135 0.020693701 0.14031261
0.15826669 0.023693494 0.14369391
0.23046041 0.0200403 0.14941695
0.2756691 0.0200403 0.14971846
0.2871362 0.0200403 0.14901777
0.31142631 0.0200403 0.14348868
0.33060589 0.0200403 0.14645514
0.38337722 0.024388576 0.1405745
-0.34116197 0.03261739 0.14223266
-0.15484825 0.030244701 0.14915362
-0.064525381 0.030244701 0.14329037
0.28381443 0.030244701 0.14631055
-0.30421409 0.022171052 0.15170015
-0.212991 0.0200403 0.15764412
-0.14459756 0.0200403 0.15177308
-0.13717274 0.02023039 0.15749973
-0.098500162 0.024239441 0.15438887
0.2267174 0.02432403 0.15342614
-0.1837296 0.030244701 0.15439592
-0.22960185 0.024034653 0.16489901
-0.1965127 0.024242967 0.16624933
-0.14519604 0.021636039 0.16160767
-0.22515248 0.030244701 0.16008934
