# .PCD v0.7 - Point Cloud Data file format
VERSION 0.7
FIELDS x y z
SIZE 4 4 4
TYPE F F F
COUNT 1 1 1
WIDTH 764
HEIGHT 1
VIEWPOINT 0 0 0 1 0 0 0
POINTS 764
DATA ascii
0.41297722 -0.032912012 -0.102013
-0.23325266 -0.0084539196 -0.10016182
0.42344731 -0.022507008 -0.098068781
-0.22405687 -0.018000107 -0.09659189
0.16764723 0.058161728 -0.09270931
0.22826988 0.057497118 -0.096417964
0.25470942 0.053417522 -0.095908634
0.26779562 0.051484771 -0.094427608
0.27959278 0.051275756 -0.094233871
0.29266205 0.055377565 -0.091390513
0.41352242 -0.035397068 -0.081224173
-0.23489541 -0.022516109 -0.080791578
0.4126232 -0.023711557 -0.080170304
-0.23722368 -0.016727874 -0.081886575
-0.22640328 -0.0066100829 -0.084729843
0.32209501 0.048079062 -0.087560043
0.072466187 0.057444006 -0.081633061
0.15568465 0.055985913 -0.087213933
0.19634856 0.059584033 -0.082493044
0.23626542 0.054832086 -0.083120972
0.2443949 0.051490456 -0.083620906
0.3131009 0.052628573 -0.080596022
0.32658032 0.051671419 -0.080471799
0.046305686 0.061985306 -0.080330372
0.11197358 0.062945947 -0.085491225
0.17648256 0.060236461 -0.080365866
0.18721105 0.060897954 -0.089482538
0.2729938 0.048638757 -0.075681105
0.28951702 0.047782619 -0.077394232
0.29342064 0.047084183 -0.07384979
0.32706532 0.045115378 -0.07622546
0.33258259 0.04508483 -0.079642206
0.34214395 0.049169034 -0.070799328
-0.045590956 0.059755787 -0.070955589
-0.031847324 0.058765169 -0.072357558
0.022144921 0.057328772 -0.077006198
0.033355758 0.056486174 -0.071068168
0.043568052 0.056465141 -0.071697421
0.14865887 0.054631099 -0.074856825
0.18517353 0.059390254 -0.076828316
0.20609462 0.052187301 -0.074693412
0.21461464 0.056128494 -0.073581353
0.22562148 0.057554532 -0.077116869
0.24793747 0.056174871 -0.075191945
0.28849423 0.05411204 -0.079704285
0.30604166 0.052125022 -0.072944269
0.31799808 0.052208744 -0.079781733
-0.025877062 0.062613338 -0.071885258
0.015382552 0.063073121 -0.074779965
0.022894703 0.062872045 -0.076161802
0.046376206 0.062478326 -0.072322816
0.065273702 0.06326358 -0.079980068
0.072622366 0.062281612 -0.072691314
0.081887573 0.062388383 -0.074388385
0.11790379 0.062074326 -0.0798546
0.12348385 0.061449312 -0.076106302
0.14716615 0.060674023 -0.075165689
0.24446884 0.049411587 -0.065913372
0.26294848 0.047856364 -0.062250618
0.27120095 0.047408096 -0.063140348
0.31395045 0.045136772 -0.068275444
0.32786599 0.049506307 -0.062052477
0.33481249 0.047192115 -0.064706028
0.35727045 0.043674927 -0.068294205
0.3723594 0.040073566 -0.064725041
0.38137966 0.042370938 -0.061037973
-0.1510407 0.05675542 -0.060197894
-0.12895828 0.058153257 -0.062450603
-0.089689501 0.057242554 -0.066456445
-0.078251138 0.055348791 -0.063646726
-0.057493452 0.057423063 -0.06974113
-0.03627301 0.055881079 -0.065129474
-0.025715644 0.056425225 -0.069717728
-0.01312779 0.056209356 -0.066302635
0.057881221 0.055286825 -0.061071161
0.067815334 0.055416547 -0.063349262
0.13218397 0.057094999 -0.065879308
0.14581725 0.056962743 -0.068408407
0.15602772 0.056214623 -0.063633658
0.16096595 0.055958081 -0.062410854
0.20287971 0.057577468 -0.068236515
0.21914732 0.050518718 -0.06475535
0.26483834 0.053504601 -0.060178634
0.27087951 0.053696983 -0.066168666
0.30658591 0.050957125 -0.061813064
-0.10251103 0.060809612 -0.06495396
-0.063169278 0.061698366 -0.06620951
-0.057205118 0.060288757 -0.069770657
-0.037608866 0.061637789 -0.063153684
0.032276176 0.061623156 -0.062496334
0.07204406 0.061566599 -0.065698929
0.089824319 0.061365429 -0.067044087
0.093823589 0.061444238 -0.068994664
0.37094259 0.039486535 -0.05749888
0.38719216 0.038063738 -0.056812763
0.274207 0.046378642 -0.054581605
0.28237838 0.046225097 -0.058439858
0.30018055 0.044606276 -0.053674471
0.33507958 0.042044166 -0.052872997
-0.15442133 0.055516385 -0.055955928
-0.14704508 0.052453533 -0.052893125
-0.13526723 0.052979331 -0.055103578
-0.12459253 0.053056329 -0.052597694
-0.1141326 0.053381417 -0.053097736
-0.099204637 0.059706997 -0.052356739
-0.082830787 0.054690354 -0.057727959
-0.064502686 0.054392137 -0.052020445
-0.0021348302 0.054872997 -0.05074124
0.0039850827 0.055108495 -0.054121781
0.013534587 0.05478901 -0.051050268
0.029559519 0.055041425 -0.055860192
0.03731671 0.05493068 -0.055458643
0.046860483 0.054921217 -0.056267302
0.055013359 0.054652944 -0.05421254
0.080601789 0.054787517 -0.058098756
0.095365599 0.05986625 -0.053115636
0.11811566 0.053379614 -0.053995244
0.12234807 0.053215779 -0.053379498
0.13304877 0.055976935 -0.054637566
0.16587624 0.055444695 -0.05938644
0.18545112 0.051157147 -0.054896027
0.19169925 0.056901533 -0.055984136
0.23659773 0.05452935 -0.052759439
0.28526008 0.051622901 -0.054282472
-0.027911456 0.060919195 -0.054848392
-0.0030902445 0.061246026 -0.055847954
0.036229469 0.060943589 -0.055889443
0.37447709 0.038408365 -0.047876664
0.39531329 0.036210001 -0.041273616
0.40694201 0.035632677 -0.048073012
0.44452485 0.036670934 -0.04217574
-0.29396701 0.04521247 -0.042013783
-0.28436902 0.046049017 -0.046595216
-0.2739549 0.045524593 -0.042516872
0.19508725 0.049884759 -0.044137564
0.22280514 0.048753008 -0.046313092
0.24155709 0.047619391 -0.042489264
0.30844802 0.049517572 -0.046198122
0.3227846 0.048571736 -0.045988884
0.33939224 0.040883843 -0.041384064
0.34652629 0.043748401 -0.048119314
0.36564735 0.044771176 -0.042770457
-0.27556717 0.051451765 -0.043355994
-0.25107431 0.053005628 -0.042867038
-0.2199091 0.054762892 -0.045004066
-0.20553848 0.055365048 -0.04409837
-0.19224006 0.055883706 -0.042703263
-0.17558601 0.050503965 -0.040056311
-0.16430542 0.051370047 -0.045007415
-0.15958352 0.051558983 -0.045020632
-0.12640263 0.054485988 -0.0452847
-0.11048445 0.05882692 -0.044190221
-0.10698755 0.053172156 -0.047225714
-0.092321269 0.055582166 -0.047447842
-0.070507847 0.059525441 -0.040997632
-0.066785477 0.059855565 -0.045257282
-0.044723865 0.054006524 -0.043923896
-0.025019737 0.054340817 -0.046117514
-0.003189726 0.054301623 -0.042645495
0.035210028 0.054458115 -0.04916827
0.047986377 0.054199316 -0.047140509
0.056081444 0.059950218 -0.04519476
0.072596133 0.059930578 -0.047112022
0.085282162 0.056633726 -0.045466777
0.098766707 0.053088114 -0.042729843
0.10377987 0.053434096 -0.049716257
0.11360989 0.058556639 -0.041547146
0.12741026 0.052293569 -0.042736366
0.13279937 0.052030344 -0.041099727
0.15189859 0.057596013 -0.04301801
0.17120388 0.057140581 -0.046778951
0.18959363 0.056456551 -0.049185604
0.19472742 0.056262016 -0.049805481
0.2035659 0.055790186 -0.0489025
0.23167716 0.054501541 -0.049081899
0.24666139 0.053312972 -0.043174118
0.045178439 0.060107216 -0.046003882
0.46262598 0.028875686 -0.030751841
0.38676208 0.036719356 -0.038342185
0.39788339 0.035451148 -0.03199194
0.41523182 0.034056362 -0.037610285
0.43418872 0.031937696 -0.034421064
0.4446021 0.030801941 -0.032808714
-0.32186884 0.041799027 -0.03224387
-0.31839502 0.04199519 -0.031547517
-0.27435917 0.044971317 -0.034457825
-0.26224175 0.045677457 -0.032553341
-0.25423551 0.046370953 -0.036097988
-0.24265067 0.047179237 -0.037124455
-0.23528409 0.047247432 -0.031159077
-0.22572702 0.047819316 -0.033905193
-0.21871975 0.048268579 -0.036619022
-0.19110912 0.049419891 -0.03422419
0.18896922 0.049673691 -0.037021965
0.22956848 0.047704183 -0.035723317
0.29825264 0.043552052 -0.036481522
0.3646695 0.044262871 -0.033287335
0.39594081 0.041637842 -0.033031072
0.40985605 0.040434387 -0.035044722
0.41470897 0.040036615 -0.036686096
-0.2376668 0.053190313 -0.033233251
-0.18812366 0.055617463 -0.035849083
-0.17247595 0.050268885 -0.03389949
-0.16369355 0.050722212 -0.035023376
-0.092188269 0.052868851 -0.036828473
-0.062417943 0.053267099 -0.035617679
-0.052916557 0.053301219 -0.034325458
-0.044381078 0.053479288 -0.035775144
-0.034835443 0.053496569 -0.035001673
-0.018336529 0.053609367 -0.034045063
0.0043791984 0.059779204 -0.035263091
0.015742842 0.053614467 -0.033591218
0.029147027 0.053658709 -0.036839008
0.037342805 0.055530932 -0.036134936
0.084065616 0.054943651 -0.033725519
0.095635734 0.052529618 -0.031959109
0.12715261 0.05595082 -0.038056254
0.13474588 0.057526812 -0.034158956
0.14388129 0.051405046 -0.036524486
0.16804263 0.056404158 -0.033017281
0.17452908 0.05608296 -0.032512747
0.1921671 0.055627111 -0.038960785
0.22349808 0.054229397 -0.039717875
0.23369692 0.053408418 -0.034058467
0.24454972 0.052716833 -0.03061961
0.25828063 0.052205645 -0.038083721
0.28882635 0.050038539 -0.035228726
0.46063253 0.028838485 -0.02498639
-0.40564382 0.037693977 -0.022663625
-0.39253432 0.039300218 -0.024313949
-0.37498662 0.036965623 -0.022495141
-0.36175793 0.038393825 -0.028188329
-0.34824726 0.039340202 -0.025929203
0.36594999 0.037785526 -0.02407752
0.38142675 0.036559861 -0.025653331
0.39945886 0.035069071 -0.025985315
0.40946084 0.039947629 -0.022432931
0.42099196 0.035956327 -0.026781593
0.43908131 0.031032596 -0.024839431
0.45393586 0.035601296 -0.027086612
0.46386603 0.034463886 -0.024128821
-0.39150864 0.040006861 -0.024443079
-0.35523224 0.040932946 -0.029009804
-0.34209728 0.045965195 -0.029068945
-0.32746699 0.043067098 -0.025912622
-0.29920793 0.043116584 -0.028610587
-0.28638244 0.049571693 -0.020228384
-0.23488867 0.047026489 -0.025413632
-0.18007053 0.049567137 -0.025493234
0.18589294 0.049335588 -0.026403619
0.22398093 0.047321025 -0.020362478
0.25267884 0.04602389 -0.025991587
0.29918829 0.04277223 -0.020320971
0.33286843 0.046468984 -0.022680573
0.34606573 0.04565281 -0.029506393
0.387339 0.04202152 -0.025022823
-0.23558936 0.053030603 -0.027083868
-0.18569511 0.055180073 -0.023245083
-0.1456501 0.056741137 -0.023240998
-0.13333929 0.057329461 -0.029164981
-0.11088108 0.051781472 -0.024151277
-0.10173794 0.05814055 -0.027579356
-0.098484024 0.05794894 -0.020804964
-0.089381047 0.05853698 -0.028863244
-0.074122742 0.052769929 -0.026269402
-0.065957054 0.052776806 -0.02461908
-0.046890445 0.054471448 -0.025294214
-0.038241833 0.05286967 -0.020689154
0.013546299 0.059271518 -0.025793953
0.037421364 0.053014629 -0.023991842
0.063735314 0.05883877 -0.026560657
0.074906655 0.052620906 -0.022861877
0.088726193 0.058283005 -0.022323718
0.098252252 0.058057178 -0.023251116
0.11462072 0.05160816 -0.022481313
0.12167542 0.054311235 -0.020501159
0.13962194 0.050823115 -0.020294078
0.14622818 0.050946508 -0.027662288
0.16656022 0.052301828 -0.028383985
0.17109859 0.055853326 -0.023191459
0.19664268 0.054645576 -0.022576252
0.21358767 0.053827509 -0.021762688
0.24522324 0.05228724 -0.021354685
0.44910479 0.029671345 -0.014691476
0.46218508 0.028274259 -0.010275005
-0.43281281 0.03128339 -0.010990629
-0.42783874 0.031950012 -0.019328872
-0.3907631 0.035379596 -0.012518059
-0.35897195 0.038131859 -0.018422639
-0.33842018 0.039904222 -0.01979926
0.4083809 0.033778049 -0.011003367
0.45466027 0.035047237 -0.011217058
0.46369585 0.034168415 -0.014377555
0.48030201 0.031437173 -0.010378893
-0.390966 0.041386247 -0.015582844
-0.38859734 0.041640688 -0.018414855
-0.32647109 0.046716705 -0.011909092
-0.31928718 0.041302264 -0.0133699
-0.29083234 0.043152902 -0.013791405
-0.27784836 0.043948933 -0.010502969
-0.26312321 0.044988371 -0.016597513
-0.23706335 0.046579342 -0.01568602
-0.21325207 0.047752559 -0.018801607
-0.19399042 0.048550375 -0.014054512
-0.17468782 0.049535174 -0.018746944
-0.16544969 0.049984023 -0.019257495
0.2399466 0.046409946 -0.013083578
0.28775209 0.049346976 -0.015315662
0.30617604 0.042172454 -0.014820359
0.31489062 0.041651122 -0.017847616
0.32415202 0.046941064 -0.01412331
0.39959839 0.040643957 -0.014006851
-0.26442283 0.050840121 -0.013916604
-0.2116932 0.053661179 -0.011410603
-0.2023433 0.054120261 -0.013312179
-0.18789519 0.05481429 -0.01514313
-0.16155955 0.056069732 -0.017786412
-0.14148656 0.050581984 -0.011641111
-0.13995427 0.05074269 -0.018583385
-0.12479966 0.055062652 -0.014681898
-0.1154809 0.057246119 -0.01016675
-0.069140814 0.058364674 -0.013511081
-0.050135676 0.058669403 -0.01946268
0.006212166 0.053057954 -0.01809328
0.026438765 0.055810325 -0.015733408
0.033487752 0.058682613 -0.012633185
0.052749801 0.058530033 -0.01449341
0.1176374 0.051228743 -0.010539151
0.14125118 0.056655064 -0.017047847
0.22570746 0.053075343 -0.015829494
0.2377813 0.05247049 -0.012606816
0.2651459 0.05086353 -0.018186061
-0.47618496 0.027365504 -0.0056690807
0.46229753 0.02817386 -0.003870355
-0.43715486 0.034736279 -0.0039555305
-0.40821826 0.036726505 -0.0064341715
-0.36411357 0.037488256 -0.0042473548
-0.34337157 0.039189987 -0.0021783805
0.34462607 0.039068498 -0.00097052223
0.38869405 0.035430897 -0.0037791445
0.39028418 0.03536246 -0.0084060822
0.40280527 0.034294453 -0.0072012898
0.41992745 0.032558825 -0.0081060166
0.42594618 0.037901383 -0.0056966655
0.442994 0.033136234 -0.0035874594
0.46034849 0.034311052 -6.4610133e-05
-0.39073363 0.04119873 -0.00075026101
-0.36632246 0.043331251 -0.0076045999
-0.35301745 0.04441582 -0.0057589933
-0.31082442 0.041770279 -0.0075727622
-0.28472206 0.045431614 -0.0059761838
-0.24777929 0.04579613 -0.0030749217
-0.22944832 0.046720937 -0.00043095718
-0.2065503 0.047860496 -0.0062018959
-0.19485384 0.048334159 -0.001330707
-0.18620002 0.048743054 -0.0019416966
-0.17406365 0.049403459 -0.0090683764
0.16509108 0.049764186 -0.0051443689
0.24571316 0.046017602 -0.009401151
0.27161556 0.044318989 -0.0080384463
0.28905317 0.043209199 -0.0095460806
0.29556933 0.04276298 -0.0078374231
0.30339286 0.048202451 -0.0059378054
0.31375355 0.047519404 -0.005126013
0.32864118 0.043408636 -0.0021149789
0.33157694 0.046148811 -0.0017264503
0.35954529 0.04388278 -0.0065983967
0.3734583 0.042663168 -0.0023908049
-0.25613999 0.051252663 -0.0049554515
-0.24516301 0.051966712 -0.0051206904
-0.22854286 0.05284559 -0.0088291606
-0.16584364 0.055683665 -0.0042424845
-0.1027257 0.057584532 -0.0090370122
-0.08619339 0.051983349 -0.0019965062
-0.056296282 0.052403066 -0.0048585781
-0.030956101 0.058586203 -0.0040078009
-0.01357093 0.058812715 -0.0087381462
0.0062953951 0.055860259 -0.0059054228
0.027580742 0.052643321 -0.0030264112
0.038769461 0.052598547 -0.0072680102
0.047621787 0.054480359 -0.005596397
0.060977854 0.058339447 -0.0062316107
0.076827213 0.058168363 -0.0044736541
0.084749684 0.058083538 -0.0090384604
0.09182927 0.051878378 -0.0057144356
0.12894294 0.056743622 -0.00086807046
0.14918573 0.050253004 -0.0033262533
0.15418115 0.053111821 -0.0044875592
0.1720321 0.055386212 -0.003445395
0.18600777 0.054709159 -0.0012635436
0.19752708 0.054237105 -0.0056678611
0.22919051 0.052747261 -0.0039036723
0.26355433 0.050821953 -0.0085574295
0.27473387 0.050103687 -0.0090335049
-0.47164974 0.028399466 0.0098795323
-0.4642989 0.027961262 0.0034230642
-0.47769487 0.032585979 0.0035104975
-0.43139699 0.031304084 0.0022390813
-0.424658 0.032019388 0.0041984078
-0.41826159 0.038628977 0.0017499474
-0.3469156 0.038974307 0.0080758557
0.3654753 0.037429079 0.0083100349
0.38583377 0.03569885 0.0060419072
0.40255901 0.03422977 0.00089667132
0.41452941 0.036074769 0.0060573006
0.42570895 0.037861504 0.0012425603
0.43796873 0.030673526 0.0051479894
0.46718043 0.033679008 0.0049290257
-0.40288258 0.0402698 0.0069848686
-0.36370778 0.043531843 0.0064941533
-0.33409101 0.04299628 0.0053110919
-0.32338294 0.046886552 0.0057552671
-0.29629308 0.045691527 0.0071927458
-0.28116602 0.043637343 0.0036867743
-0.23938724 0.046383649 0.0094594918
-0.17970997 0.049029049 0.0010637417
0.18882701 0.048593875 0.00010565945
0.23266168 0.046573829 0.00069870555
0.24429569 0.046082541 0.0076036453
0.25053003 0.045582861 0.00070587278
0.28380239 0.049484156 0.0069176694
0.316874 0.047267798 0.0017362386
0.33301651 0.046086971 0.0060650185
-0.21269724 0.053552903 0.0071104271
-0.20906933 0.053640332 0.001307176
-0.17351708 0.055268671 7.8591998e-05
-0.16418676 0.055768579 0.0049898699
-0.15585735 0.053051718 0.0036611853
-0.14189136 0.053457305 0.004953573
-0.13509847 0.050671842 0.0054827356
-0.032204524 0.055564657 0.0020208205
-0.024086952 0.058635224 0.0031200079
-0.0075101457 0.052865312 0.0058031417
0.0080850124 0.058817834 0.005612181
0.018185738 0.058743685 0.0069956081
0.021989157 0.052703623 0.0037991176
0.046926055 0.058456689 0.0054652123
0.051918704 0.058468714 0.0096629709
0.067153223 0.05236347 0.0094059892
0.07803531 0.058206856 0.0082144197
0.11672083 0.05118512 0.0057069352
0.12526596 0.05391207 0.0044673313
0.13407448 0.056642465 0.0040015979
0.15928437 0.055932779 0.0032866313
0.17440268 0.055260107 0.0024170582
0.19788811 0.054213952 0.0053565903
0.21554038 0.053452034 0.0093226898
0.24154228 0.052224532 0.0075789527
0.45012128 0.029571934 0.015159119
-0.44267374 0.030327367 0.014793313
-0.42976761 0.031684116 0.017599324
-0.38309866 0.036099404 0.017006282
-0.36415935 0.037640002 0.015591071
0.38414982 0.035984896 0.016522735
0.41969365 0.035656705 0.013896035
0.44876778 0.03572448 0.016817363
-0.3710126 0.042990528 0.011387384
-0.35244486 0.044534221 0.010983037
-0.31512395 0.044580996 0.015126897
-0.30364561 0.045360647 0.01767569
-0.28617644 0.046422854 0.012615191
-0.27172995 0.044354007 0.011260215
-0.22569764 0.047086187 0.014449372
-0.18118806 0.049244627 0.019147512
0.1677524 0.049804859 0.01711027
0.17329328 0.049479637 0.012144946
0.23354031 0.046745844 0.016088296
0.24584222 0.046129502 0.016702393
0.25517222 0.04544349 0.012396682
0.26248264 0.044991728 0.014006691
0.28346822 0.04362135 0.01329891
0.31624061 0.041556865 0.016525984
0.3352192 0.045990311 0.012321988
0.35400081 0.044426151 0.012543254
-0.24450211 0.052133366 0.014185425
-0.23436709 0.052627362 0.012678933
-0.21648198 0.053486235 0.014926258
-0.17049126 0.055602387 0.014046721
-0.10655459 0.057619076 0.018414851
-0.07585568 0.052306321 0.011091819
-0.062863789 0.055513594 0.017174052
-0.048734538 0.058594942 0.016649287
-0.03586676 0.058681697 0.014310986
-0.02945568 0.058701038 0.011421002
-0.0096702185 0.052985709 0.015942095
0.01261609 0.052991249 0.018066891
0.046386164 0.052585665 0.011579156
0.050012592 0.058561899 0.015117708
0.08205606 0.058241066 0.015166048
0.097017296 0.057814471 0.014350642
0.13084027 0.0509605 0.017781701
0.14383532 0.056491181 0.012638511
0.15445359 0.050205566 0.010607552
0.17218176 0.05561683 0.018871721
0.45435056 0.029662928 0.029526655
0.46397012 0.028374141 0.02218407
-0.40295655 0.03906069 0.023155026
-0.39055955 0.039521769 0.024715645
-0.37343544 0.037038751 0.021299779
-0.36262 0.038199157 0.027480759
-0.35440707 0.038614534 0.021013014
0.34287649 0.039778464 0.025852285
0.38578317 0.036003284 0.021179264
0.40824825 0.034124039 0.023640057
0.42622814 0.035250694 0.022843786
0.45767576 0.034935351 0.020446438
0.46800828 0.034002464 0.023364253
-0.37858289 0.042593114 0.021368058
-0.35952735 0.044434331 0.027388154
-0.32953703 0.046793636 0.023957975
-0.31163412 0.042152405 0.024960367
-0.29798284 0.043062575 0.025564363
-0.27884987 0.044399947 0.027891032
-0.24323972 0.046728417 0.028366128
-0.21883835 0.047599006 0.021474803
0.17906959 0.049487248 0.022617457
0.19864206 0.048790596 0.027639493
0.24393205 0.04665599 0.027705353
0.26096034 0.045322459 0.022197817
0.27732611 0.044265941 0.022306003
0.29325667 0.049349938 0.025756821
0.31843427 0.047864061 0.029265177
0.32795566 0.047077931 0.027600154
0.33348468 0.0466763 0.029030506
0.40680999 0.040475342 0.028737158
-0.26556224 0.050955001 0.021183258
-0.22819678 0.05323761 0.023988444
-0.19323941 0.054999843 0.027452454
-0.18300664 0.055276379 0.022723913
-0.17196408 0.050079994 0.028950932
-0.14850011 0.054769874 0.025685623
-0.13378753 0.050993841 0.020658094
-0.12958905 0.057388656 0.028240656
-0.11081204 0.057771161 0.024909329
-0.10475369 0.052045673 0.026566185
-0.073238201 0.05583588 0.028285695
-0.060716093 0.058851093 0.026337894
-0.053432718 0.053016778 0.027757343
-0.039653338 0.059125707 0.028251767
0.0016865234 0.053408124 0.025658689
0.015881602 0.059183814 0.024358787
0.02447428 0.059072725 0.023600612
0.037261326 0.052924167 0.02193499
0.048046295 0.052997138 0.026087716
0.065380491 0.055792578 0.025497574
0.11799527 0.051408317 0.020083433
0.12415028 0.057523273 0.027848523
0.14854708 0.050621014 0.021544222
0.1500954 0.050889842 0.029032949
0.18437847 0.055248022 0.023567099
0.21546033 0.053851418 0.024571411
0.2316439 0.05318201 0.02648725
0.25464156 0.051773515 0.023835124
0.26986843 0.050659649 0.020795615
0.3669183 0.038042359 0.03232364
0.39206141 0.036130544 0.03617942
0.41972739 0.039244629 0.030847184
0.42515981 0.032937396 0.03625533
0.44499037 0.033838123 0.034245152
-0.30433232 0.045950893 0.033090584
0.19926505 0.049002398 0.033418685
0.23131545 0.047620509 0.03583717
0.24821836 0.046797574 0.03698089
0.25629285 0.046309024 0.037483469
0.26840517 0.045491025 0.037013464
0.28958368 0.049873509 0.032602813
0.29906613 0.049656037 0.039594337
0.3032403 0.04891935 0.030951682
0.31078988 0.042447381 0.030729895
0.33071145 0.047188446 0.035755292
0.36484671 0.044332176 0.034942955
-0.2090359 0.05476974 0.03801341
-0.16284806 0.050967243 0.038391389
-0.15586524 0.055119615 0.037716489
-0.1338585 0.054552622 0.034503743
-0.11885755 0.05808907 0.037065499
-0.0413187 0.053474464 0.035960071
-0.038774237 0.059357874 0.033637911
-0.024646698 0.05940558 0.031640686
-0.0019313201 0.059583358 0.030859295
0.0054101278 0.053820159 0.036156043
0.013796227 0.056678131 0.034632079
0.027051561 0.059370432 0.031331554
0.051821936 0.056269974 0.033957008
0.067035258 0.059037872 0.032234725
0.075797491 0.053093452 0.034572463
0.084195748 0.053028941 0.03620822
0.099827878 0.058458 0.034086183
0.10002719 0.052526038 0.034954779
0.11355108 0.052083366 0.033337984
0.12292036 0.057999149 0.03739424
0.13429716 0.051761854 0.037986197
0.14957352 0.0573764 0.03907866
0.16261894 0.050935306 0.037779
0.17523 0.053342108 0.037882201
0.18123862 0.056074694 0.038275659
0.19707772 0.054964371 0.030868419
0.21665704 0.054259591 0.035712346
0.23542634 0.053481832 0.037042659
0.25160462 0.052603073 0.037729759
0.36280331 0.039255202 0.046202756
0.43455708 0.035422336 0.042685986
0.44383013 0.036490988 0.041631013
-0.28951675 0.044669606 0.044880107
-0.26189518 0.04672109 0.048631251
-0.25277185 0.048459005 0.049972836
-0.24772905 0.047541413 0.047222316
-0.22984377 0.048613854 0.049150579
0.24948293 0.047036521 0.041594438
0.30821955 0.043314256 0.042829074
0.31967565 0.042871878 0.047145549
0.32205206 0.04838011 0.042677671
0.33223623 0.047741469 0.045544457
0.35429817 0.04604489 0.047616564
-0.27842927 0.051076092 0.040776771
-0.26940936 0.051654156 0.040680774
-0.23152308 0.053940818 0.041063778
-0.22473121 0.054525584 0.044954427
-0.21788423 0.055137143 0.049193852
-0.18093574 0.05653546 0.044706475
-0.14269778 0.052232705 0.048126698
-0.12480476 0.056506321 0.045271527
-0.091584191 0.059418414 0.045308042
-0.085071668 0.053782411 0.047407851
-0.051391449 0.053768985 0.041548096
0.008938496 0.054714601 0.049518708
0.010448407 0.054396257 0.045131419
0.027167611 0.054403748 0.047468212
0.040371563 0.054303434 0.047780488
0.069552094 0.059459649 0.040076591
0.087826617 0.056738537 0.048146524
0.11124571 0.059113987 0.048782472
0.12592265 0.058586285 0.047049712
0.13927507 0.051865373 0.041466527
0.15321094 0.051427744 0.040735397
0.17090252 0.050962768 0.043694098
0.22921455 0.054214325 0.043462273
0.29327205 0.050144631 0.041218534
-0.073792018 0.060083441 0.049625792
-0.067820758 0.060011312 0.047790706
0.010332149 0.060250882 0.043580353
0.039187688 0.060145892 0.04591649
0.23729576 0.048344675 0.050241813
0.26707795 0.046693161 0.053017698
0.32529965 0.04866216 0.050455965
0.33566236 0.042056404 0.053821821
0.34265465 0.042044237 0.059672974
0.35015008 0.04672211 0.052372988
0.38450521 0.043957908 0.053302795
-0.23115368 0.054697804 0.051708758
-0.21383795 0.055446133 0.050945207
-0.20321216 0.05007042 0.052370213
-0.18375832 0.05403275 0.053400233
-0.14058276 0.058823459 0.055159792
-0.13408791 0.059246987 0.058055449
-0.105887 0.05776915 0.055247813
-0.085768327 0.05441384 0.055623882
-0.072176561 0.054534167 0.054846801
-0.043094769 0.05488795 0.055432677
-0.0091272667 0.054928485 0.052626014
0.0059513389 0.055495493 0.058437999
0.049299989 0.055190995 0.059424195
0.056596395 0.055012256 0.058280252
0.09686809 0.057784993 0.052244317
0.11991669 0.05910309 0.052092597
0.14712168 0.056682307 0.055711299
0.17520876 0.054427702 0.053484201
0.1917693 0.056404099 0.050033201
0.22176568 0.055346705 0.054461375
0.28871456 0.051091544 0.050588161
-0.082713217 0.060263924 0.053488523
-0.01429231 0.060906827 0.053560834
0.075196452 0.060453452 0.054709382
0.23562902 0.049786001 0.065217853
0.24328493 0.049662028 0.067848638
0.25897765 0.048573244 0.067116335
0.26997411 0.047527254 0.063700415
0.28392544 0.046634518 0.063821666
0.33573139 0.046327259 0.06699799
0.34312445 0.042207729 0.061750609
0.36640844 0.040165093 0.060729302
0.37700227 0.045640238 0.064600937
0.38043994 0.043501608 0.061917238
-0.14080922 0.057499204 0.061394915
-0.12526199 0.056859639 0.062981032
-0.043798789 0.05548064 0.061878208
-0.014465977 0.056213167 0.066620409
0.055824693 0.056157265 0.069977731
0.069954567 0.055937685 0.069063976
0.092305019 0.055391215 0.067786105
0.10072965 0.054436103 0.060374096
0.14632268 0.056671821 0.065717384
0.18264626 0.05778392 0.060895443
0.25390905 0.054539982 0.063683406
0.26698461 0.053528562 0.062005136
0.28089154 0.052443966 0.060129195
0.29156911 0.051822327 0.060854003
0.30741769 0.051036477 0.063333839
0.32121205 0.050647974 0.068523295
-0.11315988 0.060079787 0.060644459
-0.063319288 0.061378658 0.06309028
-0.019479888 0.062051207 0.065834142
0.021183869 0.061568931 0.061038703
0.037057679 0.062205084 0.06908682
0.051660828 0.061627921 0.064543247
0.077040784 0.061386928 0.064481348
0.13424237 0.060124803 0.067118406
0.26404315 0.048682086 0.071560919
0.27958161 0.048006333 0.074201591
0.31481785 0.04564169 0.073565677
0.33583087 0.049693909 0.070934772
0.34659266 0.043233037 0.074365854
0.36569604 0.043554001 0.073836908
0.032770414 0.056895137 0.074485444
0.044961616 0.056276582 0.070171371
0.060234539 0.057176583 0.078753635
0.12127026 0.055484176 0.075751171
0.17644459 0.059330147 0.07328473
0.19723344 0.058879495 0.077359736
0.20755479 0.051684298 0.071367592
0.24401337 0.050467819 0.075437322
0.25687587 0.056065395 0.079087868
0.29201254 0.053405188 0.076047912
0.31586823 0.051621255 0.074160352
0.036978595 0.062817775 0.074490786
0.044693254 0.06254714 0.072901621
0.059338078 0.063268796 0.079737693
0.064871244 0.063083172 0.078665726
0.074655205 0.062387269 0.073739536
0.11077987 0.061253734 0.071890071
0.12034474 0.061479852 0.075809166
0.13355552 0.060657714 0.072178066
0.15350929 0.060191561 0.072876938
0.16188283 0.060059108 0.073723167
0.42710543 -0.030283518 0.085848898
-0.22500581 -0.025764477 0.0830715
0.41196236 -0.024635127 0.085659303
-0.23679078 -0.017891929 0.085812114
0.26775748 0.049647667 0.081164137
0.31697971 0.047567293 0.086727686
0.32943946 0.045437839 0.080517635
0.069065057 0.05733569 0.080672994
0.18176515 0.054885145 0.08737126
0.19362082 0.055903714 0.084011592
0.24470067 0.051286228 0.082330137
0.25289121 0.057585537 0.089129239
0.28277349 0.055287115 0.086230502
0.33265412 0.051053189 0.08548031
0.11988991 0.062181398 0.081301421
0.17408454 0.060588464 0.082439885
0.18491949 0.06051847 0.085877217
0.42413893 -0.037935104 0.098798312
-0.23027523 -0.025610462 0.096892357
-0.22207877 -0.01513806 0.096711896
0.28922784 0.0498011 0.092672184
0.30679205 0.048387151 0.090883628
0.20629817 0.054235466 0.09085694
0.25946549 0.058058634 0.094978064
0.27612582 0.056186069 0.094680779
0.3031143 0.050464265 0.091600358
0.14784271 0.061303377 0.090589128
0.19589347 0.06095954 0.092651092
0.42422506 -0.025308412 0.102012
-0.22330911 -0.018293861 0.102202
