# .PCD v0.7 - Point Cloud Data file format
VERSION 0.7
FIELDS x y z
SIZE 4 4 4
TYPE F F F
COUNT 1 1 1
WIDTH 917
HEIGHT 1
VIEWPOINT 0 0 0 1 0 0 0
POINTS 917
DATA ascii
0.24462865 -0.064021863 -0.13128993
0.26488307 -0.064868174 -0.132017
-0.26663113 -0.053889103 -0.130132
0.2399025 -0.058105465 -0.13471623
0.2643044 -0.057446942 -0.13682708
0.27691746 -0.054875188 -0.13724837
0.28121909 -0.051004451 -0.1345686
0.23598081 -0.046628289 -0.13591051
0.24132597 -0.043242082 -0.132017
0.25108191 -0.033452928 -0.132017
0.23889825 -0.029986894 -0.13314378
0.24226809 -0.024443939 -0.13702819
0.2806204 -0.027684055 -0.132017
-0.31467888 0.008891006 -0.131418
0.017098933 0.0089410553 -0.131418
0.14044659 0.0092604868 -0.131418
0.1701656 0.0091554504 -0.131418
0.19995487 0.00783413 -0.13125491
0.25970596 0.00783413 -0.13116606
0.2754595 0.0091085499 -0.131418
-0.10870464 0.0108629 -0.13100809
-0.059082985 0.010018473 -0.131418
0.2242071 0.0108629 -0.13140248
-0.27016014 -0.053863868 -0.12841086
-0.26675436 -0.051743869 -0.12358472
-0.23945609 -0.053409595 -0.1267796
0.28224933 -0.052745596 -0.12828624
-0.27434537 -0.045190863 -0.12367376
0.23164931 -0.044915568 -0.12433825
0.24205019 -0.048442867 -0.12962425
-0.27036867 -0.039537311 -0.1256699
-0.26952618 -0.035251394 -0.12234958
-0.23495057 -0.03683028 -0.12641115
0.23211768 -0.033222586 -0.12983292
0.28320327 -0.030675279 -0.12165662
-0.24213251 -0.023827653 -0.12653784
-0.23995236 -0.027894514 -0.12570982
0.25644523 -0.022736628 -0.12945966
-0.26125544 -0.015984446 -0.122345
-0.24872014 -0.016038708 -0.12508768
-0.24840699 0.00783413 -0.12692167
-0.16883215 0.00783413 -0.12169314
-0.12325299 0.00783413 -0.12841104
0.021014303 0.00783413 -0.12412208
0.060464434 0.00783413 -0.12545514
0.1004231 0.00783413 -0.12381191
0.13148248 0.00783413 -0.12473061
0.15527754 0.00783413 -0.1258087
-0.32231379 0.0108629 -0.12561357
-0.27551877 0.0108629 -0.1224622
-0.25874498 0.0108629 -0.12168183
-0.16151325 0.0108629 -0.12913285
-0.037461389 0.0108629 -0.12178272
-0.027855588 0.0108629 -0.12003341
0.053195506 0.0108629 -0.12590405
0.07612738 0.0108629 -0.12706606
0.11570711 0.0108629 -0.12213168
0.26656705 0.0108629 -0.12547004
0.37032127 0.01594878 -0.12571885
-0.23819475 -0.063865945 -0.11661034
0.26472053 -0.063131101 -0.113938
0.24832331 -0.055605777 -0.11903937
0.28072366 -0.055432629 -0.11940372
-0.22595182 -0.045491003 -0.1148832
0.27605459 -0.042380176 -0.11127326
-0.23494112 -0.036897041 -0.11957222
0.23412663 -0.031253859 -0.113938
-0.23331243 -0.021764923 -0.11524786
0.2499097 -0.024597296 -0.11909672
-0.16381568 0.00783413 -0.11440572
0.070176095 0.00783413 -0.11002516
0.15202314 0.00783413 -0.11807483
0.3613176 0.0086589064 -0.11375885
-0.35734484 0.012014668 -0.11844545
-0.29658225 0.0108629 -0.11458652
-0.2818478 0.0108629 -0.11139441
-0.25745636 0.0108629 -0.11752933
-0.19113642 0.0108629 -0.11116056
-0.1704721 0.0108629 -0.11475807
-0.15351321 0.0108629 -0.11696611
-0.13509116 0.0108629 -0.11417277
-0.0078074038 0.0108629 -0.11447054
0.052617036 0.0108629 -0.11511922
0.13645093 0.0108629 -0.11887649
0.15599568 0.0108629 -0.11754971
0.16063182 0.0108629 -0.11122675
0.22888426 0.0108629 -0.11692485
0.29019472 0.0108629 -0.11474147
0.30192327 0.0108629 -0.1195259
0.37409559 0.014456809 -0.11284279
-0.24389765 -0.056731272 -0.10011053
-0.22996877 -0.055705987 -0.10811581
0.25442088 -0.05814673 -0.1071571
0.27432367 -0.032618959 -0.10674651
-0.26945409 -0.02004626 -0.10688248
-0.24272004 -0.025812522 -0.10906126
-0.23348214 -0.021548059 -0.10769425
0.24679418 -0.026734162 -0.10122858
-0.24571964 -0.014640382 -0.10831672
-0.18381481 0.00783413 -0.10541679
-0.14675438 0.00783413 -0.10134403
-0.042946912 0.00783413 -0.10790069
0.18141419 0.00783413 -0.10984284
0.28604293 0.00783413 -0.10877997
0.31906956 0.00783413 -0.10142826
-0.36285743 0.013923727 -0.10847121
-0.34155917 0.0108629 -0.10319643
-0.28162813 0.0108629 -0.10497499
-0.22491731 0.0108629 -0.10741405
-0.20264733 0.0108629 -0.10186997
-0.158591 0.0108629 -0.10800536
-0.080011331 0.0108629 -0.10834095
-0.049628854 0.0108629 -0.10978344
0.1348723 0.0108629 -0.10716787
0.14308822 0.0108629 -0.10636403
0.15471132 0.0108629 -0.10341258
0.23642892 0.0108629 -0.10286313
0.27974734 0.0108629 -0.10714644
0.37107298 0.01632686 -0.10237015
0.38231862 0.01859259 -0.10681967
-0.26561493 -0.053200267 -0.092986725
-0.25409541 -0.058762133 -0.09679424
0.27417696 -0.048825145 -0.091578469
-0.23745415 -0.031014904 -0.094116047
-0.3281883 0.00783413 -0.092684373
-0.29515883 0.00783413 -0.093025923
-0.2466113 0.00783413 -0.093133792
-0.19610733 0.00783413 -0.095102668
-0.1734271 0.00783413 -0.09048456
0.12904865 0.00783413 -0.093492456
0.17129938 0.00783413 -0.099308729
0.22475705 0.00783413 -0.094058633
0.29421327 0.00783413 -0.094888449
-0.21657844 0.0108629 -0.096694857
0.082388699 0.0108629 -0.090341106
0.32237393 0.0108629 -0.097064458
0.36384493 0.012691505 -0.093274757
-0.39922723 0.026518913 -0.092519142
-0.41046003 0.030408997 -0.098966986
0.24524543 -0.053166833 -0.088691384
0.27188295 -0.052187003 -0.085707143
-0.27026498 -0.043131739 -0.087726206
0.24069785 -0.045082625 -0.082170919
-0.24746966 -0.023594609 -0.083425798
0.2575863 -0.022597458 -0.080105111
-0.32857585 0.00783413 -0.08128725
-0.29057622 0.00783413 -0.081697457
-0.21032874 0.00783413 -0.080008209
0.13389796 0.00783413 -0.088429794
0.15164559 0.00783413 -0.085285939
0.18660748 0.00783413 -0.086663932
0.21032375 0.00783413 -0.082488403
0.22046506 0.00783413 -0.080855936
0.30615184 0.0078341309 -0.086544164
0.33332574 0.00783413 -0.08340016
-0.38067567 0.016888963 -0.081765816
-0.36465794 0.011341882 -0.086715035
-0.31409255 0.0108629 -0.083085477
-0.30920359 0.0108629 -0.089213133
-0.29369342 0.0108629 -0.086641066
-0.28435913 0.0108629 -0.083269447
-0.23522761 0.0108629 -0.08092986
-0.21673355 0.0108629 -0.085219532
0.056007631 0.0108629 -0.085205317
0.093491256 0.0108629 -0.08254607
0.14586155 0.0108629 -0.08728689
0.15925899 0.0108629 -0.087333262
0.19101687 0.0108629 -0.080920324
0.20608559 0.0108629 -0.087841384
0.31781811 0.0108629 -0.086811297
0.33119136 0.0108629 -0.085789308
-0.4370653 0.039622642 -0.088307522
-0.4217034 0.034302689 -0.084774368
0.43120831 0.046571355 -0.080838427
-0.35200754 0.00783413 -0.076957099
-0.34005186 0.00783413 -0.079179063
-0.27374458 0.00783413 -0.076574109
-0.228609 0.00783413 -0.074797072
0.0052295923 0.00783413 -0.079032347
0.15146151 0.00783413 -0.076054364
0.22066209 0.00783413 -0.07251408
0.32076263 0.00783413 -0.072846316
0.34060407 0.00783413 -0.075500377
-0.15112279 0.0108629 -0.071563646
-0.12216532 0.0108629 -0.075511143
-0.071341 0.0108629 -0.074838318
-0.016277507 0.0108629 -0.070731573
0.10534155 0.0108629 -0.071637318
0.11308851 0.0108629 -0.07907144
0.1891599 0.0108629 -0.076027915
0.24042405 0.0108629 -0.075148016
0.26520544 0.0108629 -0.074136265
0.38684717 0.024260325 -0.073304862
0.39452332 0.024730844 -0.070080295
-0.45285356 0.045016743 -0.075106613
-0.44471392 0.042271517 -0.075643159
0.44903541 0.055537198 -0.073953338
0.25593016 -0.058360092 -0.063222043
0.2406185 -0.044431433 -0.067243442
-0.2690661 -0.034110263 -0.06530305
-0.33774185 0.00783413 -0.061102975
-0.32057577 0.00783413 -0.067139097
-0.2654027 0.00783413 -0.061557829
0.024518922 0.00783413 -0.068362132
0.13675943 0.00783413 -0.068836376
0.19362023 0.00783413 -0.062384944
0.22753532 0.00783413 -0.069467187
0.26901698 0.00783413 -0.061765891
0.33653069 0.00783413 -0.068042681
0.36357573 0.0091659324 -0.065035418
-0.38862985 0.019643536 -0.067848548
-0.37090534 0.013505427 -0.0670783
-0.31215519 0.0108629 -0.060149282
-0.26669991 0.0108629 -0.065397248
-0.22661465 0.0108629 -0.068498343
-0.21493483 0.0108629 -0.060919356
-0.16750649 0.0108629 -0.063727975
-0.14538184 0.0108629 -0.066681512
-0.03253394 0.0108629 -0.066129774
-0.010671198 0.0108629 -0.065259472
0.10927363 0.0108629 -0.069615051
0.25134966 0.0108629 -0.065979764
0.27189383 0.0108629 -0.061837208
0.31139243 0.0108629 -0.061599396
0.32490218 0.0108629 -0.067229703
0.33564603 0.0108629 -0.06291005
0.37576404 0.018686105 -0.066606246
0.38357463 0.019224346 -0.068537042
-0.41115302 0.027443614 -0.064893968
0.40735283 0.034573615 -0.064805537
0.41067636 0.036245141 -0.060002301
0.42238414 0.038743392 -0.068435937
-0.4568525 0.043269519 -0.069035858
-0.25144544 -0.058858979 -0.053144265
0.24670081 -0.027142724 -0.054549668
-0.31369802 0.00783413 -0.056318253
-0.30604789 0.003788264 -0.050317056
-0.29444775 0.00783413 -0.056340516
-0.20206124 0.00783413 -0.056932442
-0.071611725 0.00783413 -0.052398253
0.0039765388 0.00783413 -0.059317462
0.040481094 0.00783413 -0.052919596
0.19230147 0.0065512015 -0.055778854
0.23932475 0.008669151 -0.0592595
0.27172872 0.0056381109 -0.0592595
0.32197028 0.0040138722 -0.052057896
0.35460183 0.0055393125 -0.059259497
-0.38254616 0.017536853 -0.052747559
-0.35401899 0.010166235 -0.052899949
-0.2807458 0.0108629 -0.057217784
-0.20565695 0.0108629 -0.056978423
-0.14968011 0.0108629 -0.056813281
-0.09471719 0.0108629 -0.057892542
-0.014532119 0.0108629 -0.057605706
0.28852317 0.0108629 -0.057763912
0.3179875 0.0108629 -0.056216657
0.39787915 0.02641868 -0.056300171
-0.44081831 0.037717052 -0.050881721
-0.26306731 -0.055366229 -0.0486781
-0.23575538 -0.047361102 -0.043341927
0.27719635 -0.040357247 -0.047789127
0.24054113 -0.037486102 -0.045477338
0.27527973 -0.034991197 -0.047532223
-0.24563922 -0.024332598 -0.047362179
-0.34680057 0.007834129 -0.047997255
-0.33156762 0.0035453655 -0.046218857
-0.28570497 0.00783413 -0.043795601
-0.25978315 0.00783413 -0.047701791
-0.24449012 0.0043741749 -0.040814523
-0.22073948 0.00783413 -0.043807976
-0.21506611 0.0062221298 -0.046989359
-0.20899554 0.0047120145 -0.049909562
-0.14059399 0.00783413 -0.0476037
0.015546173 0.00783413 -0.047845609
0.026524592 0.00783413 -0.043128368
0.035689566 0.00783413 -0.041140642
0.048057232 0.00783413 -0.045619704
0.23309766 0.0048599322 -0.048691187
0.26097164 0.004594516 -0.043918639
0.27835345 0.0061263572 -0.042943627
-0.35356492 0.0108629 -0.044691101
-0.30226603 0.0108629 -0.044894889
-0.29550201 0.0108629 -0.042065006
-0.24189 0.0108629 -0.040235881
-0.22933859 0.0108629 -0.048295949
-0.055240024 0.0108629 -0.046007473
0.0025747716 0.0108629 -0.047959127
0.12664266 0.0108629 -0.042232689
0.18558788 0.0108629 -0.041600578
0.23976187 0.0108629 -0.046629582
0.31504735 0.0108629 -0.042562883
0.36772224 0.014641523 -0.04790742
0.37794274 0.016391773 -0.040946055
0.38175446 0.021698944 -0.046175789
0.39238402 0.023655031 -0.047501139
-0.44391215 0.038788427 -0.045422442
-0.43464354 0.0355785 -0.04700622
-0.45706162 0.043342441 -0.045230709
-0.2788173 -0.037501518 -0.034667827
-0.35075861 0.0033627045 -0.031476811
-0.3233102 0.00783413 -0.036426321
-0.31276321 0.0037243469 -0.038819686
-0.30720034 0.0037772949 -0.037596654
-0.26460081 0.00783413 -0.035810739
-0.2548933 0.00783413 -0.033634916
-0.22744513 0.00783413 -0.032845411
-0.20659085 0.00783413 -0.034213394
-0.19471258 0.00783413 -0.031631894
-0.16482526 0.00783413 -0.031294558
-0.10711776 0.00783413 -0.038031716
-0.090942346 0.00783413 -0.035175461
-0.087796897 0.00783413 -0.034356229
-0.063885905 0.00783413 -0.032918058
0.0779991 0.00783413 -0.037249815
0.093839236 0.00783413 -0.032196324
0.16660747 0.00783413 -0.036224753
0.2254497 0.0063911332 -0.034813821
0.23231539 0.0048674652 -0.03617708
0.27378309 0.00783413 -0.036826223
0.34637192 0.00783413 -0.038639784
0.35714191 0.00783413 -0.036823984
-0.37226447 0.017181458 -0.039662391
-0.33112806 0.0108629 -0.038897652
-0.23052946 0.0108629 -0.038288068
-0.22430363 0.0108629 -0.031152541
-0.1450742 0.0108629 -0.031302795
-0.098243177 0.0108629 -0.03762535
-0.024787337 0.0108629 -0.038245186
-0.011770993 0.0108629 -0.037643801
0.071327001 0.0108629 -0.037381243
0.18908627 0.0108629 -0.033984207
0.20441003 0.0108629 -0.039424337
0.35214913 0.0108629 -0.033216838
0.36156091 0.011542809 -0.031668313
-0.42501175 0.032243162 -0.030653805
0.40389273 0.032833252 -0.032178495
-0.44520104 0.042440034 -0.037739828
0.43194175 0.045245387 -0.035744436
0.44302237 0.052513558 -0.032574289
0.45938873 0.060744792 -0.038186193
0.46637726 0.063129522 -0.034656346
0.47050178 0.06605117 -0.033671226
-0.26093286 -0.056819707 -0.021867335
-0.24985796 -0.058634549 -0.028251339
-0.28474367 -0.038199089 -0.028710382
0.232759 -0.036535315 -0.022289701
-0.22246909 -0.0019331678 -0.023314999
-0.21342945 -0.0038081429 -0.023315001
-0.20105001 -0.004151349 -0.023314999
0.18330914 -0.0033763857 -0.027964765
0.19566108 -0.0038236601 -0.020367246
0.22189693 -0.0040734471 -0.028031951
0.36146218 -0.0031755492 -0.021255024
-0.33324498 0.0021204678 -0.023315001
-0.31370759 0.00783413 -0.02677184
-0.29250234 0.0039171912 -0.029916368
-0.26952761 0.00783413 -0.026233789
-0.16475222 0.00783413 -0.024610152
-0.13276675 0.0078341309 -0.027120173
-0.054792177 0.00783413 -0.023186414
-0.043600064 0.00783413 -0.021469522
-0.033014834 0.00783413 -0.027634205
0.22247899 0.00783413 -0.023161665
0.24151686 0.00783413 -0.024890281
0.25426763 0.00783413 -0.023624305
0.2745032 0.0044657961 -0.029291186
-0.36389765 0.011078577 -0.028409269
-0.33092511 0.0108629 -0.024251156
-0.049936183 0.0108629 -0.021970974
-0.0244167 0.0108629 -0.02678996
0.055414617 0.0108629 -0.021783303
0.14153826 0.0108629 -0.020999117
0.2182983 0.0108629 -0.022578947
0.36351463 0.012525395 -0.0216925
-0.39067689 0.023557842 -0.029839922
0.38126561 0.021453016 -0.024926249
0.39426026 0.027988702 -0.027473431
-0.42398259 0.031886648 -0.023011012
0.39917248 0.030459307 -0.025380015
0.41655502 0.035811584 -0.02292737
0.45015508 0.056100927 -0.02334238
0.46327358 0.059308581 -0.026002558
0.47185883 0.066861525 -0.021696456
-0.26739827 -0.050920852 -0.017978473
-0.24083246 -0.040791079 -0.013429051
-0.29386562 -0.036350407 -0.012973275
-0.23923637 -0.039144173 -0.0138694
0.24071363 -0.036266506 -0.010603976
0.25776431 -0.022495048 -0.015913876
0.32413375 -0.027018467 -0.010412192
-0.214187 -0.0043776068 -0.017372236
0.22426768 -0.0040960186 -0.010389109
0.25391835 -0.0043782298 -0.013353223
0.31691706 -0.0039324379 -0.017005783
-0.30409259 0.00783413 -0.012979906
-0.29862055 0.0038587975 -0.019421753
-0.2369059 0.00783413 -0.014398092
-0.1776894 0.0076801674 -0.015860351
-0.08618357 0.00783413 -0.016393516
-0.071035616 0.00783413 -0.012160972
-0.061987408 0.00783413 -0.011380721
-0.059663355 0.00783413 -0.018639334
0.042095222 0.00783413 -0.013932377
0.14341277 0.00783413 -0.014090966
0.16158649 0.00783413 -0.013354115
0.19362178 0.00783413 -0.016700821
0.27477938 0.00783413 -0.016596336
0.29370075 0.0042829164 -0.012160953
-0.38300258 0.01769481 -0.014495943
-0.34176567 0.0108629 -0.01322557
-0.20224041 0.0108629 -0.01415579
-0.10048058 0.0108629 -0.013078593
-0.011468455 0.0108629 -0.019419629
0.016409218 0.0108629 -0.012044009
0.025162473 0.0108629 -0.012372725
0.28815228 0.0108629 -0.014942952
0.3368535 0.0108629 -0.017084163
0.36744824 0.012808658 -0.012887502
-0.39622924 0.02387806 -0.015709938
0.38490874 0.023285285 -0.010083228
-0.42442411 0.032039408 -0.010036565
0.42214444 0.038622759 -0.016411008
-0.46459335 0.049155775 -0.019821946
0.43214417 0.043652024 -0.014536377
0.24531573 -0.053252228 -0.0077541247
-0.2185813 -0.040579155 -0.0074899038
-0.2525202 -0.03646807 -0.00071415398
-0.31317133 -0.029147269 -0.0040086755
-0.26355106 -0.026806887 -0.0062883012
-0.22032651 -0.022516064 -0.0017078891
0.22423494 -0.022175614 -0.0043061012
0.25030667 -0.02242394 -0.0011185077
0.3134596 -0.024673959 -0.0031366316
0.33762747 -0.017519403 -0.0039299368
-0.23420188 -0.0045681652 -0.00062892307
-0.19296801 -0.0041755848 -0.0066013169
0.22361182 -0.0040895455 -0.0023678504
0.25823593 -0.0068320083 -0.0019989964
0.26010191 -0.0044371886 -0.0051372675
0.3404341 -0.0042297365 -0.006174515
0.36144406 -0.0050804764 -0.00510938
-0.33026528 0.0021384482 -0.0041432306
-0.2693992 0.0041368506 -0.0026813224
-0.20271537 0.00783413 -0.0098723248
-0.14826798 0.00783413 -0.0033121947
-0.10605547 0.00783413 -0.0013045538
-0.067384213 0.00783413 -0.0054944577
0.054728333 0.0078341309 -0.0034748074
0.15848282 0.00783413 -0.006566003
0.16930789 0.00783413 -0.0084865503
0.18335591 0.0015398855 -0.0058844071
0.21260647 0.00783413 -0.0091924742
0.22538497 0.00783413 -0.0032169744
0.24590153 0.00783413 -0.0012119189
0.27701157 0.00783413 -0.0078529036
-0.37888715 0.016269576 -0.0013227444
-0.28610945 0.0108629 -0.005723279
-0.068542793 0.0108629 -0.0023805313
-0.026570957 0.0108629 -0.0040705907
-0.012116184 0.0108629 -0.005101061
0.025892401 0.0108629 -0.0099010309
0.035238527 0.0108629 -0.0025722045
0.066126488 0.0108629 -0.0086756013
0.18386897 0.0108629 -0.0061035044
0.25202817 0.0108629 -0.0022444576
0.34559768 0.0108629 -0.00556067
0.36515474 0.013350256 -0.0032361392
-0.38749042 0.022454321 -0.0076273791
0.38320005 0.022425877 -0.006033821
-0.41101387 0.030600773 -0.0048369141
-0.46122837 0.044785228 -0.0062665679
0.46595776 0.060658645 -0.0091368575
-0.26808664 -0.049999528 0.0028336644
0.27610818 -0.039303165 0.0018874388
-0.32888213 -0.021845238 0.0056139156
-0.31102476 -0.023724111 0.0039786012
-0.2425295 -0.024450339 0.0087408908
-0.23028252 -0.022610916 0.0035845176
0.24127431 -0.022337915 0.003506728
-0.21661931 -0.019406693 0.0049475683
-0.33296376 -0.0055083083 0.0030416218
-0.26069084 -0.0048203613 0.00026789866
-0.23571932 -0.0045826118 0.0061771357
-0.22106488 -0.0044430899 0.0026376345
-0.19365239 -0.0041821012 0.002485686
0.23597193 -0.0042074518 0.0084110126
0.27239388 -0.0023824512 0.00058038766
0.35504204 -0.0053410619 0.0023962981
-0.22994125 0.00783413 0.0066176839
-0.20055591 0.00783413 0.0071603954
-0.13636173 0.00783413 0.0031731706
0.078321233 0.00783413 0.0040384866
0.089273065 0.00783413 0.00856918
0.26278704 0.00783413 0.0095895492
0.31667307 0.00783413 0.0099209696
-0.32711703 0.0108629 0.0025827885
-0.2299794 0.0108629 0.0035000332
-0.12213545 0.0108629 0.0032067336
-0.11457112 0.0108629 0.0014015716
-0.10421515 0.0108629 0.0075525343
-0.034991298 0.0108629 0.0037902687
0.063004069 0.0108629 0.005590681
0.17394467 0.0108629 0.0011427999
0.34690699 0.0108629 0.0057678111
0.46342972 0.059387013 0.0017779976
0.27211109 -0.051895436 0.019362859
-0.23679702 -0.049874548 0.016388109
-0.28626931 -0.037889898 0.015707465
0.31067434 -0.032727949 0.014112361
-0.25141963 -0.022973852 0.010826685
-0.24631205 -0.024061326 0.016477827
-0.22580551 -0.022568256 0.012919688
-0.24432424 -0.017078351 0.019360352
-0.34587824 -0.0056310873 0.01078325
-0.18234375 -0.0040744334 0.011393182
0.2509208 -0.0043497784 0.012665954
-0.31361675 0.00783413 0.015585072
-0.30812162 0.0037683905 0.016435906
-0.29688898 0.00783413 0.012722854
-0.28465843 0.00783413 0.011116467
-0.27370018 0.00783413 0.016266815
-0.2383792 0.00783413 0.017301731
-0.22607356 0.00783413 0.018510606
-0.17704558 0.00783413 0.016884713
-0.13690123 0.00783413 0.017480932
0.034942552 0.00783413 0.015571635
0.25981012 0.00783413 0.014084827
0.27837461 0.0044289166 0.016036121
-0.37193191 0.013860916 0.01127417
-0.31072283 0.0108629 0.013541844
-0.28440088 0.0108629 0.010463811
-0.19441222 0.0108629 0.015800746
-0.080013961 0.0108629 0.015625255
-0.077658892 0.0108629 0.018695306
-0.04851602 0.0108629 0.015337243
-0.015450701 0.0108629 0.010059301
0.045661069 0.0108629 0.016375743
0.13545573 0.0108629 0.016537748
0.18565907 0.0108629 0.01833782
0.19276935 0.0108629 0.013266969
0.20578492 0.0108629 0.017369717
0.33569789 0.0108629 0.012062628
0.36092955 0.011225285 0.010181319
0.37500206 0.018302729 0.014394626
0.38437545 0.019627072 0.017715938
-0.41372925 0.028335994 0.013095114
-0.3975625 0.022737112 0.019656919
-0.43436468 0.035481866 0.010116555
-0.4161253 0.030768268 0.018458245
0.41400957 0.03622653 0.015336704
0.42165369 0.038376078 0.015767209
-0.45024315 0.04098095 0.017618138
0.42530686 0.043603245 0.011580862
0.46499372 0.060173478 0.019120384
-0.23900014 -0.052803434 0.025764128
0.25644508 -0.058432885 0.02919187
-0.28720063 -0.037701149 0.020169333
-0.24792901 -0.038160875 0.022289198
0.2745651 -0.033218052 0.024973789
0.25068629 -0.024284264 0.022771034
-0.23226702 -0.018440191 0.021980599
-0.31927213 -0.0053778598 0.027836747
-0.26514408 -0.0048627602 0.027491666
0.19727573 -0.0038390332 0.020853991
0.26426598 -0.0030225015 0.0233145
0.32481578 -0.0041548559 0.0233145
0.34731275 -0.0028062491 0.0233145
-0.2948885 0.00783413 0.023431048
-0.27185908 0.0041134437 0.020983355
-0.24098913 0.00783413 0.026225235
-0.076299913 0.00783413 0.025938828
-0.025369056 0.00783413 0.021731745
0.012047172 0.00783413 0.027520981
0.27140212 0.00783413 0.020649184
0.32127443 0.00783413 0.025625098
0.34455079 0.0037988876 0.026890267
-0.36232585 0.01053425 0.020764204
-0.29848504 0.0108629 0.02885798
-0.25147465 0.0108629 0.023169927
-0.22883652 0.0108629 0.026074938
-0.096097559 0.0108629 0.028782858
0.082242183 0.0108629 0.024560966
0.10610649 0.010862899 0.025917597
0.11065236 0.0108629 0.025433838
0.21556994 0.0108629 0.020942289
0.24034074 0.0108629 0.025295258
0.3416537 0.0108629 0.021104909
0.39402929 0.024482438 0.024217606
-0.43669051 0.039492905 0.029219601
-0.42226142 0.032893252 0.023853246
0.41925856 0.037171513 0.02154864
-0.45017904 0.040958691 0.023085427
0.45082512 0.053047519 0.024352003
0.46488625 0.06011945 0.024310684
-0.2565462 -0.058463223 0.032418303
0.26411054 -0.057525095 0.033598263
-0.29283157 -0.03294747 0.034136452
-0.2369144 -0.031704571 0.033763245
0.28959855 -0.037411749 0.037917856
-0.24513134 -0.024537362 0.038908724
-0.22097754 -0.0042133578 0.031734299
-0.33491051 0.00783413 0.0327456
-0.24001628 0.00783413 0.035100635
-0.20681544 0.0047326847 0.034700193
-0.18146534 0.00783413 0.037049957
-0.17352048 0.00783413 0.036868971
-0.062222101 0.00783413 0.039210644
-0.022957563 0.00783413 0.032237869
0.014902061 0.00783413 0.03287904
0.052997962 0.00783413 0.03156257
0.23754492 0.00783413 0.036896229
0.30852962 0.0041418383 0.030629069
0.33562061 0.00783413 0.031990502
0.36430991 0.0095351767 0.034986231
-0.37678677 0.015542187 0.030635856
-0.31595632 0.0108629 0.033025753
-0.27072611 0.0108629 0.034508962
-0.25162578 0.0108629 0.038562555
-0.24264438 0.0108629 0.031875052
-0.20934068 0.0108629 0.038257342
-0.01064951 0.0108629 0.038404096
0.0036856607 0.0108629 0.034821346
0.087682247 0.0108629 0.031226914
0.16913123 0.0108629 0.032567766
0.21831697 0.0108629 0.036844093
0.28853914 0.0108629 0.031510025
-0.40795767 0.026337164 0.030245801
-0.38115987 0.020262007 0.031996354
0.42215675 0.038629167 0.032540254
-0.26840758 -0.049244795 0.048058812
-0.27633435 -0.039903343 0.044282328
-0.23477404 -0.038078494 0.042207569
0.25296423 -0.023366066 0.044275284
0.26134917 -0.022920856 0.044817179
-0.35045296 0.00783413 0.042811327
-0.321668 0.0036395909 0.045791104
-0.268199 0.00783413 0.046065196
-0.17766403 0.0050130086 0.048813995
-0.15523231 0.00783413 0.041544668
-0.11102366 0.00783413 0.049804293
-0.042227909 0.00783413 0.044886228
0.044188596 0.00783413 0.045037679
0.089348435 0.00783413 0.042576302
0.1178235 0.00783413 0.041921098
0.16514958 0.00783413 0.047032207
0.19276932 0.0052439705 0.042332318
0.20030759 0.0051722 0.044461079
0.22850661 0.00783413 0.049512889
0.26666915 0.00783413 0.048627175
0.29229534 0.0042964015 0.04187062
0.30841306 0.004142948 0.0436408
0.31094277 0.004118863 0.045077261
0.36339137 0.0090732044 0.047258157
-0.37127346 0.01683826 0.043553524
-0.3679657 0.015692759 0.040892787
-0.35555556 0.011395025 0.044027645
-0.28070989 0.0108629 0.048112534
-0.24655682 0.0108629 0.040408261
-0.23437965 0.0108629 0.043992486
-0.22298779 0.0108629 0.041086696
-0.094439074 0.0108629 0.0460485
0.14209068 0.0108629 0.046370998
0.19293869 0.0108629 0.042285413
0.24433297 0.0108629 0.043575536
0.26276469 0.0108629 0.043351084
0.28303319 0.0108629 0.043430187
0.33739507 0.0108629 0.045910608
0.37715781 0.019386932 0.04142233
0.38006169 0.017457467 0.04608221
-0.42056173 0.030702202 0.041572846
-0.46343839 0.046000108 0.047979098
0.45575273 0.058915671 0.047678441
-0.23939019 -0.053322017 0.059216611
-0.2515271 -0.022960756 0.05774739
-0.32928646 0.00783413 0.053045299
-0.30798131 0.0051290398 0.059258997
-0.28747362 0.0039650546 0.057637997
-0.26875284 0.0041432409 0.057817668
-0.24262482 0.006848265 0.059259001
-0.2365599 0.0044496553 0.054612983
-0.22436631 0.0067959265 0.059259001
-0.17179108 0.00783413 0.05539228
-0.1320802 0.00783413 0.052407175
-0.01261244 0.00783413 0.057740092
0.11138234 0.00783413 0.05569179
0.18363497 0.00783413 0.05881919
0.36430973 0.009535078 0.053989902
-0.37055063 0.013382556 0.059366416
-0.033742025 0.0108629 0.057447474
0.075896084 0.0108629 0.059635408
0.091882437 0.0108629 0.054770883
0.11460458 0.0108629 0.053809371
0.17264876 0.0108629 0.05682414
0.20992836 0.0108629 0.051588558
0.22197314 0.0108629 0.059126996
0.25959024 0.0108629 0.054256849
0.30299598 0.0108629 0.056855623
0.31460154 0.0108629 0.05462306
0.38021311 0.02092354 0.054962523
0.41863108 0.036855891 0.056942627
-0.24033979 -0.054164518 0.068205774
0.25402266 -0.058090433 0.061704949
0.27513123 -0.046582446 0.063879982
-0.25301033 -0.02287484 0.060943171
-0.24774389 -0.023484046 0.066744275
-0.26022211 0.00783413 0.06888549
-0.22810583 0.00783413 0.067646593
-0.1418931 0.00783413 0.067616828
0.010259435 0.00783413 0.067755714
0.04282406 0.00783413 0.061689883
0.089373812 0.00783413 0.060895078
0.11110491 0.00783413 0.061780017
0.14683977 0.00783413 0.063507378
0.2460188 0.00783413 0.06383808
0.32848847 0.00783413 0.061605692
-0.37509453 0.018161537 0.060133107
-0.32101053 0.0108629 0.067432515
-0.27482894 0.0108629 0.064344764
-0.25414023 0.0108629 0.061863635
-0.22847381 0.0108629 0.061316784
-0.16566716 0.0108629 0.064313911
-0.079721384 0.0108629 0.064364806
0.01598496 0.0108629 0.066594958
0.086617872 0.0108629 0.061247632
0.10445008 0.0108629 0.069395281
0.14303082 0.0108629 0.064415246
0.16660097 0.0108629 0.06999442
0.18158399 0.0108629 0.064633198
0.20319071 0.0108629 0.068250984
0.23970032 0.0108629 0.066975668
0.40445113 0.029724075 0.069146134
-0.4340165 0.038566753 0.061641309
-0.41431919 0.031745359 0.067339912
-0.45179352 0.044723213 0.067660779
0.42830345 0.045110505 0.06216722
0.44795993 0.054996446 0.066798113
-0.24761444 -0.058312114 0.07789547
0.24462539 -0.052342512 0.072682269
0.24371731 -0.03000938 0.070286162
-0.24531612 -0.02446286 0.079486348
-0.23925054 -0.028719604 0.071765952
0.25444636 -0.022980418 0.07193841
-0.18072605 0.00783413 0.072116323
-0.10783055 0.00783413 0.076362029
-0.083903357 0.00783413 0.079320982
0.035554945 0.00783413 0.075428605
0.065672614 0.00783413 0.070626006
0.22645804 0.00783413 0.070687264
0.24406749 0.00783413 0.076500773
0.36445966 0.0096104946 0.070138238
-0.35431287 0.010014122 0.078140214
-0.18054648 0.0108629 0.074396029
-0.12375174 0.0108629 0.070770212
-0.062979594 0.0108629 0.072544366
-0.031289034 0.0108629 0.074302778
0.012003276 0.0108629 0.079728328
0.087128013 0.0108629 0.076749198
0.2149975 0.0108629 0.072891265
0.25431865 0.0108629 0.077116102
0.27753475 0.0108629 0.076869681
0.34127194 0.0108629 0.072773837
0.38135117 0.018105997 0.077495411
-0.41425306 0.028517244 0.073817328
-0.40959868 0.026905343 0.070340566
0.39173764 0.023329858 0.07600981
-0.42210647 0.031237081 0.072094783
0.40955269 0.035679672 0.078623019
0.411531 0.036674675 0.074510098
0.44815239 0.05509327 0.073981941
0.24074623 -0.045209154 0.080388732
0.2739796 -0.031765237 0.082186036
0.24467319 -0.028788012 0.0862161
-0.31826025 0.00783413 0.087567441
-0.15669912 0.00783413 0.080786191
-0.1165522 0.00783413 0.086586483
-0.086569965 0.00783413 0.084350631
-0.025704257 0.00783413 0.080570489
0.020552941 0.00783413 0.086849153
0.053284705 0.00783413 0.08234401
0.10818766 0.00783413 0.089797623
0.13543129 0.00783413 0.082916103
0.17457837 0.00783413 0.087350853
0.23140353 0.00783413 0.083007813
0.36144325 0.0084091295 0.081377193
-0.36900842 0.016053859 0.088440239
-0.035014868 0.0108629 0.083387613
0.0019516759 0.0108629 0.080452114
0.020832948 0.0108629 0.081841379
0.17548913 0.0108629 0.088870063
0.29628122 0.0108629 0.085310265
0.37440446 0.014612176 0.088544011
0.38437888 0.019628786 0.084427454
0.39690426 0.029318154 0.084496506
-0.43450022 0.038734227 0.087005049
0.25226343 -0.057530012 0.093952693
-0.35079837 0.00783413 0.098343432
-0.27676451 0.00783413 0.092926323
-0.19714345 0.00783413 0.092733756
-0.13864124 0.00783413 0.09322232
-0.12972769 0.00783413 0.097127728
-0.093645714 0.00783413 0.09637022
-0.05025503 0.00783413 0.097110435
-0.046803486 0.00783413 0.096504591
-0.02773957 0.00783413 0.098527677
0.010242984 0.00783413 0.099820361
0.1618239 0.00783413 0.094242148
0.27044746 0.00783413 0.099911109
0.2801308 0.00783413 0.092473015
-0.38544711 0.018541344 0.098739214
-0.2386124 0.0108629 0.090573132
-0.15110086 0.0108629 0.092687868
-0.14124382 0.0108629 0.097075865
-0.0826471 0.0108629 0.095697165
-0.06565427 0.0108629 0.099332199
-0.057681073 0.0108629 0.090893239
-0.029918827 0.0108629 0.091440007
-0.0097822696 0.0108629 0.097983755
0.010100439 0.0108629 0.097594634
0.060847059 0.0108629 0.094438151
0.089610428 0.0108629 0.099196985
0.1975919 0.0108629 0.094655439
0.21921289 0.0108629 0.099175572
0.28261909 0.0108629 0.097043283
0.38194409 0.021794079 0.090849444
0.40344888 0.029219996 0.091860496
0.41778821 0.039821658 0.099678621
0.23328508 -0.050670058 0.10577372
0.26467901 -0.057295948 0.10646081
-0.27002087 -0.044857364 0.10371509
-0.27021676 -0.038291007 0.10075384
0.25974339 -0.022693893 0.10514431
-0.29540041 0.00783413 0.10640354
-0.26631385 0.00783413 0.10399455
-0.1737255 0.00783413 0.10109074
-0.13698879 0.007834129 0.10750249
-0.092570476 0.00783413 0.10978536
-0.030457556 0.00783413 0.10547605
0.032160684 0.00783413 0.10609825
0.042524859 0.00783413 0.1037751
0.068315387 0.00783413 0.10547978
0.14311799 0.00783413 0.10249675
0.15338126 0.00783413 0.10749158
0.20626661 0.00783413 0.10560899
0.25753048 0.00783413 0.10374328
0.29388222 0.00783413 0.10501978
0.31518474 0.00783413 0.10738161
-0.37773967 0.019077562 0.10977391
-0.34247723 0.0108629 0.10291024
-0.20784563 0.0108629 0.10505411
-0.1035639 0.0108629 0.10591508
-0.0085330214 0.0108629 0.1071002
0.024871103 0.0108629 0.10126036
0.10370243 0.0108629 0.10241652
0.11622198 0.0108629 0.1001927
0.16557662 0.0108629 0.10506399
0.30467683 0.0108629 0.10216296
0.37176451 0.016674483 0.10243863
-0.40595981 0.025645107 0.10220628
0.3868666 0.020879984 0.10856722
-0.24953747 -0.060962044 0.113937
-0.23401268 -0.060593437 0.1198658
-0.24041142 -0.059959903 0.11393699
0.23616412 -0.056003191 0.11392916
0.27210665 -0.051901117 0.11237101
-0.27016848 -0.043933924 0.11393699
0.24013406 -0.040364157 0.11553632
-0.22893547 -0.027558049 0.11842871
0.27153945 -0.028487114 0.11572476
-0.24490383 -0.01562234 0.113937
-0.3049379 0.00783413 0.11278
-0.23793688 0.00783413 0.11968343
-0.22144164 0.00783413 0.1131324
-0.057830203 0.00783413 0.11071669
0.019226197 0.00783413 0.117475
0.24911135 0.00783413 0.11876529
0.36020899 0.0099364128 0.11610971
-0.32391733 0.0108629 0.1132196
-0.26940593 0.0108629 0.11483974
-0.078917444 0.0108629 0.11124412
-0.057274818 0.0108629 0.11760759
-0.010388225 0.0108629 0.11937523
0.23433194 0.0108629 0.11468779
0.31671575 0.0108629 0.11836663
0.25831175 -0.066930652 0.12264667
-0.23240989 -0.058950942 0.1255942
0.23988557 -0.052678134 0.12586959
0.24409249 -0.051634073 0.12465319
0.26241472 -0.050889514 0.122344
-0.26813632 -0.049882647 0.12527445
0.24272996 -0.049822684 0.12951462
0.24323577 -0.030624665 0.12643749
-0.24774961 -0.023481736 0.12812942
0.2414932 -0.02241228 0.12597989
0.25079402 -0.024240838 0.12158661
0.26677895 -0.024747346 0.12456691
0.25379258 -0.019149829 0.12718832
-0.1330528 0.0080970014 0.122997
-0.10721079 0.0098422263 0.122997
-0.093358703 0.00783413 0.12295041
-0.054096445 0.00783413 0.12266681
0.084371492 0.00783413 0.12003485
0.19559246 0.00783413 0.12244904
0.21089935 0.00783413 0.12157998
-0.36698902 0.01214915 0.12093194
-0.32240844 0.010354161 0.122997
-0.066616133 0.0108629 0.12269481
-0.013588652 0.010470359 0.122997
0.27619672 0.0108629 0.12056693
0.33816242 0.0108629 0.1219613
0.34600446 0.010659644 0.122997
0.35996962 0.0108629 0.12258517
-0.25983676 -0.057261545 0.13669106
0.25012738 -0.051057827 0.131383
-0.26955193 -0.046553969 0.13549945
0.27456376 -0.047916055 0.13071954
-0.26351774 -0.028531352 0.132017
0.25109863 -0.021755487 0.130132
