# .PCD v0.7 - Point Cloud Data file format
VERSION 0.7
FIELDS x y z
SIZE 4 4 4
TYPE F F F
COUNT 1 1 1
WIDTH 888
HEIGHT 1
VIEWPOINT 0 0 0 1 0 0 0
POINTS 888
DATA ascii
-0.31121856 -0.032271594 -0.12562765
-0.29103756 -0.031226642 -0.125631
-0.25678423 -0.034077182 -0.125631
-0.20796749 -0.038217202 -0.12057582
-0.19575256 -0.030674346 -0.125631
-0.13676316 -0.030647868 -0.125631
-0.1251398 -0.038217202 -0.1206171
-0.028781541 -0.034381934 -0.12504867
-0.017050369 -0.038277201 -0.124881
0.014629175 -0.037830275 -0.12389632
0.025100917 -0.036968514 -0.125631
0.091198251 -0.031018753 -0.125631
0.1054123 -0.037250243 -0.125631
0.13968326 -0.0385429 -0.12155971
0.17635028 -0.031393833 -0.125631
0.32914659 -0.030858655 -0.12085808
-0.12245564 -0.026447723 -0.12143818
-0.10232291 -0.026187617 -0.12279987
-0.072629839 -0.02595377 -0.12402562
-0.050656602 -0.025666662 -0.125631
0.044887766 -0.026256971 -0.12245634
0.083158426 -0.02668697 -0.12021238
0.14356957 -0.025853485 -0.12457799
0.15605502 -0.025754035 -0.12509926
0.23943061 -0.026384272 -0.125631
0.25360242 -0.027035197 -0.12407625
-0.37708795 -0.011675885 -0.12225097
-0.33296233 -0.016958959 -0.1248611
-0.37329105 -0.0069880383 -0.1247088
-0.36877668 -0.0025001131 -0.12249255
-0.3940061 0.0062223398 -0.121273
-0.27950963 -0.040402286 -0.1100718
-0.25651652 -0.038217202 -0.11358917
-0.22037281 -0.038217202 -0.11278599
-0.21644633 -0.039405238 -0.1107802
-0.19100171 -0.038217202 -0.11669779
-0.1347395 -0.038217202 -0.11043391
-0.12468768 -0.038217202 -0.11981845
-0.10318454 -0.038484886 -0.11576692
-0.081214592 -0.038870536 -0.11746414
-0.075876713 -0.038217202 -0.1177519
-0.054131247 -0.03880205 -0.1183202
-0.0039324164 -0.038217202 -0.11373803
0.11536894 -0.039333045 -0.11168264
0.14929773 -0.038217202 -0.11518668
0.16818129 -0.038217202 -0.11073818
0.32496345 -0.032578208 -0.11376175
-0.30882668 -0.026474291 -0.11403003
-0.27094325 -0.026576381 -0.11464214
-0.25080904 -0.025643878 -0.11724314
-0.18865386 -0.027341947 -0.11657902
-0.17391859 -0.028082198 -0.11240672
-0.15229806 -0.028326029 -0.11093301
-0.14237767 -0.027128898 -0.11778077
-0.13237116 -0.027526632 -0.11554963
-0.12929672 -0.027528793 -0.1155379
-0.034007981 -0.026738193 -0.11993051
0.062784873 -0.026816344 -0.11953341
0.12011489 -0.027225547 -0.11727139
0.37616929 -0.011529731 -0.11183307
-0.3608405 -0.0057033198 -0.11338659
-0.27946866 -0.040394459 -0.10158555
-0.11223582 -0.040189199 -0.10098045
-0.0267924 -0.040059309 -0.10260412
0.029191986 -0.040044799 -0.10278549
0.2150993 -0.040198967 -0.10085838
0.26550761 -0.040105939 -0.10202122
-0.23586331 -0.038712323 -0.10561359
-0.20961669 -0.038217202 -0.10122558
-0.19813387 -0.038217202 -0.10532364
-0.13011068 -0.038217202 -0.10890736
-0.10023362 -0.039893538 -0.10467631
-0.078131177 -0.038217202 -0.10462467
-0.056703083 -0.038920417 -0.10877138
-0.046343587 -0.038217202 -0.10619695
0.050423499 -0.039531142 -0.10920634
0.060459781 -0.039646368 -0.10776599
0.10654436 -0.039508138 -0.10949393
0.12760179 -0.030030942 -0.10017198
0.15320805 -0.039044626 -0.10452804
0.1629546 -0.039705191 -0.10703069
0.31206629 -0.037879597 -0.10579927
-0.34474605 -0.024733016 -0.10749862
-0.29527703 -0.028778741 -0.10046123
-0.27091151 -0.025647907 -0.10801426
-0.2214404 -0.029231876 -0.10378309
-0.1481348 -0.029461261 -0.10388509
0.016578367 -0.029531179 -0.1034448
0.071530491 -0.029338207 -0.10471673
0.10908979 -0.029096022 -0.10629732
0.29911533 -0.028304225 -0.10404711
0.32558426 -0.019759726 -0.10592137
-0.36856249 -0.0025860122 -0.10702717
-0.35942084 -0.00627675 -0.10968802
0.3952263 0.0088666975 -0.10121036
-0.28113389 -0.040689129 -0.099933445
-0.21931332 -0.040798008 -0.093370125
-0.179865 -0.041032184 -0.090442866
-0.13834926 -0.040379502 -0.098601609
-0.013209097 -0.040497784 -0.097123012
-0.0044899564 -0.040732622 -0.094187513
0.062523924 -0.040346455 -0.099014685
0.16560847 -0.04072772 -0.094248712
0.19723555 -0.041067556 -0.090000719
0.23453376 -0.040436763 -0.09788581
0.26235825 -0.040744815 -0.094035074
-0.3200056 -0.03472149 -0.095754951
-0.31074342 -0.035982069 -0.093874373
-0.24871607 -0.038217202 -0.09182737
-0.23379345 -0.038217202 -0.097983055
-0.22815776 -0.038217202 -0.092786066
-0.19481882 -0.038217202 -0.09641812
-0.18366258 -0.030702863 -0.095371231
-0.17420752 -0.034214411 -0.097252898
-0.12658626 -0.038217202 -0.091376409
-0.10262934 -0.038217202 -0.093225233
-0.090300769 -0.031119198 -0.092320517
-0.054745723 -0.034443688 -0.096535288
-0.014925137 -0.030503478 -0.096818104
0.016461231 -0.034800392 -0.090544268
0.05608134 -0.030604627 -0.096098021
0.09685912 -0.030746728 -0.09508054
0.10016827 -0.038217202 -0.09449552
0.14661163 -0.038217202 -0.098989606
0.17403407 -0.030943351 -0.093674302
0.18161695 -0.038217202 -0.098943464
0.21442771 -0.038217202 -0.092179619
0.31738994 -0.03569131 -0.097387254
-0.35195565 -0.021822203 -0.091848522
-0.28636727 -0.028716143 -0.091868684
-0.24391927 -0.025647167 -0.09168072
0.28271037 -0.028198464 -0.091449693
0.30606863 -0.027071415 -0.094455361
-0.4216696 0.0063238516 -0.097037897
0.41101643 0.0027943328 -0.099911287
0.42587829 0.021466235 -0.09377756
-0.26077276 -0.041487277 -0.084754094
-0.17621148 -0.041349828 -0.086472206
-0.023240471 -0.04134902 -0.086482309
0.030999057 -0.04148598 -0.084770247
0.080226585 -0.041363098 -0.086306363
-0.3081392 -0.039212544 -0.086449951
-0.26315257 -0.038217202 -0.08488901
-0.22454253 -0.038217202 -0.088765286
-0.21178804 -0.032459147 -0.081182338
-0.13004361 -0.038217202 -0.080614544
-0.12659644 -0.03223874 -0.083108053
-0.11944201 -0.038217202 -0.081542626
-0.05372455 -0.032392748 -0.081777342
-0.041318923 -0.038217202 -0.080959424
0.042680889 -0.038217202 -0.085248418
0.057292268 -0.038217202 -0.081398033
0.10382999 -0.032240361 -0.083128616
0.11481173 -0.034980714 -0.086051732
0.12988034 -0.032158885 -0.083847001
0.15754068 -0.03510299 -0.083460182
0.1883077 -0.038217202 -0.087306723
0.31124499 -0.033597529 -0.081306122
0.33646578 -0.027850082 -0.083925843
0.34384599 -0.01225323 -0.080171235
0.36168802 -0.017482508 -0.081927411
0.37801 -0.010773402 -0.089921966
-0.41457397 0.0034592981 -0.085619181
-0.40875226 0.0011087041 -0.084641948
-0.442184 0.014606356 -0.081904754
-0.40826041 0.013440675 -0.082929552
-0.29221195 -0.041454576 -0.079997763
-0.14740899 -0.042368695 -0.073736064
-0.081274286 -0.04244446 -0.072788954
0.065767713 -0.042249136 -0.075230584
0.10740338 -0.042218126 -0.075618215
0.11852713 -0.042138755 -0.076610364
-0.24942295 -0.038217202 -0.077933669
-0.22733384 -0.03177233 -0.070220269
-0.17291667 -0.033026271 -0.075721636
-0.13642059 -0.032839414 -0.077573679
-0.10237733 -0.038217202 -0.078813285
-0.082763925 -0.038217202 -0.077958554
-0.067621142 -0.038217202 -0.07089708
-0.04437805 -0.032652535 -0.079430252
0.012992874 -0.038217202 -0.076103576
0.15149041 -0.038217202 -0.075118288
0.17178743 -0.035429947 -0.079117775
0.22452003 -0.034775745 -0.075081982
0.26219821 -0.038217202 -0.076604858
-0.34484133 -0.012162864 -0.074944407
-0.36784482 -0.002875858 -0.072943158
-0.35748327 -0.0070591113 -0.079167619
0.41753447 0.0054734335 -0.078699753
0.44800025 0.0179967 -0.071906194
0.45071334 0.031674705 -0.079754636
-0.25649452 -0.043092068 -0.064693704
-0.22461015 -0.043013372 -0.065677449
-0.15205558 -0.043445129 -0.060280286
-0.093594916 -0.043439306 -0.060353078
-0.077795058 -0.043128401 -0.064239524
0.030523054 -0.043026023 -0.065519258
0.045308765 -0.043245539 -0.062775224
0.1172315 -0.042858284 -0.067616045
0.13611242 -0.042927653 -0.066748932
0.26127824 -0.043176934 -0.063632853
-0.31073666 -0.037074149 -0.067705646
-0.22089177 -0.033613056 -0.068834491
-0.21089342 -0.033782758 -0.06747245
-0.20627113 -0.038217202 -0.069419622
-0.083919406 -0.034316938 -0.06051147
-0.065453902 -0.033864237 -0.06650646
-0.011723146 -0.038217202 -0.068915181
0.056732275 -0.033641014 -0.069097221
0.08347176 -0.038217202 -0.065909348
0.12716985 -0.038217202 -0.067163698
0.17386383 -0.038217202 -0.064787135
0.18706407 -0.033621605 -0.069325343
0.21875226 -0.038217202 -0.063892804
0.22323956 -0.03355762 -0.063299499
-0.31078768 -0.028859748 -0.069688424
-0.28526053 -0.028622415 -0.062204614
-0.2708728 -0.026528776 -0.068284482
-0.26963529 -0.025651161 -0.065805703
0.26878136 -0.025653901 -0.061680622
0.27885845 -0.027567506 -0.064068869
0.31046268 -0.02588455 -0.060583707
0.33715802 -0.027565485 -0.068892315
-0.377 -0.011711085 -0.067472287
-0.34723562 -0.011196093 -0.062026061
0.34989801 -0.0097655337 -0.066562772
0.39783546 -0.002623975 -0.068263233
0.40258253 -0.00067263353 -0.062378924
-0.44833499 0.017089505 -0.065545037
-0.40050429 0.010309661 -0.069158904
-0.43281883 0.023355525 -0.068631113
0.4632771 0.029328935 -0.067955144
-0.25419542 -0.043571819 -0.058696657
-0.22871056 -0.043495826 -0.059646543
-0.20708773 -0.043699741 -0.057097562
-0.19936593 -0.044165853 -0.05127104
-0.1335873 -0.043541219 -0.05907917
-0.087282568 -0.043933745 -0.054172494
0.066913687 -0.043512464 -0.059438616
0.11256599 -0.043613691 -0.058173232
0.17678276 -0.043910038 -0.054468799
0.22485147 -0.043649364 -0.057727315
0.29608881 -0.041119896 -0.055383954
-0.32250795 -0.033711042 -0.05699886
-0.252747 -0.038217202 -0.054734923
-0.22563967 -0.035841078 -0.054802626
-0.19120544 -0.038217202 -0.058245044
-0.0930195 -0.038217202 -0.056692548
-0.041977234 -0.038217202 -0.055511337
-0.016749918 -0.038217202 -0.051637344
0.02683419 -0.034925088 -0.050162666
0.030266114 -0.038217202 -0.056901179
0.045592774 -0.038217202 -0.05131593
0.087778285 -0.038217202 -0.054721966
0.095883444 -0.038217202 -0.051314071
0.10825162 -0.038217202 -0.052116808
0.11774052 -0.034586541 -0.056270201
0.12876919 -0.034749832 -0.05366281
0.15761644 -0.034773052 -0.053200938
0.20570023 -0.034386721 -0.059455611
0.21154602 -0.034927957 -0.050113775
0.22108839 -0.038217202 -0.051004834
0.27337903 -0.038804002 -0.053292282
0.24342212 -0.028802192 -0.057416089
0.2529625 -0.026362954 -0.055171818
0.31498823 -0.024115285 -0.0595126
-0.34416196 -0.012437331 -0.052310701
0.35997343 -0.018187132 -0.053618386
0.35808039 -0.006402161 -0.058404926
-0.37989593 0.0019893656 -0.050919652
0.4406991 0.027558256 -0.057596728
-0.47000372 0.034068529 -0.052623086
-0.46370354 0.035824295 -0.059526883
-0.11942483 -0.0444986 -0.045322821
-0.09656658 -0.0444986 -0.040575862
-0.080911219 -0.04259878 -0.047111601
-0.035890333 -0.044293195 -0.049679212
0.12461341 -0.041627873 -0.047111601
0.16528369 -0.044163022 -0.047111601
0.18841341 -0.040456675 -0.047111601
0.22575226 -0.041683692 -0.047111601
0.24934529 -0.042367071 -0.047337726
0.27120626 -0.0444986 -0.04695908
-0.27087346 -0.03433292 -0.04539673
-0.25567392 -0.03507797 -0.044101916
-0.23096767 -0.033148874 -0.040466409
-0.21034122 -0.037016686 -0.047111601
-0.20174481 -0.038217202 -0.043919403
-0.17443424 -0.036999248 -0.046362527
-0.167173 -0.038217202 -0.046871729
-0.12548907 -0.037414886 -0.044167258
-0.077601373 -0.036804758 -0.047111601
-0.067964487 -0.034956604 -0.049529776
-0.041220132 -0.035077903 -0.045316018
0.053527988 -0.035078123 -0.040475704
0.075625069 -0.034991596 -0.048838433
0.086381778 -0.038217202 -0.044069219
0.15062919 -0.037102465 -0.044114858
0.22030915 -0.038275372 -0.047111601
0.2439459 -0.038217202 -0.046467081
0.25718778 -0.028316947 -0.043912992
-0.37588137 -0.012162324 -0.041704021
-0.34868202 -0.01061245 -0.04456535
0.40160298 -0.001075428 -0.045242593
-0.41934693 0.0053859157 -0.045144189
-0.4452036 0.015824787 -0.042207099
0.44422522 0.016444545 -0.043381862
0.45068526 0.019099886 -0.042869262
-0.43958241 0.026086457 -0.045513369
0.42328486 0.020400513 -0.043206111
0.46403739 0.037151478 -0.048876636
-0.24884109 -0.0444986 -0.030212903
-0.1093277 -0.0444986 -0.037511647
-0.045884732 -0.0444986 -0.035221897
-0.00061003864 -0.0444986 -0.031355001
0.086146869 -0.0444986 -0.038665973
0.14342678 -0.0444986 -0.039026469
0.1643402 -0.0444986 -0.038289279
0.19099337 -0.0444986 -0.030119501
0.2710464 -0.044434559 -0.032363921
-0.31075433 -0.034233358 -0.038805056
-0.27399635 -0.03939496 -0.03460541
-0.24347916 -0.038217202 -0.032952249
-0.22949643 -0.038217202 -0.033235472
-0.10898518 -0.035077751 -0.038447153
-0.092484728 -0.035077788 -0.030906571
-0.077672333 -0.038217202 -0.035089221
-0.020206623 -0.038217202 -0.031366091
-0.011979446 -0.038217202 -0.031226175
0.03692279 -0.038217202 -0.031590611
0.05965659 -0.035078134 -0.03258834
0.10765071 -0.038217202 -0.031272165
0.13979816 -0.036647759 -0.035486408
0.16326983 -0.035078369 -0.031908631
0.23279056 -0.032892711 -0.032162271
0.24350396 -0.038217202 -0.038882248
0.3145752 -0.036848325 -0.034741431
-0.34760398 -0.023579415 -0.039863661
-0.28871733 -0.028850893 -0.033931952
0.3112773 -0.02564062 -0.039819416
0.34096184 -0.026001794 -0.03908477
0.39415762 0.0084273852 -0.034150451
-0.47535548 0.027997857 -0.031484764
-0.46453565 0.036160573 -0.036473513
0.47763893 0.04003137 -0.033052657
-0.25222319 -0.0444986 -0.02173952
-0.21359374 -0.0444986 -0.02144547
-0.086607873 -0.0444986 -0.021838058
0.12439589 -0.0444986 -0.027481973
0.14038299 -0.0444986 -0.028728053
0.27138799 -0.040365104 -0.028133994
-0.270872 -0.03477069 -0.027428165
-0.24668187 -0.030195627 -0.026222974
-0.17291237 -0.035077728 -0.025783204
-0.14881781 -0.038217202 -0.027352838
-0.11234967 -0.035077751 -0.023745695
-0.016434617 -0.038217202 -0.024441153
-0.0021101013 -0.038217202 -0.02750092
0.00076134875 -0.035078 -0.026586313
0.01305756 -0.03507803 -0.026253261
0.028030796 -0.035078064 -0.025844045
0.098262958 -0.03507822 -0.022816546
0.20151287 -0.035078458 -0.028559856
0.22058097 -0.038217202 -0.027413659
0.23463061 -0.037608162 -0.028766306
0.27162537 -0.038287163 -0.025398273
-0.32017076 -0.022123111 -0.024741221
-0.30408415 -0.027636439 -0.024978686
-0.29075485 -0.028917179 -0.022078086
-0.26872879 -0.026054412 -0.027150707
0.34070927 -0.02610556 -0.026279371
0.35483515 -0.020299165 -0.022121977
-0.34945542 -0.010300336 -0.02839312
-0.41030186 0.014264967 -0.024944635
-0.40943682 0.013915738 -0.025390048
0.39922631 0.010510905 -0.021405136
0.41951475 0.018850509 -0.027379286
-0.46777827 0.024939049 -0.020109456
0.45759493 0.02194044 -0.021043368
-0.46704936 0.037175581 -0.027576586
-0.22221419 -0.0444986 -0.017225668
0.067962877 -0.0444986 -0.012793404
0.077726297 -0.0444986 -0.01166277
0.080890581 -0.0444986 -0.012334265
0.14439213 -0.0444986 -0.017219871
0.16748998 -0.0444986 -0.017046195
-0.25901783 -0.038217202 -0.011361385
-0.22627953 -0.034029331 -0.015164376
-0.19249886 -0.035077818 -0.016963553
-0.086443476 -0.035077862 -0.012741867
-0.071931809 -0.035077892 -0.010108022
-0.059555285 -0.036647551 -0.011724144
-0.027175806 -0.038217202 -0.013101518
0.13709521 -0.038217202 -0.018860728
0.19420354 -0.03507844 -0.010977021
0.23664407 -0.032170009 -0.017206283
0.25685701 -0.038217202 -0.013859481
0.30631489 -0.039575871 -0.012902021
0.31619906 -0.036180831 -0.014529198
0.25459552 -0.028803194 -0.018934295
0.28876087 -0.028727952 -0.014417263
0.32031119 -0.021927353 -0.018738121
-0.36910576 -0.014898293 -0.014224291
0.3957198 -0.003493424 -0.017619137
0.38777173 0.0058025019 -0.016356461
0.43127933 0.023686392 -0.019061891
-0.47955626 0.039823286 -0.018043861
0.45185429 0.032143995 -0.01581054
-0.16312981 -0.0444986 -0.0068027973
-0.04759711 -0.0444986 -0.0016536601
0.0064111645 -0.0444986 -0.0038649128
0.024531573 -0.0444986 -0.00083793327
0.078706935 -0.0444986 -0.0089667505
0.26016042 -0.042393908 -0.0035546608
-0.33088386 -0.030329317 -0.0046838857
-0.31073812 -0.036838844 -0.0058692321
-0.23832738 -0.03176377 -0.0049489588
-0.16156566 -0.038217202 -0.0025815368
-0.080702119 -0.035077985 -0.0013351496
-0.077897653 -0.035077982 -0.0016965903
-0.052443162 -0.038217202 -0.0042420402
-0.0068178922 -0.038217202 -0.0028893724
0.034224804 -0.037170827 -0.002446736
0.085460484 -0.036647696 -0.0069069988
0.11379684 -0.038217202 -0.007465899
0.13352588 -0.036647752 -0.0017783176
0.14770997 -0.035078332 -0.0079994341
0.15559794 -0.03507835 -0.0067861676
0.16913018 -0.035078384 -0.0080077294
0.22476099 -0.03575803 -0.0037785792
0.2395286 -0.038526323 -0.0062865876
0.27340138 -0.038810581 -0.0019697938
0.31313449 -0.03744052 -0.0071448795
0.327746 -0.031434469 -0.007447714
-0.34474915 -0.024731822 -0.0074556172
-0.32408524 -0.020542789 -0.0070873834
0.25554734 -0.028624713 -0.0031092884
0.28641757 -0.028587183 -0.0055001825
0.30261394 -0.027781405 -0.0077361315
0.33483121 -0.0285221 -0.0041262321
-0.35030743 -0.009956467 -0.0041460656
0.38520402 -0.0078159897 -0.0051082517
-0.42007223 0.0056788288 -0.00054421369
-0.42350343 0.019594716 -0.0068813376
-0.42767844 0.021280296 -0.0069846716
0.46414757 0.024633931 -0.0091381716
0.46353588 0.036945734 -0.0062637716
-0.26498076 -0.0444986 0.0091765691
-0.25678435 -0.0444986 0.0093756244
-0.15101787 -0.0444986 0.0095608914
-0.045226485 -0.0444986 0.0036298931
-0.029646743 -0.0444986 0.009804355
0.063399062 -0.0444986 0.0054222541
0.12344902 -0.0444986 0.0017778808
0.13750617 -0.0444986 0.00070108101
-0.270872 -0.034878854 0.0099601559
-0.25166631 -0.035074439 0.0016988106
-0.24158581 -0.035075102 0.0048253424
-0.23648199 -0.032110959 0.0093924068
-0.19745061 -0.038217202 0.0036411397
-0.18981823 -0.035078105 0.009834215
-0.1552594 -0.038217202 0.003618252
-0.11764786 -0.035078004 0.00043187104
-0.10470657 -0.036647648 0.0067054424
-0.083406895 -0.03507809 0.0083103701
-0.019564047 -0.038217202 0.0098012276
0.034310669 -0.03664764 0.0047215507
0.13459732 -0.035078306 0.0074322056
0.20776275 -0.038217202 0.0049576201
0.30743921 -0.039307386 0.0097877905
0.31124499 -0.031979527 0.0053512258
0.32928699 -0.03080105 0.0086243525
-0.27086943 -0.025653901 0.00037556177
0.29440007 -0.028714187 0.0053701736
-0.34435138 -0.012361049 0.0089221634
-0.33207822 -0.017315907 0.0018955898
0.39292631 -0.0046417075 0.0080195675
-0.41009963 0.0016528089 0.0048893802
-0.41062769 0.014396554 0.0077686757
0.40254018 0.011873081 0.0033984445
-0.45560482 0.032554939 0.0095986687
0.4509227 0.031760767 0.0024746114
0.48123744 0.042033996 0.0052045169
-0.19688982 -0.0444986 0.017614545
-0.15413395 -0.0444986 0.018175049
-0.10527104 -0.0444986 0.01873298
-0.081402279 -0.0444986 0.010978851
-0.072515495 -0.0444986 0.01392519
-0.063962787 -0.0444986 0.013124332
0.010693185 -0.0444986 0.015782416
0.13881122 -0.0444986 0.013847502
0.14146727 -0.0444986 0.011026762
0.23311347 -0.0444986 0.014276056
0.25604466 -0.0444986 0.016505733
-0.26946741 -0.038217202 0.013431214
-0.25469023 -0.035073396 0.018605886
-0.17871748 -0.035078205 0.019340433
-0.16043624 -0.03507819 0.017963091
-0.12144651 -0.038217202 0.01201318
-0.1078925 -0.038217202 0.016810719
-0.039557554 -0.038217202 0.019175636
-0.001104515 -0.035078201 0.01911955
0.014606368 -0.035078138 0.012891738
0.036873527 -0.038217202 0.012207143
0.06634593 -0.038217202 0.012904298
0.098492943 -0.038217202 0.015375016
0.12356804 -0.038217202 0.016797539
0.13946797 -0.038217202 0.012678571
0.16001146 -0.038217202 0.013607726
0.2405519 -0.031437114 0.013158581
0.26928896 -0.038217202 0.017560173
-0.35357031 -0.021170506 0.016152039
-0.31079978 -0.026905306 0.010139767
-0.30410802 -0.027594259 0.018422863
0.3131842 -0.02485681 0.015859786
0.33288378 -0.029322596 0.01737985
0.3522858 -0.021346921 0.017770546
-0.38722208 -0.0075840391 0.012422094
0.39046636 -0.0056528626 0.011145629
-0.40937799 0.013892127 0.010079656
-0.45695251 0.020568013 0.017545536
-0.48029786 0.039127823 0.012272174
-0.26997539 -0.0444986 0.025996238
-0.22743441 -0.0444986 0.022615984
-0.10668753 -0.0444986 0.025406376
-0.076693341 -0.0444986 0.02726008
0.028225608 -0.0444986 0.022835178
0.039808225 -0.0444986 0.02051314
0.12824419 -0.0444986 0.024293818
0.1760118 -0.0444986 0.027355285
0.20664179 -0.0444986 0.025026156
0.24458218 -0.0444986 0.023339309
-0.270872 -0.033974707 0.02776929
-0.26510733 -0.038217202 0.023693826
-0.25994751 -0.038217202 0.026066985
-0.23612392 -0.038217202 0.021062996
-0.22409995 -0.03612436 0.024040677
-0.18166113 -0.038217202 0.028136488
-0.12444648 -0.038217202 0.028617771
-0.072584912 -0.03507828 0.026118346
-0.046121623 -0.035078265 0.024993828
0.05400674 -0.035078276 0.026059121
0.12199865 -0.035078276 0.025909971
0.18192759 -0.03507841 0.024944523
0.20532799 -0.035078466 0.026972329
0.21043207 -0.038217202 0.028897889
0.22704464 -0.038217202 0.024192866
0.2571004 -0.038217202 0.024569061
-0.30492657 -0.027451091 0.025067557
-0.2968027 -0.02864898 0.024399372
0.26902616 -0.026096798 0.021634396
0.29898781 -0.028320925 0.024744086
0.31578594 -0.023787407 0.028143331
0.37746578 -0.010996716 0.020742726
-0.35450083 -0.008263574 0.020760439
-0.39651996 0.0087013394 0.028917819
-0.43458289 0.024067592 0.026074233
0.4304899 0.023361839 0.020167723
0.46484363 0.024919685 0.02983788
-0.47886342 0.034518816 0.023144469
0.47016445 0.039669994 0.02669063
-0.28117624 -0.040694945 0.034974243
-0.17983615 -0.0444986 0.03722902
-0.092967674 -0.0444986 0.037792854
-0.076125696 -0.0444986 0.039489575
-0.065426707 -0.0444986 0.038297206
0.1976254 -0.0444986 0.031293705
-0.2047953 -0.036647789 0.034734689
-0.17309277 -0.038217202 0.036834016
-0.14338788 -0.038217202 0.03253527
-0.126699 -0.035078418 0.03957244
-0.11657876 -0.038217202 0.039062232
-0.070225388 -0.038217202 0.033155527
-0.017985489 -0.035078321 0.030335605
0.046431519 -0.035078414 0.039120696
0.053590309 -0.035078365 0.034381762
0.098409832 -0.035078336 0.031589441
0.10630009 -0.03507838 0.035824265
0.12344776 -0.035078425 0.039728872
0.13482358 -0.038217202 0.030165803
0.21999258 -0.035078496 0.037655987
0.23022462 -0.035806157 0.032564662
0.27138799 -0.03908382 0.033774942
-0.31078085 -0.029953623 0.034541465
-0.39791259 -0.003268024 0.035617117
0.35812789 -0.0063822614 0.038802125
-0.38037205 0.0021813335 0.035329852
0.40500423 0.00032300875 0.035267472
0.43474168 0.012546722 0.034332991
0.43328679 0.024511501 0.036990397
-0.46981412 0.038291413 0.039600417
-0.45755899 0.033343688 0.034320518
-0.23111252 -0.040176056 0.047111601
-0.13288638 -0.040351212 0.047111601
0.0090862904 -0.0444986 0.041224182
0.04558681 -0.0444986 0.045339584
0.13201165 -0.042376712 0.047083914
0.18376842 -0.044284169 0.049792051
0.30401766 -0.040085971 0.043572951
-0.20544346 -0.037006993 0.047111601
-0.15748531 -0.038217202 0.04965885
-0.057957944 -0.035078488 0.046173848
-0.039785884 -0.038217202 0.043962333
0.051567636 -0.038844276 0.047111601
0.14464165 -0.038217202 0.047006026
0.1537635 -0.038217202 0.042453159
0.16208053 -0.038217202 0.047103815
0.19638734 -0.038217202 0.043147828
0.22296859 -0.035422031 0.040657956
-0.34559014 -0.024391938 0.049643394
-0.27458489 -0.028181871 0.0456734
-0.24593425 -0.02871152 0.04798083
0.26026684 -0.025653901 0.047615837
0.33250636 -0.029477738 0.041121271
-0.36113074 -0.018118121 0.046874113
-0.34586015 -0.011751939 0.04406894
0.37804627 -0.010757984 0.047084756
-0.35304618 -0.0088508334 0.048364341
0.3882359 -0.0065695774 0.048836417
-0.47098967 0.026235716 0.049754634
-0.46329644 0.035659987 0.045527849
0.47272024 0.040605009 0.046127599
-0.29114476 -0.041475985 0.054937743
-0.28147033 -0.040735342 0.053968668
-0.270872 -0.042257123 0.056680769
-0.26953155 -0.043747712 0.056497909
-0.032059252 -0.043615982 0.058144622
-0.006111051 -0.044245448 0.050276078
0.074308343 -0.044115506 0.051900387
0.23897189 -0.043690749 0.057209976
-0.31316817 -0.037481908 0.055094022
-0.27087739 -0.035081163 0.052478299
-0.26488861 -0.038217202 0.055228058
-0.25776365 -0.038217202 0.054190062
-0.23524259 -0.034551874 0.051009085
-0.18971665 -0.038217202 0.056776471
-0.17412987 -0.034809172 0.052483492
-0.16879818 -0.038217202 0.052573185
-0.14820141 -0.038217202 0.056708176
-0.13821021 -0.036308609 0.058610465
-0.10366385 -0.034387983 0.05943691
-0.047171637 -0.038217202 0.05811955
-0.028011322 -0.034436062 0.05867121
-0.015214996 -0.034617413 0.055595495
0.027430929 -0.034529001 0.057190925
0.030591466 -0.034889959 0.050872169
0.16363636 -0.034746494 0.053726785
0.17403807 -0.038217202 0.057690501
0.21636245 -0.038217202 0.054222211
0.22189529 -0.03449776 0.054637577
0.27780592 -0.039931133 0.050988652
-0.26560593 -0.025653901 0.055925637
0.2739957 -0.026422527 0.050579146
0.31241146 -0.025174439 0.056075826
-0.38217831 0.0029104641 0.056460954
0.41339746 0.0037730963 0.054860305
0.45068872 0.019101841 0.052857947
-0.26480263 -0.042843267 0.06780377
-0.1195154 -0.043134719 0.064160563
-0.0033327341 -0.042962376 0.066314876
0.026363228 -0.042862535 0.067562893
0.065355554 -0.042785995 0.068519682
0.082694359 -0.042801268 0.068328753
0.21060258 -0.043009192 0.065729648
-0.23500852 -0.036079518 0.061557699
-0.22387137 -0.03471059 0.062328354
-0.19229786 -0.038217202 0.069646388
-0.18510008 -0.038217202 0.069523208
-0.12215291 -0.033922873 0.0657482
-0.054593366 -0.035451069 0.065306641
-0.019864567 -0.033684015 0.068619289
0.018501967 -0.038217202 0.064112693
0.036422044 -0.034325425 0.060408413
0.048269648 -0.038217202 0.063905656
0.078480959 -0.038217202 0.065693781
0.11684489 -0.033773802 0.067491964
0.2307376 -0.031242091 0.067520253
0.27138799 -0.038515061 0.068836831
-0.30150661 -0.028094532 0.060233336
-0.2817944 -0.028206585 0.06950561
-0.26587066 -0.025653899 0.066666715
0.33331975 -0.02914338 0.067560852
-0.37097666 -0.014143139 0.064320207
-0.33405018 -0.0165198 0.067366116
0.34665471 -0.011099154 0.065354466
0.45188385 0.019593105 0.060893193
-0.44725269 0.029183201 0.068000764
-0.42731476 0.021134267 0.060334694
0.43469539 0.025090529 0.066940255
0.46333587 0.031337515 0.067878842
-0.26475278 -0.042144939 0.076533087
-0.234622 -0.042227585 0.075499989
-0.21616471 -0.042256594 0.075137347
-0.17693464 -0.042470314 0.072465792
-0.16930489 -0.042240623 0.075336993
-0.098591447 -0.041927684 0.079248831
-0.084402904 -0.042085424 0.077277035
-0.0065053813 -0.042347841 0.073996753
0.023793332 -0.042208776 0.075735115
0.20861962 -0.042632647 0.070436627
0.2670773 -0.042396598 0.073387295
-0.18564087 -0.032948747 0.076515004
-0.15938227 -0.033402026 0.071818851
-0.14312212 -0.032628607 0.079687461
-0.12463693 -0.034717709 0.077380709
-0.10414673 -0.038217202 0.073873252
-0.058965236 -0.038217202 0.077397987
-0.0095674936 -0.038217202 0.071436174
0.073066227 -0.032905463 0.076943912
0.091281116 -0.038217202 0.07970091
0.17392589 -0.038217202 0.072664991
0.19595502 -0.036565054 0.074158035
0.20795499 -0.038217202 0.078426458
-0.27459651 -0.026675809 0.076333918
0.27946064 -0.027678486 0.078953028
-0.33281863 -0.017016996 0.07050778
0.37520647 -0.01192509 0.079472587
0.35924104 -0.0059251864 0.077053219
0.38239545 -0.0089701097 0.07746917
0.40767983 0.0014229255 0.074522838
0.42440176 0.0082964739 0.072258726
-0.4592478 0.025972098 0.073045589
0.44697347 0.030137435 0.076599434
-0.25470209 -0.041384365 0.086040489
-0.23714602 -0.041135937 0.089145936
-0.21040685 -0.041591868 0.083446622
-0.16314398 -0.041592173 0.083442822
-0.10528211 -0.041581087 0.083581403
-0.082591563 -0.041582398 0.083564982
-0.047984637 -0.04147717 0.084880412
0.051281251 -0.041611388 0.083202623
0.068280131 -0.041259855 0.087596938
0.12898751 -0.041215289 0.088153981
0.23119891 -0.041565366 0.083777942
0.28017986 -0.040374275 0.088392824
-0.270872 -0.039440401 0.088582836
-0.21898767 -0.035369564 0.083284684
-0.19858271 -0.032456413 0.081236556
-0.098636806 -0.032267988 0.082893819
-0.0048346668 -0.031745184 0.087396801
0.0057540555 -0.031935904 0.085814506
0.040477678 -0.03180021 0.086961672
0.057060108 -0.031837154 0.086669557
0.14854972 -0.032389075 0.081828833
0.16796258 -0.034972467 0.085197389
0.17563234 -0.034931816 0.08759746
0.18579389 -0.031449616 0.089733869
0.19619243 -0.0324196 0.081560373
0.20116082 -0.038217202 0.08578296
0.21667051 -0.032360684 0.082078502
0.31553781 -0.036452644 0.081377149
-0.28079069 -0.028068844 0.080205835
-0.27061498 -0.025653901 0.086788006
-0.2365801 -0.026972098 0.085351683
0.24811344 -0.025653902 0.083134934
0.28613675 -0.028565185 0.080469169
0.32828426 -0.018650101 0.089652747
-0.44027394 0.013835079 0.080910288
0.4483214 0.020614607 0.087382361
-0.30218244 -0.040522646 0.099853843
-0.24185127 -0.040538222 0.096617512
-0.21227816 -0.040860407 0.092590116
-0.18575239 -0.040848471 0.092739336
-0.17937878 -0.04066018 0.095093042
-0.16062374 -0.040731378 0.094203025
-0.15165974 -0.04094978 0.091472924
-0.093391478 -0.040949933 0.091471002
-0.073353052 -0.040805794 0.09327279
-0.065096475 -0.040604714 0.095786378
0.0038879775 -0.04034378 0.099048167
0.06367068 -0.04056789 0.096246675
0.13839044 -0.040502504 0.097064018
0.27942702 -0.040235549 0.097723976
-0.31584752 -0.036400136 0.096939735
-0.26327249 -0.038217202 0.094017968
-0.20432836 -0.038217202 0.092640132
-0.15047988 -0.030549962 0.096503757
-0.01948572 -0.030994527 0.093310416
0.025549795 -0.038217202 0.09024483
0.082082681 -0.030257981 0.098601073
0.18621269 -0.038217202 0.092523903
0.19791038 -0.038217202 0.097706422
0.26418242 -0.038217202 0.094208591
0.32102537 -0.03419698 0.091265641
-0.31804118 -0.022982866 0.090146333
0.27744803 -0.027282365 0.090025693
0.30136052 -0.028010095 0.090079844
-0.36084104 -0.018234788 0.092969149
-0.33521539 -0.016049385 0.090122491
0.37541714 -0.011838466 0.090836413
-0.42844614 0.0090591805 0.098958082
-0.37685931 0.00076287868 0.091396436
-0.43973002 0.019813899 0.096203759
0.42903501 0.010201043 0.098773554
0.27880475 -0.040120881 0.10296609
-0.27674642 -0.039840128 0.10849682
-0.23822747 -0.033643831 0.10361421
-0.021944972 -0.038962521 0.10530216
-0.0096181296 -0.038217202 0.10054886
0.091996096 -0.038217202 0.10240632
0.12997139 -0.039851937 0.1051963
0.13013718 -0.038217202 0.10255748
0.14128083 -0.038217202 0.10004716
0.19047236 -0.03980663 0.10576265
0.20140298 -0.038217202 0.10333806
0.22243504 -0.039752416 0.10644034
0.2673538 -0.038217202 0.10339081
0.32682407 -0.031813428 0.10848393
-0.20529488 -0.02959333 0.10305522
-0.18429157 -0.029190384 0.10570237
-0.14133579 -0.029094322 0.10631914
-0.08947742 -0.028569639 0.10949852
-0.058965147 -0.028673481 0.10886927
0.13230957 -0.029979344 0.10051928
0.26096407 -0.025653899 0.10605703
0.28357682 -0.028311972 0.10932109
0.3721703 -0.013173321 0.10522431
0.35326171 -0.0083834305 0.10997508
-0.42357141 0.0083344746 0.10807782
-0.42676038 0.020909803 0.10554047
-0.25116509 -0.038755894 0.1188972
-0.24648038 -0.033950523 0.11513929
-0.20214173 -0.038217202 0.11937701
-0.19185996 -0.038217202 0.11964803
-0.16760102 -0.039151736 0.11394905
-0.090518028 -0.038701907 0.11957203
-0.070438378 -0.038217202 0.1137766
-0.0626183 -0.039181955 0.1135713
-0.017750474 -0.038217202 0.11622973
0.014435176 -0.038217202 0.11340076
0.024542361 -0.038800545 0.11456196
0.030144684 -0.038217202 0.11609432
0.23080021 -0.038217202 0.11316346
0.31124499 -0.031058921 0.11039963
-0.34882224 -0.023086807 0.11150145
-0.28748035 -0.028810408 0.11187001
-0.270872 -0.025956079 0.11632898
-0.14488871 -0.027355736 0.11655042
-0.1318135 -0.028049354 0.11265122
-0.12576775 -0.027274018 0.11700977
-0.10797307 -0.027446538 0.11604003
-0.081951573 -0.027568042 0.11535707
-0.050278932 -0.02761161 0.11511218
0.024608336 -0.027319558 0.11675379
0.031087264 -0.028124373 0.11219663
0.13593972 -0.02676424 0.11982479
0.2276157 -0.025653901 0.11730079
0.23749346 -0.025653899 0.11077724
0.34244686 -0.025391681 0.11809113
-0.36082777 -0.018240012 0.1113432
-0.35843536 -0.019205829 0.1155325
-0.37347123 -0.00060494593 0.11324169
-0.3665939 -0.0033814406 0.11489706
0.38817418 -0.0065946262 0.11066505
-0.40831989 0.0017574226 0.11611249
-0.4074412 0.010386476 0.11644818
-0.30461794 -0.040066466 0.1212477
-0.32442313 -0.032937787 0.12048605
-0.31073326 -0.037624002 0.12063391
-0.29457954 -0.030743716 0.125631
-0.26414534 -0.030259077 0.125631
-0.25393662 -0.038630702 0.12046213
-0.24930626 -0.032487348 0.125631
-0.17520057 -0.038540065 0.12159508
-0.15403196 -0.032194667 0.125631
-0.12770483 -0.038217202 0.12392187
-0.030563094 -0.038217202 0.12127376
0.039980389 -0.038243473 0.12530264
0.041557312 -0.03214708 0.125631
0.052351139 -0.038544212 0.12154328
0.090980724 -0.032299224 0.125631
0.13993607 -0.03478945 0.125631
0.19244689 -0.032275431 0.125631
0.21102633 -0.038217202 0.1228985
0.25474703 -0.038217202 0.12095282
0.30923265 -0.030350188 0.125631
-0.35541606 -0.020424696 0.12056933
-0.319296 -0.027135959 0.125631
-0.23151299 -0.028975867 0.12241438
-0.034291096 -0.026681593 0.12025698
-0.011564162 -0.026015704 0.12373906
0.13683595 -0.026216857 0.12268718
0.23907597 -0.025653899 0.12010366
0.27873054 -0.027543928 0.12436646
0.31787819 -0.025472302 0.1255818
-0.36178753 -0.0053218384 0.12162902
0.38307071 -0.0079508312 0.12426179
0.38531387 0.0047929599 0.12244219
