# .PCD v0.7 - Point Cloud Data file format
VERSION 0.7
FIELDS x y z
SIZE 4 4 4
TYPE F F F
COUNT 1 1 1
WIDTH 895
HEIGHT 1
VIEWPOINT 0 0 0 1 0 0 0
POINTS 895
DATA ascii
0.065529004 0.029774196 -0.12069011
0.15687543 0.029946372 -0.1203111
-0.35926837 0.037846282 -0.12608379
-0.33971894 0.032164197 -0.12513843
-0.20627017 0.033903681 -0.12503114
-0.16138382 0.032404922 -0.12502031
-0.11428231 0.033877324 -0.12503035
-0.10281733 0.035004478 -0.12503351
-0.080018088 0.037970167 -0.12504539
0.15169591 0.033344232 -0.12502457
0.16987813 0.031594872 -0.12471348
0.34815198 0.037938863 -0.12566072
-0.36646694 0.04064507 -0.12637186
-0.32924369 0.040000021 -0.1251345
-0.17538051 0.041337762 -0.12162004
-0.14311787 0.042127468 -0.12352316
-0.10891157 0.041122172 -0.12040281
-0.05945307 0.041775733 -0.12507756
0.014417866 0.042046048 -0.12172413
0.05460019 0.043014828 -0.12506732
0.30810317 0.042456232 -0.12010508
0.37080574 0.04988239 -0.12476812
0.35748312 0.05034088 -0.1224196
0.36760816 0.050453424 -0.12554018
-0.32235757 0.024956692 -0.11079121
-0.21492127 0.025798678 -0.11217196
-0.12369518 0.027364291 -0.11573964
-0.082547523 0.028979275 -0.1198511
0.077301055 0.02839702 -0.11677934
0.13520835 0.028711028 -0.11711067
0.23710673 0.02687371 -0.11110692
0.24299876 0.028599564 -0.1158261
-0.32822725 0.039178845 -0.11706026
-0.26520449 0.039062463 -0.11610368
-0.21860719 0.037255269 -0.11054804
-0.20688306 0.037180066 -0.11033422
-0.0097503252 0.039442919 -0.11478052
0.027057618 0.03846328 -0.11172657
0.1003757 0.039243612 -0.11312649
0.18543066 0.039408319 -0.11287507
0.1979557 0.038538069 -0.11038439
0.23930332 0.038759209 -0.11058721
0.26660892 0.039274264 -0.11177427
0.28403765 0.03952818 -0.11229658
0.30775118 0.03904061 -0.11076368
0.34102243 0.034099072 -0.11083184
-0.3574813 0.044982553 -0.11014046
-0.29387376 0.040002935 -0.11903986
-0.21854903 0.040504575 -0.11970261
-0.13362709 0.040568724 -0.11908378
0.12232471 0.040540781 -0.11660471
0.18735908 0.04128705 -0.11803607
0.21441136 0.041332774 -0.11790774
0.22220021 0.04126814 -0.11765808
0.23568542 0.0406904 -0.11589555
0.30771443 0.041195046 -0.11665736
0.38937375 0.049072806 -0.1115838
0.39106646 0.056516618 -0.11586116
-0.39665276 0.060440123 -0.11737897
-0.33570063 0.02498278 -0.10709435
-0.18369 0.024497878 -0.10823089
-0.022447586 0.023969099 -0.10537581
0.12458222 0.024580885 -0.1057974
0.17910592 0.023307983 -0.10103318
0.20418721 0.025268763 -0.10693125
0.33745068 0.02997056 -0.10822732
-0.34869486 0.033242233 -0.10455437
-0.33289173 0.036890343 -0.10643078
-0.31006652 0.036057334 -0.10808423
-0.29539692 0.03384557 -0.10091421
-0.2741456 0.035774019 -0.10698077
-0.25621849 0.034139283 -0.10150612
-0.23443478 0.036505975 -0.10859511
-0.22466777 0.036302332 -0.10793466
-0.18422529 0.035906285 -0.10649839
-0.082818918 0.03573437 -0.10514396
-0.035053268 0.036678225 -0.10731772
0.001710169 0.036729079 -0.1071196
0.068774536 0.037543152 -0.10875686
0.10784027 0.037310127 -0.10784543
0.11751263 0.036630012 -0.10583209
0.16647807 0.037507117 -0.10785294
0.1913918 0.036605794 -0.10512573
0.25806761 0.037165035 -0.10606802
0.28751618 0.037972443 -0.10802881
0.36712873 0.035703782 -0.10432743
-0.40499732 0.047449172 -0.10175005
-0.35185528 0.040387735 -0.10039973
0.34886497 0.043261077 -0.10671212
0.40001953 0.048404701 -0.10568529
-0.39145494 0.056872003 -0.10936887
0.39638549 0.059745368 -0.10271205
0.39965817 0.061184488 -0.10357301
0.1080354 0.019867508 -0.090092212
-0.28660613 0.021203283 -0.098653406
-0.20696361 0.020831551 -0.096574858
-0.17593057 0.021322515 -0.097923033
0.10278808 0.021711988 -0.096400067
0.19455054 0.020531949 -0.091462553
0.24832247 0.022588531 -0.097887471
-0.35109586 0.030519394 -0.093146876
-0.28891718 0.031719938 -0.093417853
-0.23099716 0.032166954 -0.094403058
-0.20021649 0.032383937 -0.094854303
-0.17128333 0.032936368 -0.096432209
-0.1659351 0.032086015 -0.09346056
-0.076705836 0.031958468 -0.092109814
-0.035095312 0.033008467 -0.095263489
-0.0084973276 0.031685345 -0.090460077
0.053610586 0.031952888 -0.090754762
0.1224772 0.034128182 -0.09740977
0.1876653 0.033917602 -0.096012823
0.31838715 0.033809211 -0.094275877
0.34425786 0.032773502 -0.099093422
0.36542442 0.032501694 -0.092982903
-0.37833434 0.049480345 -0.09676069
0.38642013 0.040275738 -0.091055743
-0.37917945 0.050094899 -0.098334432
0.38588822 0.054406695 -0.096181437
0.40016472 0.058399979 -0.093817659
0.41850621 0.055887047 -0.093225658
-0.22930518 0.018699516 -0.089342184
-0.21047303 0.017523015 -0.085021868
-0.18448099 0.01905426 -0.084502488
-0.15967916 0.018543117 -0.088107139
-0.11231925 0.01842542 -0.084517241
-0.095987394 0.018350149 -0.086735517
0.015859492 0.017281434 -0.081131615
0.049741603 0.018816825 -0.087007701
0.084674567 0.018023254 -0.083661087
0.093625769 0.019454777 -0.084559143
0.12357432 0.018695593 -0.085854851
0.23356386 0.01827082 -0.082869731
-0.32476819 0.026158128 -0.083954185
-0.27088588 0.025513187 -0.084552929
-0.25309965 0.027321799 -0.084570177
-0.22457373 0.029232275 -0.083847314
-0.21641606 0.028505702 -0.080385871
-0.1725906 0.024727575 -0.084545746
-0.10603839 0.020962896 -0.084518343
-0.08272624 0.025517222 -0.08455351
-0.051003702 0.029839078 -0.084594682
-0.037765831 0.020204585 -0.084532306
0.070615977 0.028628003 -0.084583521
0.21483806 0.029263256 -0.084589973
0.34682041 0.022736276 -0.081312299
0.35675302 0.027752876 -0.086332828
0.36289227 0.029170506 -0.082525656
-0.39102882 0.038042862 -0.082670979
-0.37200189 0.031299464 -0.084930927
-0.34747493 0.033168867 -0.086666033
-0.18682754 0.030593026 -0.088424876
0.17563146 0.031112406 -0.086584225
0.18227206 0.030570036 -0.084610954
0.2535789 0.03128374 -0.086390898
0.26177168 0.030916024 -0.084627852
0.31358925 0.032238416 -0.088999577
0.38631919 0.038911223 -0.08574421
-0.39935932 0.041731033 -0.084480107
-0.37831292 0.046879135 -0.084544748
0.4103485 0.048312806 -0.085303709
0.41379046 0.050057452 -0.087233417
0.44421902 0.068216637 -0.081648163
-0.44209197 0.071441293 -0.082797371
-0.32369831 0.014894824 -0.074528441
-0.27442712 0.014886996 -0.07385239
-0.14207602 0.016333211 -0.078807175
-0.13032895 0.015084218 -0.07289093
-0.055863146 0.01669639 -0.079363376
0.0081239194 0.016927674 -0.079599604
0.020918503 0.015390604 -0.07244806
0.052906305 0.015087414 -0.070757151
0.0761443 0.016239576 -0.075583808
0.22150837 0.016792599 -0.076418415
0.29312998 0.015600833 -0.070369452
0.34177157 0.018309938 -0.071297266
-0.37553975 0.029774318 -0.070901766
-0.31513637 0.026964707 -0.074586466
-0.30607167 0.027844016 -0.078523867
-0.26997021 0.027449261 -0.07622233
-0.21570039 0.028146647 -0.078719378
-0.18323137 0.028135901 -0.078238256
-0.15328583 0.027022868 -0.072703794
-0.12938052 0.026881004 -0.071731389
-0.035756305 0.027874582 -0.075072281
0.075697482 0.028513234 -0.07653977
0.1021729 0.028023142 -0.074077263
0.13599655 0.027562145 -0.071659885
0.17576113 0.027610851 -0.071424253
0.22801416 0.02843817 -0.074482754
0.24561545 0.028583733 -0.074925616
-0.3904714 0.036699414 -0.076017313
0.33635896 0.031216213 -0.077991217
0.38553494 0.036602587 -0.076226816
-0.44722378 0.061049502 -0.076915465
-0.26450229 0.014691611 -0.063663304
-0.22286943 0.014052161 -0.063667379
-0.16134481 0.012943219 -0.063659497
-0.089304149 0.016530119 -0.063723244
-0.014652016 0.013324081 -0.063723475
0.0052487031 0.012977458 -0.061255272
0.090928584 0.01403758 -0.065705441
0.11558246 0.013320693 -0.061661124
0.15591046 0.014640167 -0.067646399
0.18223886 0.014113409 -0.06503161
0.22855628 0.019237043 -0.063794464
0.25539219 0.015030973 -0.064234033
0.28009683 0.015345552 -0.063799389
0.31539398 0.013772439 -0.061337437
0.32727838 0.019443329 -0.06380409
0.33540028 0.016287023 -0.066868976
-0.37685955 0.029675329 -0.067118138
-0.28747231 0.025343727 -0.06673824
-0.20915252 0.024045546 -0.063751936
-0.16300824 0.023936313 -0.063262925
-0.049752694 0.021543266 -0.063767403
-0.029297635 0.025473068 -0.064314686
-0.00062922016 0.020372588 -0.063772157
0.059562758 0.024973672 -0.060002059
0.12710735 0.024706542 -0.063784719
0.14576739 0.026031163 -0.064793728
0.15705076 0.020564174 -0.063787535
0.22767711 0.026756018 -0.067064084
0.24058442 0.021555874 -0.063795693
0.28237337 0.02608816 -0.06311965
0.34681404 0.029571045 -0.068505339
0.35573667 0.023137933 -0.068689577
-0.36993146 0.038686905 -0.063589148
0.3577345 0.037102319 -0.067391306
0.37577236 0.031044148 -0.067306004
-0.40621307 0.042232499 -0.067338496
-0.38557518 0.045971394 -0.06076055
0.39919928 0.041027166 -0.067367256
-0.42638701 0.050466727 -0.064158067
0.43674609 0.057041649 -0.066661231
0.44759294 0.061683878 -0.065264121
0.45501226 0.078133374 -0.061009645
-0.35479587 0.019264642 -0.058499526
-0.3359409 0.011287123 -0.055601805
-0.30414158 0.011257384 -0.054935958
-0.28577286 0.01137322 -0.053469181
-0.26250267 0.011298019 -0.054591551
-0.22758961 0.010715223 -0.050213914
-0.20947058 0.011078622 -0.052355595
-0.1941983 0.011573941 -0.055407107
-0.1438704 0.011288105 -0.051332079
-0.12344492 0.011803357 -0.055891417
-0.048788849 0.012279126 -0.057751413
-0.031218231 0.011149671 -0.050199091
0.024839774 0.011443312 -0.050994076
0.035680328 0.012108284 -0.055359256
0.067825809 0.011817532 -0.053041793
0.10142319 0.01177163 -0.052227773
0.32901829 0.01284081 -0.055316191
0.34168971 0.014806129 -0.053975351
-0.27567565 0.023170169 -0.053644177
-0.21949333 0.022982193 -0.0515524
-0.16464125 0.023870885 -0.056617536
-0.14759201 0.023082133 -0.051132511
-0.08975853 0.023792129 -0.054968245
-0.059682056 0.02422292 -0.057236634
-0.040656745 0.023737241 -0.053865254
0.0025763214 0.024457578 -0.057700202
0.04623127 0.023614593 -0.051744305
0.075886481 0.023915773 -0.053143129
0.094058722 0.023741268 -0.051769078
0.15610848 0.02496662 -0.058409415
0.18868029 0.024188746 -0.053039663
0.21104328 0.024805963 -0.056527078
0.25510818 0.025066013 -0.057440702
0.26539102 0.024674028 -0.054833133
0.28294241 0.024280056 -0.05209659
0.36458579 0.024801049 -0.057301503
-0.39397687 0.035487711 -0.054652087
0.38391203 0.035119273 -0.054378625
-0.41947177 0.046729647 -0.05504787
0.38261685 0.045593724 -0.054657348
0.44147319 0.057976298 -0.052683599
-0.42907405 0.064375378 -0.053711068
0.42250016 0.063270479 -0.055218443
0.46082643 0.067155354 -0.058470786
0.45307249 0.076442398 -0.050515153
-0.30954647 0.009302848 -0.041627169
-0.2183996 0.0095627885 -0.042334173
-0.32003313 0.011434836 -0.042714112
-0.3157782 0.010475675 -0.042722277
-0.2561363 0.015625665 -0.04268121
-0.23249131 0.018974662 -0.042662084
-0.22146399 0.015024636 -0.042690855
-0.21249653 0.01048215 -0.045087744
-0.20291987 0.013715534 -0.042702768
-0.1979479 0.018659327 -0.042669754
-0.18514329 0.015943265 -0.042690374
-0.16087779 0.010595386 -0.045549199
-0.15247415 0.01107756 -0.049608458
-0.11274469 0.010291904 -0.045715164
-0.056547031 0.011210569 -0.049800821
-0.037720762 0.012032924 -0.042985201
-0.025868595 0.010406847 -0.045196488
-0.014814842 0.010651192 -0.04665317
0.016138591 0.011079322 -0.049034737
0.048826024 0.010916281 -0.047472227
0.088780455 0.010578835 -0.042933602
0.10589913 0.015941728 -0.0427256
0.14359328 0.010812478 -0.044397861
0.15563881 0.011177219 -0.047627397
0.18644471 0.010954774 -0.045195837
0.27627534 0.011758005 -0.049395435
0.30089179 0.013173078 -0.042725597
0.32009104 0.014114911 -0.0427256
-0.2631681 0.022126313 -0.046536487
-0.24682648 0.021589052 -0.042729158
-0.13678676 0.021610618 -0.040140323
-0.10880546 0.020814935 -0.042669255
-0.066174865 0.021777112 -0.040203761
-0.058628663 0.022106601 -0.043326803
0.081413575 0.023040015 -0.047405992
0.13099733 0.023153512 -0.047411904
0.14314899 0.023250278 -0.047870435
0.17774051 0.023513535 -0.049007647
0.19098029 0.022513853 -0.041943662
0.26093736 0.022613658 -0.041252699
0.33428949 0.021879297 -0.042709928
-0.37103039 0.03549822 -0.042300284
0.36257815 0.033097629 -0.045639563
0.3914426 0.042102154 -0.040177241
-0.40185285 0.051997337 -0.048973788
0.39747816 0.051646769 -0.048427396
0.46351153 0.074454747 -0.048900284
-0.17800538 0.0093292119 -0.038179025
-0.13296744 0.0095381709 -0.039559938
-0.0074229687 0.0093514379 -0.033532687
0.033822924 0.0094844913 -0.034050655
0.08144106 0.0093352292 -0.031030893
0.17406638 0.0095908828 -0.031940106
0.22321393 0.0097882366 -0.033130713
0.29667479 0.0098322695 -0.032030057
-0.34515825 0.025888762 -0.035992391
-0.26407516 0.021197211 -0.038715284
-0.18327859 0.020917777 -0.033350203
-0.16929173 0.021515418 -0.039896395
-0.048158884 0.021758577 -0.03951396
0.17493145 0.021708932 -0.033498012
0.18843311 0.021814968 -0.034326244
0.26432121 0.021681067 -0.031353641
0.33304232 0.022617217 -0.039712422
0.37085599 0.024731793 -0.031393178
-0.4169853 0.044276603 -0.036318883
0.39738458 0.047939345 -0.039873421
0.40971738 0.04237926 -0.034958962
0.43048364 0.051941246 -0.038095199
-0.42530477 0.061522014 -0.037088379
-0.45826083 0.07259459 -0.035490304
-0.44797158 0.071314462 -0.034016203
-0.33794224 0.008662995 -0.023223203
-0.30193797 0.0082649477 -0.028079757
-0.29757833 0.008139234 -0.026337
-0.19686931 0.0084978528 -0.028035674
-0.081179678 0.008474865 -0.02471148
-0.032644168 0.0085426709 -0.024428606
0.079774007 0.0087542785 -0.024399575
0.097492158 0.0087502636 -0.023966134
0.13110696 0.0091440994 -0.02775141
0.25967571 0.0087221451 -0.020097686
0.31816798 0.0092985323 -0.025434293
-0.34180766 0.010228014 -0.028172949
-0.32063037 0.019900484 -0.025203107
-0.21205287 0.019821679 -0.021797428
-0.16559418 0.019883851 -0.021484045
0.34679583 0.013730663 -0.028483389
-0.34788051 0.025980953 -0.023277685
-0.26183695 0.020343751 -0.028780889
-0.21927367 0.020333592 -0.027540362
-0.1722908 0.020026425 -0.023112863
-0.075349048 0.020481844 -0.025862627
0.05682227 0.020890739 -0.027395831
0.096904486 0.020786824 -0.025478896
0.10234366 0.020586519 -0.022868399
0.16259389 0.021070197 -0.027078532
0.19647798 0.021018011 -0.025830714
0.27220377 0.021447323 -0.028747451
0.35150656 0.023751505 -0.023302866
0.36170664 0.022685139 -0.024310451
0.37140432 0.029618656 -0.025484815
-0.39900166 0.03539275 -0.022894725
0.39031041 0.038201332 -0.027639931
-0.4300873 0.049461871 -0.02127393
-0.39286739 0.044085767 -0.024833554
0.42326474 0.047922794 -0.028250314
-0.44165504 0.05470822 -0.021320522
-0.42803249 0.062082846 -0.022659179
-0.46577275 0.079259068 -0.026380545
0.44564259 0.071605094 -0.028321877
-0.30948299 0.007282977 -0.01057035
-0.20285657 0.0076284911 -0.016763709
-0.14586779 0.0079174414 -0.019727986
0.047702953 0.0080410875 -0.013660366
0.10841492 0.0081277909 -0.012321568
0.14646024 0.0082305064 -0.013621999
0.17992459 0.0083476305 -0.015949795
0.24561335 0.0085915448 -0.018906172
0.30414277 0.0084387902 -0.011664943
0.32441252 0.0084586274 -0.011218913
-0.34455651 0.013013341 -0.019034445
-0.31965414 0.019329885 -0.010936654
-0.30047423 0.019454209 -0.014740308
-0.18382251 0.019616926 -0.01163881
-0.1150569 0.019858997 -0.01627191
-0.096132778 0.019791018 -0.011596328
-0.37384218 0.023899671 -0.0178636
-0.3422415 0.022989225 -0.013324934
-0.014810383 0.020067982 -0.016663793
0.024677308 0.020050185 -0.012391907
0.038299017 0.020149214 -0.015567807
0.071762733 0.020183627 -0.014481319
0.098457336 0.020250466 -0.01473485
0.10783064 0.020305458 -0.016338803
0.18027538 0.020416589 -0.015339274
0.19044855 0.020549549 -0.019838542
0.20762327 0.020585474 -0.019910993
0.33410767 0.020736612 -0.012948703
0.3744736 0.025290469 -0.010805479
0.36187112 0.033192907 -0.013575131
0.38164675 0.042065978 -0.010114763
0.39855891 0.049879331 -0.014142547
0.42613339 0.048936084 -0.017334854
0.41743401 0.05851708 -0.0171027
0.46469814 0.06627842 -0.011774739
-0.45824981 0.075738773 -0.019868782
-0.33658355 0.0071003512 -0.0048039886
-0.14347935 0.0075371657 -0.0076666493
-0.11980242 0.0074047213 -0.0015184617
-0.071597204 0.0077082394 -0.0091068186
-0.051635548 0.0077331336 -0.0085068624
-0.032681197 0.007588095 -0.0026873446
0.20579046 0.0099799186 -6.093187e-05
0.24337068 0.009066727 -7.3862844e-05
0.33788341 0.0085529033 -0.0082460465
-0.27929628 0.019248992 -0.003798547
-0.18553229 0.019338667 -0.0010171062
-0.11514152 0.019642893 -0.006813365
-0.10510871 0.017861744 -1.33376e-05
-0.063328281 0.019754112 -0.0075398399
-0.034770966 0.019685199 -0.0038509164
-0.014925316 0.019778552 -0.0057231374
0.013042048 0.01985823 -0.0067322464
0.030111492 0.014464834 -2.8663526e-06
0.35652015 0.016875239 -0.0038713363
-0.33953053 0.021608159 -0.0076028728
0.075876877 0.020043084 -0.0091829393
0.14190811 0.020118268 -0.0080187237
0.32320619 0.020268949 -0.0030711805
-0.45000079 0.05820819 -0.0043065138
-0.44414648 0.055560213 -0.0047108708
-0.43200731 0.050461981 -0.0069626002
0.43856019 0.054429714 -0.000106407
0.44168204 0.058050573 -0.0052973293
0.42292964 0.060643397 -0.0044113332
0.44491324 0.066330001 -0.00079066708
-0.47041252 0.073831692 -0.00084168196
-0.33250239 0.0089652427 0.00010791486
-0.27701515 0.0073991343 0.0081060249
-0.24645746 0.0073665567 0.0062551727
-0.11692528 0.0073611066 9.6858523e-05
-0.10264716 0.0074283895 0.0014495217
0.0084005035 0.0076689483 0.0030770097
0.14013396 0.007951675 0.0049245497
0.20184588 0.0080518015 0.0047735218
0.23499079 0.0080620591 0.0033236127
-0.28733274 0.010311315 8.7832173e-05
-0.18595588 0.015515397 2.2009359e-05
-0.16743281 0.019571353 0.0056890277
-0.14949468 0.019447127 0.0019063032
-0.038517609 0.01182439 2.3511784e-05
0.11490858 0.019829843 0.0001925557
-0.37376678 0.023896107 0.0099911662
-0.36336935 0.024053924 2.1684536e-06
0.15131927 0.020194175 0.0080752838
0.1667503 0.020144636 0.0058330344
0.17608841 0.020007558 0.0019726043
0.20097455 0.020163201 0.004889688
0.29880887 0.020379893 0.0073264623
0.31957132 0.020352624 0.0055452404
0.35104188 0.028095022 0.0085619409
0.36731997 0.021795418 0.0038612175
0.37515321 0.025438808 0.0060996609
0.39165449 0.046330806 0.0018329087
0.40559262 0.050750472 0.0087046353
0.42996186 0.053522307 0.0057843206
0.45299509 0.060724102 0.0025155179
-0.44981477 0.070047647 0.0032725192
-0.26868322 0.0076843868 0.01478624
-0.25230062 0.0076432354 0.013215382
-0.088382579 0.0079144696 0.014181323
-0.01564838 0.0081329457 0.017006779
0.09915556 0.0083419196 0.018147608
0.1655252 0.008377593 0.016727494
0.26863793 0.0085784514 0.017773451
-0.33021724 0.019567311 0.012397527
-0.2998023 0.019832067 0.017588908
-0.24710616 0.019946931 0.018189337
-0.20789756 0.019690609 0.010292394
0.35508826 0.016628629 0.015024944
-0.0097086728 0.020305522 0.018748194
0.088916168 0.020353124 0.015844548
0.30637577 0.020647924 0.015398556
0.37158376 0.024449499 0.013479068
-0.39757746 0.034850907 0.012019322
-0.37838769 0.03350481 0.014699193
0.36669177 0.035529561 0.018675845
-0.41711318 0.043710083 0.012991562
0.40943065 0.041218303 0.012267803
-0.42298502 0.059910353 0.01303957
0.44532204 0.057547752 0.013953166
-0.47156572 0.076304346 0.017111376
0.45784059 0.076755628 0.013752697
-0.33605078 0.0078628287 0.021482088
-0.15968707 0.0086939204 0.027481202
-0.14108855 0.0085369796 0.025607007
-0.11572094 0.0084725022 0.024553394
-0.062535882 0.0082548689 0.021482825
-0.014027178 0.0088648787 0.027130637
0.013926283 0.008313708 0.020405512
0.034601532 0.0088579711 0.026330246
0.17150317 0.0090756062 0.026554316
0.20183839 0.0090167169 0.025484707
0.23587789 0.0091968328 0.026857059
-0.28837892 0.02021306 0.023585016
-0.27388865 0.020010201 0.021129321
-0.14345616 0.020470567 0.023865029
-0.10728419 0.020709317 0.025899567
-0.076562837 0.021057216 0.029294448
-0.0039508939 0.020521637 0.021721996
0.22152205 0.020977728 0.022549026
0.2330891 0.021424433 0.027453553
0.28319278 0.021012221 0.021738527
0.36035576 0.028568156 0.021436118
-0.3891744 0.031364106 0.02190442
-0.37539858 0.03540412 0.027912799
-0.42192215 0.046177872 0.020963673
-0.41015363 0.044357322 0.029619617
-0.38459212 0.043348648 0.029902501
0.38827941 0.045704931 0.027525632
0.41275299 0.043013223 0.02316444
-0.41582483 0.057047483 0.023669444
0.40850413 0.054655761 0.024556495
0.41762561 0.058915198 0.029528862
-0.44711018 0.071333855 0.026494741
-0.25892344 0.0097715352 0.03884276
-0.078886136 0.0098354816 0.03748323
-0.049641654 0.009141067 0.03054145
-0.0019984543 0.0092292847 0.030758318
0.11366476 0.0095128547 0.031989414
0.30095071 0.0096808933 0.030940745
-0.34702492 0.013254927 0.030918423
-0.0045745745 0.010084448 0.039044522
0.078011602 0.01003771 0.03769546
-0.17377219 0.021286238 0.032575753
-0.12275414 0.022062583 0.039426867
-0.088983953 0.021820739 0.036752023
-0.022538833 0.021947101 0.037234217
0.044336654 0.021765839 0.034776941
0.11505026 0.022304034 0.039141633
0.1204356 0.021514278 0.030689763
0.13613796 0.021936018 0.035226617
0.14647557 0.02150064 0.030023582
0.22699487 0.021745445 0.031259969
0.25271001 0.021847323 0.031926975
0.26959485 0.021830596 0.031404499
-0.41604212 0.044519443 0.035983928
-0.40769696 0.054425005 0.036821812
0.43419981 0.053258028 0.034430422
-0.4454723 0.064447135 0.033614673
0.43349785 0.063813299 0.038026091
0.45492303 0.064910054 0.035720244
-0.34342349 0.01733939 0.047020905
-0.33585551 0.013604812 0.041905776
-0.30033699 0.013857426 0.042672101
-0.28509623 0.010455954 0.042699371
-0.27207917 0.012955984 0.042672165
-0.26836395 0.010554889 0.045066431
-0.25846675 0.011325689 0.049602948
-0.23915169 0.012243924 0.042669076
-0.22513694 0.010998167 0.047501329
-0.20366207 0.010664413 0.045341466
-0.17680749 0.01039881 0.043490887
-0.16440473 0.016262036 0.042609423
-0.14828694 0.011455378 0.049798831
-0.13478322 0.010900381 0.046312615
-0.10177796 0.010536888 0.043807168
-0.08645685 0.010954509 0.046299342
0.044125021 0.015048984 0.042559069
0.058419712 0.01521145 0.042560011
0.075247675 0.011305709 0.042584836
0.084690414 0.014882447 0.042548623
0.14769199 0.010820866 0.043767106
0.19666022 0.011672754 0.048722245
0.23420456 0.016454268 0.042525832
0.31327885 0.012166511 0.042515021
-0.33958384 0.024487738 0.042321462
-0.32545304 0.022366807 0.043715782
-0.31023857 0.02328044 0.049117617
-0.29614359 0.023064733 0.047775708
-0.27992389 0.022723662 0.04568442
-0.23525555 0.02258525 0.044582434
-0.21304297 0.023238881 0.048383508
-0.14918908 0.022439843 0.0430592
-0.11711739 0.022907548 0.045745902
0.026744971 0.022400372 0.041022021
0.15370515 0.022503164 0.040620584
0.18377244 0.022546083 0.040702745
0.20107302 0.023319613 0.046036094
0.33224082 0.024066204 0.049751978
-0.37315288 0.033044584 0.040831808
-0.35665345 0.031460054 0.047801834
0.37216908 0.036784712 0.040801376
0.4064638 0.055155806 0.042259555
0.41263124 0.057760246 0.040644407
0.44663888 0.073291421 0.046511143
-0.33683717 0.01147594 0.0500223
-0.18866107 0.012156355 0.054137159
-0.012952074 0.012036265 0.05250936
0.025997728 0.011731454 0.050326604
0.11912647 0.01275249 0.0560157
0.1778678 0.012495389 0.053986728
0.24196632 0.013302789 0.058554735
0.28281391 0.012064133 0.050536819
0.33040339 0.012565565 0.053317297
0.35179913 0.018949375 0.053933628
-0.36123246 0.023838338 0.056934372
-0.073933139 0.023702888 0.050396014
0.058825687 0.024157133 0.05227752
0.060483802 0.024843812 0.056463156
0.093549676 0.024365103 0.053325616
0.13962634 0.024294937 0.052558035
0.21863842 0.025428122 0.059058178
0.33517098 0.026383761 0.058533832
-0.39597559 0.037853424 0.058513161
-0.38102412 0.030979117 0.055464983
-0.37880823 0.031669334 0.052389242
0.35493869 0.0333132 0.051558308
0.36903 0.036288355 0.050523449
0.37216547 0.040650696 0.050972953
-0.41075313 0.057348192 0.053771496
-0.4094778 0.052430362 0.0596794
0.44169933 0.058463916 0.057363745
-0.42037272 0.061846476 0.056425326
0.42915097 0.065829344 0.050117441
-0.45271114 0.075982042 0.054253515
-0.32949811 0.015029838 0.069544941
-0.30449751 0.013563138 0.06302318
-0.18487407 0.014937267 0.063725889
-0.11564258 0.013227805 0.060073469
-0.10367928 0.014824057 0.067985237
-0.011621073 0.016611131 0.063680895
0.012663953 0.015176567 0.06908448
0.038143683 0.014150966 0.064456038
0.041579977 0.017565966 0.063667037
0.16322231 0.014385038 0.064998031
0.18264189 0.014467807 0.065287158
0.34661955 0.019993952 0.067425013
-0.34212011 0.021648899 0.066332772
-0.33286133 0.024894316 0.065391347
-0.32883304 0.0202167 0.063702092
-0.30810085 0.023089139 0.063673057
-0.2780481 0.026479773 0.066706359
-0.25770989 0.025413992 0.06142436
-0.22468513 0.02664789 0.067291848
-0.10740333 0.024306914 0.063645296
-0.09239006 0.023579709 0.06365101
-0.074832119 0.026400374 0.065581098
-0.035811029 0.025873506 0.063014954
0.026638724 0.026010409 0.063447565
0.051491693 0.021299656 0.063661151
0.079439625 0.026819177 0.066905655
0.1378952 0.027038274 0.067651272
0.1630507 0.027520053 0.069683015
0.18917504 0.025639886 0.060505975
0.21309723 0.025613472 0.063607037
0.22158946 0.025478631 0.063607641
0.24466532 0.025807917 0.061216716
0.27114594 0.027523633 0.069288701
0.29077601 0.026244963 0.063559748
-0.39463818 0.03758369 0.060554478
-0.38041312 0.037019625 0.068397507
-0.36816689 0.039542902 0.062469944
0.34531039 0.031317666 0.067252085
0.39266589 0.037793331 0.064070918
0.38062164 0.041508578 0.068986177
-0.44981733 0.061769005 0.060741499
0.4480792 0.061526038 0.060338415
0.44785804 0.073078141 0.067480378
-0.3352311 0.016080251 0.072603889
-0.32362247 0.016703255 0.076618776
-0.29217657 0.016789362 0.076904252
-0.21385545 0.015560407 0.07150089
-0.16169989 0.015628088 0.071656078
0.016760122 0.01649785 0.074826077
0.18509389 0.016821109 0.075667977
0.33490202 0.018148527 0.074472159
-0.35323805 0.026348328 0.070187412
-0.33450735 0.028422959 0.070964634
-0.29279289 0.028893726 0.076967798
-0.252451 0.027842719 0.072419532
-0.21385638 0.027879586 0.072484061
-0.052316982 0.02777053 0.071606055
-0.042604618 0.029588636 0.079317622
-0.02124992 0.027855832 0.071864814
0.082378067 0.027915791 0.071736388
0.096037097 0.029023685 0.076519161
0.16877201 0.028762167 0.075145602
0.17460154 0.028775573 0.075182676
0.33127123 0.029022526 0.076626413
0.34779233 0.020375365 0.070157237
-0.39032659 0.038179815 0.073603585
-0.35425979 0.036204994 0.072191648
0.3820855 0.034898985 0.074327067
-0.39159429 0.049663119 0.075710543
-0.37379229 0.040628843 0.077732265
-0.43406546 0.056861587 0.076303482
0.42676806 0.067883223 0.078430898
0.44734511 0.067484654 0.078272238
-0.45201218 0.070142359 0.072024867
-0.44712049 0.07183969 0.076799065
-0.27130732 0.018600902 0.084330693
-0.21983342 0.019155867 0.086299613
-0.18889768 0.018535882 0.084042154
-0.17213927 0.018120542 0.082240522
-0.084393382 0.01991869 0.088609561
-0.058551587 0.019002371 0.085446864
-0.044778965 0.019047599 0.085572012
0.17234883 0.018514713 0.083041675
0.18830132 0.018006416 0.080848299
-0.3411181 0.026262736 0.085500762
-0.33370453 0.024760444 0.085317925
-0.3136729 0.02823538 0.084430367
-0.29864645 0.020024778 0.089274898
-0.28250265 0.023616813 0.084473394
-0.24415192 0.029711001 0.080314592
-0.17809395 0.020245681 0.084491961
-0.10463478 0.028260309 0.084426939
-0.015825912 0.021625405 0.084461026
0.0069944263 0.029311553 0.084415331
0.037499167 0.021878431 0.084450871
0.045083743 0.023815943 0.084441364
0.19263683 0.029922508 0.08017344
0.21092412 0.028421871 0.084417552
0.23770893 0.028648119 0.084412448
0.24655138 0.029387295 0.084410734
-0.38284543 0.0365927 0.082974322
-0.36873394 0.03046767 0.080141939
-0.35693684 0.038268939 0.087715149
-0.33525121 0.032997575 0.089334406
-0.32280713 0.032284621 0.08983396
-0.22480786 0.03183325 0.088236541
-0.20751619 0.032032091 0.088868715
-0.15594223 0.030095479 0.081733927
-0.12711734 0.032023795 0.088746384
-0.10643534 0.030751934 0.084172368
-0.085168257 0.031356327 0.086408257
-0.046258964 0.031027911 0.085220084
-0.026542746 0.030102849 0.081457883
0.051566243 0.031066153 0.085163414
0.21443793 0.030718006 0.083491713
0.27124235 0.030354019 0.081785336
0.30477417 0.030875694 0.084396049
0.341506 0.030023225 0.085579641
0.36429965 0.033466659 0.08845184
-0.38856953 0.04663264 0.082837477
0.38329035 0.048279468 0.081316754
-0.40102929 0.053895652 0.081062913
0.39712194 0.054445513 0.086951509
-0.42475775 0.067674957 0.085278071
-0.4121961 0.06221563 0.084835358
0.4426797 0.063336097 0.083381772
-0.35771802 0.028896511 0.091069609
-0.26907617 0.020399047 0.090464056
-0.23692754 0.020404734 0.090439618
-0.15355703 0.022923306 0.098596752
-0.06970448 0.021846242 0.094948165
0.0071090423 0.020444751 0.090206452
0.14339218 0.021415358 0.093195401
0.23782441 0.020570001 0.090156771
0.33333373 0.021040577 0.091557145
-0.33284941 0.035211835 0.096983008
-0.2441711 0.03323321 0.092854336
-0.14474329 0.033413518 0.093328506
-0.075256966 0.033880003 0.094777361
0.0018647932 0.032717451 0.090859577
0.057628028 0.034059256 0.095208481
0.13540021 0.032625675 0.090293825
0.16341189 0.034822769 0.097589299
0.21862113 0.034432031 0.096241519
0.25431228 0.035356514 0.09925475
0.34345996 0.03721901 0.096020252
-0.38912928 0.041776869 0.091734298
0.37506759 0.049499258 0.092351757
0.39077848 0.042645857 0.091956556
0.40383255 0.048335869 0.097374812
-0.41748109 0.053562835 0.093902208
-0.40320426 0.059620056 0.093870848
-0.38595432 0.053570434 0.092683136
0.39678806 0.05619286 0.093124002
0.41155419 0.05104902 0.095846936
-0.42582664 0.065740325 0.096096136
-0.4156633 0.064511031 0.090166412
0.41304126 0.064384662 0.093461432
0.43203452 0.060168184 0.096912526
-0.31478211 0.025781352 0.10757832
-0.30495825 0.024485707 0.10392889
-0.041623697 0.025090698 0.10552783
0.025895461 0.025302548 0.10604937
0.034303516 0.024735026 0.10440069
0.050713494 0.024068881 0.10212419
0.092675298 0.025253877 0.10585915
0.11316252 0.025997613 0.1078729
0.1429673 0.025479259 0.10643245
0.21353346 0.023968063 0.10161361
0.24858999 0.024813566 0.10444517
-0.34635216 0.03302411 0.10145356
-0.33311975 0.038531993 0.10683545
-0.32870349 0.03724844 0.10587869
-0.29729339 0.036087397 0.10228507
-0.2120496 0.03558398 0.10053193
-0.2076804 0.038164131 0.10833028
-0.15245156 0.037197322 0.10554677
0.079919413 0.03619016 0.10223332
0.20379275 0.038803123 0.10979496
0.21686465 0.036067292 0.10169772
0.22991663 0.036022782 0.10153534
0.3332527 0.038353518 0.10397778
-0.38730097 0.043549057 0.1065788
-0.36847061 0.048925493 0.10307711
0.35975569 0.045436874 0.10092253
-0.42373723 0.05792591 0.10218174
-0.40792829 0.051350176 0.1054149
0.41906652 0.059514161 0.10492213
-0.4067533 0.064666659 0.10752274
-0.31390449 0.026994411 0.11080232
-0.26657367 0.029677991 0.11792435
-0.2051782 0.029297275 0.11686557
-0.19591123 0.026979232 0.1106962
-0.1710586 0.027419349 0.11185239
-0.16985692 0.027671805 0.11252306
-0.1120408 0.029938335 0.11857894
0.23669198 0.029194804 0.11645904
0.26527864 0.027799018 0.11263341
-0.27598104 0.039823208 0.11273419
-0.24755453 0.039906681 0.11296123
-0.014268704 0.030463513 0.11997442
0.14656729 0.03043176 0.11985405
0.33007282 0.036169853 0.11399788
0.34233284 0.030537102 0.11311902
-0.33244842 0.043117173 0.11870197
-0.29106072 0.041327063 0.11673008
-0.21879101 0.042377695 0.11953656
-0.1825408 0.041134737 0.11623818
-0.15848242 0.042517498 0.11991911
0.045796644 0.041134194 0.11627771
0.065431789 0.041845161 0.11817163
0.12121134 0.040640377 0.11487649
0.14935219 0.040395144 0.11418627
0.26324868 0.040943913 0.11560879
0.30070558 0.041146263 0.11613645
0.39609885 0.048796497 0.11424862
-0.39809835 0.053003833 0.11553667
0.37392503 0.054681778 0.11631127
0.395652 0.057884719 0.11771172
0.40437874 0.054135945 0.11273108
0.40627843 0.06280601 0.11195312
-0.33718944 0.032269496 0.12089695
-0.26797625 0.034846347 0.12471049
-0.23259425 0.036994666 0.12471668
-0.22076201 0.031703811 0.12331846
-0.19254205 0.030647144 0.12050453
-0.18976092 0.034355763 0.12472418
-0.12345511 0.031937402 0.12393116
-0.06698966 0.030556872 0.12024082
-0.04715319 0.030673303 0.12055466
-0.01516369 0.031103916 0.12169558
0.051627733 0.033105191 0.12258214
0.31052822 0.030651571 0.12042126
-0.11009496 0.043320403 0.12206262
-0.099438988 0.043746289 0.12319693
0.045220986 0.043090984 0.1214805
0.05176644 0.043608125 0.12285669
0.065093234 0.042840134 0.12081709
0.082882017 0.041373208 0.12477203
0.14748558 0.041097693 0.12478335
0.15041795 0.041352399 0.12478387
0.27289999 0.041386794 0.12480527
0.30861941 0.043793924 0.12337297
0.37205735 0.04759112 0.12439357
-0.35884914 0.050681569 0.12034628
0.37956506 0.050020844 0.12232488
