# .PCD v0.7 - Point Cloud Data file format
VERSION 0.7
FIELDS x y z
SIZE 4 4 4
TYPE F F F
COUNT 1 1 1
WIDTH 901
HEIGHT 1
VIEWPOINT 0 0 0 1 0 0 0
POINTS 901
DATA ascii
-0.30046186 -0.023565063 -0.11008838
-0.24782091 -0.020011906 -0.11450665
-0.08653342 -0.022917489 -0.11114246
0.044889256 -0.023004062 -0.11100154
0.24095219 -0.022328796 -0.11210071
0.32285234 -0.023476399 -0.1102327
-0.34965715 -0.011453565 -0.11575173
-0.33139509 -0.018320162 -0.11566814
-0.084217034 -0.012418803 -0.11647329
0.016613185 -0.016777743 -0.11631789
0.026486695 -0.010107468 -0.1155768
0.14328869 -0.018895151 -0.11533163
0.19099961 -0.014629154 -0.11669284
0.22859226 -0.014326851 -0.1167344
-0.23811673 -0.0087741073 -0.114611
-0.14446568 -0.0076129427 -0.11357071
-0.046060048 -0.0067833243 -0.11248168
0.17305398 -0.0061573666 -0.11180244
0.21304333 -0.0053228317 -0.11048355
0.25424746 -0.0052795452 -0.11041305
0.3031556 -0.0080373576 -0.11404577
-0.37806618 0.00031716004 -0.1156573
-0.40896833 0.01140772 -0.11438191
0.39226693 0.016608857 -0.11480547
-0.33432001 -0.024663989 -0.10760108
-0.28886077 -0.023581456 -0.107017
-0.25129277 -0.023995407 -0.107017
-0.23856941 -0.022269275 -0.10701701
-0.1426771 -0.02471895 -0.10595237
-0.067938045 -0.024442412 -0.107017
-0.031618893 -0.023822926 -0.107017
-0.014255702 -0.022386432 -0.10701701
0.014181398 -0.025410984 -0.10298695
0.10114426 -0.026103688 -0.10001864
0.126302 -0.025359921 -0.10320576
0.15428296 -0.023837471 -0.1035654
0.19444048 -0.021347441 -0.107017
0.20160589 -0.023103986 -0.10835519
0.23354499 -0.02111569 -0.107017
0.29649284 -0.024025118 -0.10701701
0.34205064 -0.02379412 -0.10193708
-0.35066441 -0.017075507 -0.10980848
-0.22771505 -0.011011583 -0.107017
-0.20609769 -0.012335769 -0.107017
-0.17322955 -0.010154907 -0.107017
-0.13488548 -0.013314007 -0.10701701
-0.11343612 -0.012500849 -0.107017
-0.057488397 -0.019994965 -0.107017
0.0062794238 -0.018781085 -0.107017
0.044526368 -0.019012798 -0.10701701
0.13594881 -0.017828701 -0.107017
0.14477661 -0.013833934 -0.107017
0.19209279 -0.012560009 -0.107017
0.21610278 -0.017342746 -0.10701701
0.24672787 -0.012707444 -0.107017
0.27430591 -0.019903107 -0.107017
0.28496504 -0.015030878 -0.107017
0.29554665 -0.012543365 -0.10701701
-0.38122886 -0.0081469305 -0.10179166
-0.37601954 -0.0040776143 -0.10701701
-0.35377815 -0.0082693473 -0.10701701
-0.34324598 -0.00076986605 -0.107017
-0.26721063 -0.0072445087 -0.107017
-0.18650293 -0.0059057763 -0.10021599
-0.10845444 -0.0047526127 -0.107017
-0.072059959 -0.0049455361 -0.10467997
-0.030442461 -0.0047511263 -0.10558374
-0.028915331 -0.0047592362 -0.10554604
-0.010973766 -0.0057769334 -0.107017
0.045443594 -0.0045576459 -0.107017
0.059330553 -0.0059221257 -0.10013999
0.061150812 -0.0043504923 -0.10848893
0.11335424 -0.0044480925 -0.1069925
0.13124937 -0.0079131937 -0.107017
0.15215807 -0.0044533154 -0.10873576
0.16538355 -0.0051432666 -0.10376076
0.19425672 -0.0055837287 -0.107017
0.20879889 -0.0053039701 -0.10301368
0.25823379 -0.006302244 -0.107017
0.28879189 -0.0056643314 -0.10133842
0.32042566 -0.0058986722 -0.10024901
0.35561827 -0.0062954221 -0.10701701
0.37502909 -0.0060119596 -0.10465981
-0.3969475 0.0014935248 -0.10741296
-0.3872484 0.0063426606 -0.10701701
-0.36234152 0.0061232522 -0.10244745
-0.35524642 0.0034622978 -0.107017
0.38019773 0.0023023151 -0.107017
0.41631275 0.0097998632 -0.10607046
-0.41651094 0.01464766 -0.10592743
-0.3722778 0.012649156 -0.107017
0.38022757 0.013534779 -0.1036187
-0.40373844 0.020720661 -0.107017
0.39460507 0.022204986 -0.10947128
0.41611183 0.021018252 -0.10449313
-0.3291133 -0.023680465 -0.091212101
-0.29534751 -0.028114395 -0.09140256
-0.2417869 -0.02756072 -0.093775108
-0.13115261 -0.027932724 -0.092181027
-0.1001399 -0.027243912 -0.095132664
-0.075180523 -0.026314737 -0.099114284
-0.035794687 -0.026607629 -0.097859196
0.17009845 -0.027053015 -0.095950678
0.18612298 -0.027549736 -0.093822181
0.21195498 -0.0272891 -0.094939023
0.30702084 -0.027903358 -0.092306875
0.33461902 -0.026555378 -0.096347913
-0.36992681 -0.015307948 -0.091287017
-0.22552244 -0.0061226953 -0.099207573
-0.21546318 -0.007135245 -0.094500422
0.048148066 -0.0079231868 -0.090837434
0.13568187 -0.0079469755 -0.090726845
0.15139911 -0.0072519998 -0.093957663
0.20132276 -0.0074678445 -0.092954233
0.25309172 -0.0071635684 -0.094368756
0.26349482 -0.0061453013 -0.099102482
-0.43824676 0.013563062 -0.09147805
0.43618596 0.016422424 -0.092343904
-0.42280525 0.026279774 -0.095978491
0.41036013 0.022699684 -0.091156647
0.43073273 0.021908252 -0.094334148
0.44136924 0.020613443 -0.093161836
-0.43069196 0.032908551 -0.093076818
-0.19946456 -0.030226158 -0.082354195
0.0065896362 -0.03028392 -0.082106702
0.18170714 -0.030239696 -0.0822962
-0.32092443 -0.028469991 -0.08987879
-0.31092533 -0.029410027 -0.085850917
-0.27904192 -0.028671389 -0.089015789
-0.23439717 -0.029107362 -0.08714769
-0.22635134 -0.029318802 -0.086241767
-0.21230754 -0.028544566 -0.089559227
-0.093668111 -0.0286051 -0.089299843
0.034505166 -0.029724061 -0.084505431
0.11755045 -0.029123884 -0.087076902
0.24464713 -0.028883534 -0.088106729
-0.33811879 -0.016547326 -0.087337181
-0.37020233 -0.0042866524 -0.087740503
-0.35892755 -1.2987759e-05 -0.081855431
-0.29337445 -0.0084126908 -0.088561818
-0.28298417 -0.0082448553 -0.08934205
-0.25485659 -0.0094567379 -0.083708242
-0.12819259 -0.0083405543 -0.088897169
-0.11299337 -0.0098968614 -0.081662193
-0.042841733 -0.0097636906 -0.082281284
0.060262457 -0.0084131621 -0.088559628
0.22636141 -0.0088079274 -0.086724438
0.39815784 -0.0066876533 -0.080713615
0.40135419 -0.0012733871 -0.087740503
-0.39123464 0.0012607407 -0.087740503
0.39076918 0.0024710605 -0.087740503
0.41341972 0.0010271543 -0.087120205
-0.44847712 0.015937762 -0.08187411
0.40398529 0.015806489 -0.087740503
0.42236844 0.014020449 -0.087740496
0.44496757 0.01826098 -0.086408265
-0.43699333 0.024810694 -0.08927682
-0.42088488 0.022695951 -0.087740503
-0.41899145 0.0248568 -0.085507438
-0.44238415 0.033050969 -0.080490723
-0.24041425 -0.032642622 -0.072000854
-0.18615472 -0.032684587 -0.071821034
-0.070864618 -0.032094046 -0.074351206
0.072546899 -0.031183843 -0.078250989
0.14182532 -0.033029206 -0.070344523
0.18553871 -0.032301489 -0.073462434
0.33092606 -0.031512637 -0.076842263
-0.33252701 -0.021182928 -0.078818567
-0.38004157 -0.016280545 -0.071322337
-0.31146818 -0.01075523 -0.077671796
-0.27009383 -0.011298575 -0.075145893
-0.16075903 -0.010364657 -0.079487495
-0.10115278 -0.011101147 -0.0760637
-0.097205997 -0.011602425 -0.073733345
-0.071012899 -0.010623092 -0.078286082
-0.06284906 -0.011668898 -0.073424324
0.057876848 -0.011680353 -0.073371083
0.066391669 -0.01155968 -0.073932059
0.11405905 -0.011004112 -0.076514795
0.1341489 -0.01065225 -0.078150533
0.23376706 -0.010891728 -0.077037245
0.31060776 -0.011048338 -0.076309197
-0.40470475 -0.0059995581 -0.072978884
-0.3500163 -0.004843737 -0.076388225
0.40735921 -0.005405697 -0.071173035
-0.45528901 0.016382195 -0.074642368
-0.44719139 0.012064912 -0.077239633
0.39160407 0.011861457 -0.076755822
-0.41868687 0.023456369 -0.079988115
-0.45124635 0.031116109 -0.072727852
-0.34427968 -0.031301018 -0.068470962
-0.33252701 -0.033781163 -0.061765376
-0.27958637 -0.033882871 -0.064835593
-0.25024849 -0.034170043 -0.062323689
-0.070218667 -0.034285769 -0.061311431
-0.018715046 -0.034281909 -0.061345197
0.00087216496 -0.034197617 -0.062082484
0.048468307 -0.034247193 -0.061648861
0.059300177 -0.033865403 -0.064988419
0.069380239 -0.03332381 -0.06908229
0.11426926 -0.033695839 -0.066471562
0.32733527 -0.033936612 -0.064365543
-0.37089646 -0.020800915 -0.067293175
0.332562 -0.027202332 -0.067769125
0.34753522 -0.021763837 -0.068464503
-0.35147381 -0.016064435 -0.068464503
-0.34076449 -0.010446447 -0.06790027
-0.33526009 -0.012769945 -0.063866347
-0.081723437 -0.012558552 -0.069288492
-0.079993404 -0.012659524 -0.068819091
-0.05399628 -0.013499403 -0.061506733
0.038076468 -0.013092977 -0.06521
0.27156892 -0.013327074 -0.063076958
0.28121924 -0.012446675 -0.069808587
0.33904141 -0.018766902 -0.063474283
0.36072937 -0.014099505 -0.068464503
0.37264097 -0.014181884 -0.068464503
0.39312014 -0.012239383 -0.064748131
-0.37944299 -0.0049687577 -0.068464503
0.3921032 -0.0058854083 -0.068464503
-0.4372614 0.006133324 -0.069442682
-0.38020927 0.0047048591 -0.062610753
0.43205309 0.0029670354 -0.06177808
-0.41502678 0.019427927 -0.068918094
-0.40441829 0.012964522 -0.068464503
0.41074252 0.016802259 -0.061755735
-0.45534056 0.037873425 -0.062838592
-0.44474521 0.031094788 -0.067496195
-0.33096284 -0.033529881 -0.05477304
-0.31525746 -0.035010297 -0.054973971
-0.24270672 -0.035303514 -0.052409146
-0.23392327 -0.03547737 -0.050888442
-0.20305493 -0.034901544 -0.055925217
-0.13708064 -0.034926455 -0.055707328
-0.052367751 -0.035489753 -0.050780103
0.0016808808 -0.035414807 -0.051435653
0.12376247 -0.034690727 -0.057769243
0.13751563 -0.035349302 -0.052008644
0.26338559 -0.034929831 -0.055677786
0.27063677 -0.035138585 -0.053851828
0.32269663 -0.035337102 -0.052115392
-0.36557552 -0.023960223 -0.058921076
-0.34121287 -0.024283381 -0.058890503
-0.37196434 -0.0171076 -0.050185401
-0.31256723 -0.016303852 -0.056467261
-0.26249871 -0.0144658 -0.052702934
-0.21721539 -0.013898917 -0.05786743
-0.15826505 -0.01442587 -0.053066336
-0.053210646 -0.014336677 -0.05387859
-0.041831732 -0.013702959 -0.059652127
-0.0089619234 -0.014606128 -0.051423565
0.099101029 -0.013952248 -0.057380531
0.12918377 -0.013767276 -0.059065934
0.18285421 -0.013729654 -0.059408732
0.2915889 -0.014100021 -0.056034058
0.36400282 -0.019563712 -0.050185397
0.37997603 -0.018499121 -0.056606904
0.36994883 -0.00052099279 -0.053237125
0.41610324 -0.0041031884 -0.056168109
-0.44532341 0.0075162249 -0.055505399
-0.38950676 0.0073137642 -0.053223066
0.37327915 0.00068174442 -0.052143436
0.39090967 0.0079832878 -0.054256972
0.43624392 0.0039990861 -0.056546096
-0.45774746 0.019875936 -0.050185401
-0.4409163 0.019459056 -0.050185397
0.41497988 0.017790711 -0.055780295
0.44035995 0.013796514 -0.050185401
-0.43604195 0.026000042 -0.053846851
0.45241904 0.025997119 -0.050185397
-0.46119103 0.037202172 -0.059550397
0.45803797 0.03493689 -0.055139638
-0.30580729 -0.036300294 -0.043690283
-0.2855047 -0.035926655 -0.046958506
-0.25111756 -0.035908386 -0.047118332
-0.17514674 -0.035773933 -0.048294373
-0.091053531 -0.035661601 -0.049276948
-0.072759897 -0.035633851 -0.04951968
-0.045725718 -0.036150925 -0.044996835
-0.02568005 -0.036357686 -0.043188274
0.024328798 -0.036293022 -0.043753881
0.10704279 -0.03669598 -0.040229186
0.18123859 -0.036021821 -0.046126094
0.19587496 -0.036377028 -0.043019071
0.21441408 -0.036445048 -0.042424116
0.25150752 -0.03615614 -0.044951208
0.332562 -0.032986868 -0.042228781
0.34474489 -0.033027362 -0.041691314
-0.35710353 -0.028942537 -0.045979071
-0.33252698 -0.024472971 -0.045973085
-0.32456875 -0.02765012 -0.048655938
-0.34405106 -0.012404501 -0.04021826
-0.32702473 -0.014803534 -0.049624398
-0.21028838 -0.015048313 -0.047395676
-0.11907507 -0.015264297 -0.045427609
-0.097646788 -0.015589174 -0.04246768
-0.063041776 -0.015584197 -0.042512909
0.026771177 -0.01487384 -0.048984397
0.22313458 -0.015709117 -0.041374505
0.24048887 -0.015401933 -0.044172809
0.28193203 -0.015493022 -0.043343019
0.31413502 -0.018630151 -0.041021109
0.33470741 -0.015337385 -0.04162652
0.35938132 -0.0060390327 -0.042313162
0.36380959 -0.0042021554 -0.042869095
0.41480988 -0.0060445732 -0.04460321
0.42696196 -0.0007237941 -0.048341166
0.39576456 0.0092037432 -0.048155077
-0.40433729 0.012244694 -0.044756208
0.40408418 0.011953635 -0.04326823
0.43052486 0.022607896 -0.043934591
0.47217125 0.024392188 -0.04123348
-0.46150762 0.03492374 -0.04317246
-0.34668228 -0.030193977 -0.031905301
-0.24026614 -0.037477791 -0.033390626
-0.18014832 -0.036817152 -0.039169285
-0.17630726 -0.037503861 -0.033162605
-0.14435546 -0.03774821 -0.030774713
-0.13529515 -0.036910683 -0.038351178
-0.014230177 -0.037610423 -0.032230496
0.048918098 -0.037539016 -0.03285509
0.10637914 -0.037312794 -0.034833863
0.32813528 -0.031474158 -0.039053552
0.3419202 -0.025964979 -0.03736395
0.35987794 -0.029029114 -0.036374591
0.37305215 -0.024201762 -0.032784961
-0.32860851 -0.016418239 -0.034914728
-0.31510776 -0.015905958 -0.039581742
-0.25462943 -0.016270516 -0.036260769
-0.22319724 -0.016196426 -0.036935642
-0.18749079 -0.016846916 -0.030488279
-0.073598377 -0.016162107 -0.037247986
-0.026349619 -0.016127814 -0.037560359
-0.015921265 -0.016793884 -0.031252585
0.046549495 -0.016459517 -0.034538709
0.085807472 -0.016277552 -0.036196336
0.10474525 -0.016537167 -0.033643838
0.16847053 -0.016169485 -0.037180763
0.18885136 -0.016152445 -0.037335996
0.22284411 -0.016591368 -0.033337612
0.30540258 -0.015929503 -0.039366882
0.32210219 -0.015989682 -0.038818695
0.42310661 -0.0034365261 -0.038833618
-0.40712389 0.0082359016 -0.031905301
-0.39598 0.0014717737 -0.031905301
0.39107347 0.0055300188 -0.032949902
0.44754091 0.01239589 -0.031905301
-0.43626422 0.020341646 -0.031905301
0.47706664 0.024775431 -0.032173842
-0.46386632 0.036523473 -0.033943024
0.46574199 0.035919383 -0.03738457
-0.21814129 -0.03847152 -0.022646364
-0.20630026 -0.038031459 -0.027591649
-0.072674662 -0.038398556 -0.023466319
-0.047030151 -0.038175009 -0.025978494
-0.0047663897 -0.037991162 -0.028044479
0.070507064 -0.037966996 -0.028316058
0.14133637 -0.03804671 -0.027420275
0.17879984 -0.037978709 -0.028184436
0.32036331 -0.03817929 -0.025930371
-0.36650658 -0.02743415 -0.026481267
-0.26994115 -0.01710091 -0.026827471
-0.20947693 -0.01703852 -0.027726684
-0.14978348 -0.017364217 -0.023032423
-0.072051883 -0.016883537 -0.029960461
-0.036380611 -0.017441167 -0.021923348
0.048812628 -0.017182175 -0.025656192
0.16378862 -0.016945042 -0.029073993
0.23521878 -0.017323948 -0.023612799
0.24225709 -0.017526357 -0.020695502
0.29865146 -0.016997986 -0.028310914
-0.3539536 -0.0098109879 -0.026762052
-0.46026251 0.0095570376 -0.021178711
-0.43777892 0.00055908784 -0.021125462
-0.40238291 0.0094863959 -0.025785064
0.43825865 0.00070399139 -0.020778624
-0.46266913 0.0113191 -0.029514872
0.41055468 0.012510683 -0.022702705
0.47298974 0.014688667 -0.021750279
-0.47341448 0.022451289 -0.027574927
-0.44624573 0.027316753 -0.029618246
-0.33173865 -0.038979478 -0.016938083
-0.23001234 -0.039449159 -0.011659973
-0.21289457 -0.039478935 -0.011325347
-0.18385094 -0.039197825 -0.014484349
-0.078577742 -0.039363101 -0.012627074
-0.026207224 -0.039292149 -0.013424415
-0.0074429326 -0.03927679 -0.013597
0.17041329 -0.038918585 -0.017622396
0.27924097 -0.03900931 -0.016602861
0.30495349 -0.039210744 -0.014339182
0.33390772 -0.038573004 -0.011637885
0.34400317 -0.031173604 -0.016411182
-0.3558228 -0.028250404 -0.0159523
0.34294608 -0.024233252 -0.0159523
0.36668122 -0.027738187 -0.0159523
-0.37208587 -0.012442219 -0.0159523
-0.34666303 -0.017929669 -0.0159523
-0.3326484 -0.018045701 -0.012917496
-0.17453362 -0.017852718 -0.015991662
-0.090992786 -0.017629808 -0.019204456
-0.066346534 -0.018216925 -0.010742363
-0.052123308 -0.018267125 -0.010018819
-0.019403577 -0.01767645 -0.018532187
0.027415598 -0.017805452 -0.016672896
0.10303223 -0.017801341 -0.016732164
0.31393322 -0.018139139 -0.01186346
-0.37996706 -0.00018192548 -0.016384166
0.36418304 -0.0066291494 -0.014777364
0.38381779 -0.00094741862 -0.0159523
0.40264761 -0.0040504639 -0.0159523
0.41546828 -0.0085523501 -0.019308969
-0.45862043 0.0083111208 -0.015033407
-0.44271672 0.0087181246 -0.0159523
-0.42056304 0.0069389846 -0.0159523
0.39144462 0.0044175731 -0.016688863
0.42154431 0.0050457716 -0.0159523
-0.42543319 0.012873469 -0.0159523
0.43562633 0.012352524 -0.0159523
-0.44570649 0.024955625 -0.0159523
0.46121955 0.026306503 -0.0159523
-0.47389767 0.033170175 -0.018020988
0.45898241 0.031505011 -0.017680772
-0.13276906 -0.040335491 -0.0016996005
-0.10317231 -0.040210057 -0.0031092479
-0.065856934 -0.040158037 -0.0036938107
-0.047883719 -0.040065665 -0.0047318814
0.044485331 -0.040254183 -0.0026133372
0.058181882 -0.040281072 -0.0023111743
0.19040585 -0.04038522 -0.0011407887
0.21839064 -0.04010807 -0.0042553507
-0.33252701 -0.033564076 -0.0083968965
-0.26306689 -0.039963257 -0.0058826804
0.19991802 -0.039730705 -0.0084960377
0.34346619 -0.029830987 -0.0077795782
0.3700304 -0.028041046 -0.005583466
-0.34735349 -0.014448971 -2.5767487e-05
-0.33603725 -0.018274715 -0.0013710804
-0.25583947 -0.018700046 -0.0037791033
-0.083096094 -0.018356584 -0.0087294336
-0.065407164 -0.018735193 -0.0032725276
-0.011290342 -0.018924322 -0.00054664462
0.025824614 -0.018531483 -0.0062086284
0.048482757 -0.018466424 -0.0071463166
0.081155762 -0.018577728 -0.005542072
0.10528775 -0.018486653 -0.0068547758
0.23121221 -0.018887604 -0.0010758699
0.30877566 -0.018516941 -0.0064182021
0.3260628 -0.018598627 -0.005240845
0.40018427 -0.015634259 -0.009197237
-0.36579618 -0.006989256 -0.0011385145
-0.46255508 0.0091770422 -0.0076437341
-0.48226672 0.021453612 -0.0048140101
-0.47627759 0.028170479 -0.003981126
-0.44363934 0.02432608 -0.00355115
0.48156962 0.024681151 -0.0084420871
-0.2650789 -0.040473998 0.00014460291
-0.19500446 -0.040062372 0.0047701928
-0.11958575 -0.040472627 0.00016003469
-0.09379714 -0.040346574 0.0015765206
0.05083058 -0.040346831 0.0015736155
0.20900568 -0.04043128 0.0006246572
0.26355201 -0.040201668 0.0032048933
-0.33403751 -0.035115436 0.0036970752
-0.3180463 -0.039806847 0.0076416186
-0.20592265 -0.039946169 0.0060760374
-0.19295835 -0.039922472 0.0063423188
-0.16957244 -0.039675444 0.0091182515
-0.081177667 -0.039715003 0.008673694
0.04123693 -0.039709933 0.0087306397
0.1661016 -0.039813697 0.0075646499
0.33284715 -0.039319929 0.0011602356
0.34518668 -0.036118206 0.002230942
-0.37275347 -0.026909094 0.0058876066
-0.3211574 -0.029410627 0.0061138063
0.32171333 -0.029357649 0.0042786524
-0.40160805 -0.015800493 0.0013751024
-0.3493866 -0.013005508 0.0084608076
-0.3399317 -0.017040592 0.0050700763
-0.2740508 -0.018837813 0.001794898
-0.23526578 -0.018716855 0.0035382109
-0.20155105 -0.018629229 0.0048011472
-0.19962503 -0.018494867 0.0067376499
-0.094608538 -0.018675394 0.0041357693
-0.023876615 -0.018611971 0.0050498592
0.25550771 -0.018813742 0.0021418321
0.35616076 -0.010421861 0.0069614574
-0.36284599 -0.0081984103 0.00074992905
0.4254868 -0.0057078991 0.0071733235
0.43154356 -0.0032730908 0.0073016267
-0.47369203 0.013389338 0.0051162476
0.4664053 0.010194378 0.0023300184
-0.47736409 0.022312582 0.0059430618
0.4437806 0.024237076 0.0017889062
-0.48345304 0.031844005 0.0069370656
-0.4759303 0.037095703 0.0016015801
0.47637615 0.036523245 0.0038135296
-0.33252701 -0.038680308 0.01966135
-0.18392482 -0.039412856 0.012069063
-0.084911078 -0.039327867 0.013024069
-0.047084525 -0.039262392 0.01375987
-0.0036158198 -0.03913223 0.01522254
0.020131096 -0.038892321 0.017918447
0.083778158 -0.038962901 0.017125364
0.23272665 -0.038929842 0.017496804
0.25794616 -0.039031617 0.016353168
-0.38407707 -0.020981997 0.015952799
-0.33252701 -0.028298108 0.018229757
-0.31683859 -0.024913453 0.011398682
-0.41139269 -0.010626904 0.014527572
-0.39046758 -0.018861819 0.01593107
-0.37955415 -0.012233022 0.015952799
-0.35706136 -0.010103467 0.015952799
-0.30399171 -0.018216297 0.010752521
-0.28877446 -0.017756741 0.01737592
-0.26441583 -0.018085212 0.012641802
-0.19810095 -0.017936196 0.014789481
-0.18346334 -0.017732311 0.017727993
-0.16452797 -0.018097904 0.012458897
0.09747678 -0.018129781 0.011999464
0.22925623 -0.017880755 0.015588562
0.3790189 -0.00074543664 0.014106296
-0.46281672 0.0098151695 0.013213627
-0.44966248 0.006776649 0.015952799
-0.42848861 0.0046684374 0.015952799
0.43004656 0.013576746 0.015952799
0.4493604 0.018218026 0.015952799
0.461272 0.01139506 0.015952799
-0.4800767 0.022173729 0.011146156
-0.452308 0.023930108 0.015952799
-0.43369699 0.020940904 0.011465954
0.47141352 0.027548404 0.015952799
-0.4759334 0.034746032 0.014732794
-0.32978126 -0.038017083 0.027753778
-0.2881909 -0.038146667 0.02629761
-0.20975541 -0.03794688 0.028542703
-0.18434286 -0.038599394 0.021210188
-0.16704941 -0.038055234 0.027325071
-0.13564497 -0.038140684 0.026364863
-0.051925018 -0.038131818 0.026464492
0.078659713 -0.037994713 0.028005196
0.083950259 -0.038193338 0.025773162
0.14732686 -0.03841285 0.023306435
0.21301073 -0.037934497 0.028681861
0.23481423 -0.03816954 0.026040649
0.27574539 -0.038600087 0.021202371
0.31779441 -0.037911262 0.028942939
-0.33252698 -0.022444546 0.022166222
-0.3194381 -0.026112363 0.022765925
0.332562 -0.02931555 0.023605624
0.36060205 -0.02993327 0.025192793
-0.31498924 -0.017297564 0.023993835
-0.28471839 -0.017126553 0.026458545
-0.21823588 -0.017225733 0.025029086
-0.16804367 -0.017258817 0.024552263
-0.15335855 -0.016916148 0.02949103
0.10686078 -0.017184149 0.025628403
0.24410225 -0.016998213 0.028308252
0.29800409 -0.01757065 0.020057956
0.30926538 -0.017081503 0.027107822
0.31305709 -0.016929438 0.029299457
0.34854305 -0.012000954 0.026599882
0.40925261 -0.01067915 0.023057748
0.4106887 -0.010105724 0.02304766
0.41504115 -0.008142652 0.025365671
-0.38776052 0.0035358262 0.024420477
-0.46740547 0.012952475 0.026793418
-0.41789687 0.015754383 0.026626419
-0.48109204 0.028150212 0.022666186
0.45276871 0.029348418 0.022079512
0.47150373 0.027883865 0.02774388
-0.34498969 -0.03277399 0.0319058
-0.2384233 -0.037593335 0.032380484
-0.21514764 -0.03770528 0.031237932
0.076126061 -0.037459932 0.033547364
0.11151129 -0.037085984 0.036818281
-0.34035659 -0.022140615 0.039439119
0.32138199 -0.02613603 0.03243418
0.341438 -0.024759371 0.034871392
0.37265098 -0.023584301 0.039102975
-0.34280229 -0.014047259 0.033842091
-0.15634552 -0.016809363 0.031030033
-0.11778018 -0.016825257 0.030800981
-0.091926791 -0.016531855 0.033880483
-0.073195234 -0.015974782 0.03895577
0.099864237 -0.015867213 0.039935768
0.15245053 -0.016799049 0.03117869
0.1922054 -0.016547693 0.033736181
0.24381994 -0.016834024 0.030674625
0.29684183 -0.016022069 0.038524948
0.31217438 -0.017815199 0.037997901
0.32298532 -0.016623581 0.0330448
0.33811983 -0.014851134 0.039706349
0.3511582 -0.013552362 0.0319058
0.39611447 -0.014104676 0.039873198
-0.42097002 -0.0042105298 0.0319058
-0.38759163 -0.0064220699 0.0319058
0.40094256 -0.0062634349 0.0319058
-0.44867262 0.005779909 0.030130988
-0.43117464 0.00049045007 0.0319058
-0.42150289 0.0013183556 0.0319058
0.45441166 0.0091069993 0.039014954
-0.46656835 0.019175783 0.0319058
-0.44817948 0.011595625 0.0319058
-0.42308381 0.018747631 0.036338657
0.41042894 0.010889467 0.0319058
-0.46956664 0.026275666 0.0319058
-0.45175251 0.025642447 0.0319058
0.45245743 0.029843701 0.03037329
0.46828997 0.036215782 0.032407686
-0.32444695 -0.035635717 0.049503833
-0.24748799 -0.036020737 0.046136051
-0.0223075 -0.035826664 0.047833595
-0.01445048 -0.035651211 0.0493683
0.18039292 -0.036336057 0.043377906
0.28540483 -0.035672914 0.04917847
0.32512355 -0.028502926 0.041267972
-0.33207685 -0.015207499 0.045946181
-0.32276964 -0.015058314 0.047305346
-0.29256496 -0.015667433 0.041755892
-0.26158723 -0.0152438 0.045615457
-0.089824148 -0.015660875 0.041815653
-0.079110898 -0.015383361 0.044343971
0.022926442 -0.0150845 0.047066774
0.035512827 -0.015774976 0.040776122
0.050142556 -0.01577324 0.040791921
0.06628146 -0.014905503 0.048697568
0.17114228 -0.015528901 0.04301801
0.1815588 -0.015093784 0.046982199
0.20741533 -0.015633998 0.042060513
0.22574815 -0.015226946 0.045769006
0.24241841 -0.015349041 0.044656657
0.39488927 -0.013938671 0.045201156
0.40390179 -0.010306455 0.045423899
0.38117534 0.0024903594 0.040726691
-0.45718753 0.011450162 0.048917063
-0.41977495 0.018284693 0.043618232
-0.46895054 0.020090656 0.041986153
0.43217301 0.023939349 0.049620632
0.46577269 0.024720639 0.045648009
-0.35012981 -0.031205647 0.050253801
-0.33158451 -0.034603771 0.05853029
-0.22328943 -0.034919064 0.055772416
-0.21758988 -0.035394639 0.051612556
0.0384707 -0.034622699 0.058364708
0.090165511 -0.03538629 0.051685546
0.10807104 -0.034641344 0.058201633
0.25004026 -0.035180598 0.053484764
0.34286901 -0.032922406 0.056950808
-0.35373583 -0.022660771 0.0501859
0.332562 -0.023128701 0.05715736
0.34092605 -0.022602644 0.054423507
-0.33904377 -0.018253004 0.0501859
-0.31198961 -0.014554235 0.051897824
-0.099867359 -0.013748757 0.05923624
-0.083638854 -0.013955156 0.057355799
0.055522554 -0.013866321 0.058165144
0.060937826 -0.013852658 0.058289632
0.30316824 -0.014213862 0.05499883
0.31830311 -0.013752174 0.059205107
0.32408157 -0.014201022 0.055115815
0.36847883 -0.01019479 0.050184902
0.40093285 -0.010055023 0.057110619
-0.39352196 -0.0068922797 0.050185904
-0.44871527 0.009019603 0.056698017
-0.39546993 0.009499901 0.051540632
-0.37824887 0.0028230352 0.053325206
0.42343843 0.0065162629 0.050184898
-0.46369374 0.015753917 0.055696096
-0.4673121 0.021695137 0.053406037
0.42743373 0.021729 0.052563593
0.46337536 0.029022459 0.050184902
-0.4602114 0.037781358 0.058571436
-0.26571992 -0.034052484 0.063352413
-0.19173296 -0.033816606 0.065415628
-0.17374893 -0.033703953 0.066400997
-0.00019186735 -0.034336202 0.060870707
0.10690629 -0.033553585 0.0677163
0.17735274 -0.033945266 0.064290263
0.18331803 -0.034243833 0.061678678
0.2550514 -0.034133393 0.062644705
0.26545429 -0.033907957 0.064616576
0.33164802 -0.033696905 0.066462643
-0.24193738 -0.013011556 0.065952592
-0.22335523 -0.013359988 0.06277816
-0.16926086 -0.013169845 0.06451048
-0.013204545 -0.01308179 0.065312706
0.044009313 -0.012531711 0.069413692
0.064582869 -0.013016306 0.065909326
0.11862034 -0.012667415 0.068782821
0.12674786 -0.013210503 0.064140044
0.1568761 -0.013255619 0.06372904
0.25982714 -0.013589555 0.060686652
0.33455977 -0.013195479 0.061457921
0.35894769 -0.015476894 0.068464898
0.38757545 -0.014486204 0.064512558
-0.40161285 -0.0091418149 0.062206142
-0.39251658 -0.0015703989 0.06846489
0.35345742 -0.0052380436 0.068805568
-0.44143724 0.0065568509 0.060338192
-0.41037488 0.0097164167 0.068464898
-0.40572861 0.0098049119 0.068464898
-0.39355823 0.009926727 0.06161835
-0.45675036 0.012933796 0.062385209
-0.44927356 0.010504153 0.066940054
-0.45784518 0.022926368 0.063095845
0.45909429 0.025057828 0.066249937
-0.45043993 0.033472363 0.068341233
-0.26450574 -0.032298025 0.073478095
-0.1804634 -0.032903437 0.070883974
-0.11805598 -0.031155765 0.078372523
0.0034100413 -0.032031849 0.074618615
0.021278784 -0.032456182 0.072800405
0.052836776 -0.031294253 0.077779122
0.22004831 -0.031461135 0.077064045
0.33292103 -0.032581653 0.072262786
-0.36331347 -0.021086376 0.078821875
-0.32671896 -0.024296613 0.075113609
-0.37451705 -0.018409168 0.071644992
-0.32635799 -0.010753861 0.077679023
-0.22397178 -0.012276106 0.070601992
-0.14768994 -0.011826634 0.072691567
-0.1044918 -0.012358775 0.070217669
-0.059262253 -0.012324009 0.070379294
3.6105514e-05 -0.011619921 0.073652565
0.14111224 -0.010776324 0.07757441
0.18200332 -0.010355049 0.079532906
0.25382584 -0.010759522 0.077652529
0.28034258 -0.011694851 0.073304221
0.30773187 -0.010725773 0.077809416
0.332562 -0.014956417 0.075801052
-0.35972574 -0.00074656564 0.077311009
-0.42571646 0.0040072505 0.079355367
0.42455199 0.0026390152 0.075820051
0.43759829 0.0064945449 0.070399605
-0.40427703 0.016979989 0.076911345
0.40470535 0.015556121 0.070085756
0.44708747 0.017608946 0.077594399
-0.45469677 0.026844401 0.070926055
0.41464403 0.021287339 0.077665314
-0.44602284 0.032964166 0.074971706
-0.15694945 -0.030649204 0.080543064
-0.0091616213 -0.030500267 0.081181258
0.029526222 -0.03054722 0.080980055
-0.33252701 -0.027512942 0.086155608
-0.31985262 -0.029813044 0.084125906
-0.20730165 -0.028616369 0.0892535
-0.10433543 -0.029549265 0.085256167
0.15459698 -0.028560337 0.089493595
0.34330401 -0.021797672 0.087485462
-0.34819257 -0.016196962 0.087741002
0.33247554 -0.010003867 0.081165783
0.3629683 -0.016611807 0.087741002
0.37775171 -0.014267401 0.08303012
-0.36543512 -0.0028127844 0.087741002
-0.35215974 -0.0020893109 0.084578067
-0.3003616 -0.0095720701 0.083172709
-0.11845751 -0.0092644822 0.084602654
-0.053244814 -0.0095923021 0.083078831
-0.038672663 -0.0083649568 0.088784441
-0.01830931 -0.0081497245 0.089785025
0.084547766 -0.00869668 0.087242581
0.11608932 -0.0097881127 0.082168564
0.12386851 -0.0096184677 0.082957238
0.2885913 -0.0093106255 0.084388383
0.32598954 -0.0088492697 0.086533375
-0.41400582 0.009232563 0.087741002
0.35654134 0.00083488983 0.089694574
0.37968513 0.0027321521 0.087741002
0.42244676 0.0062938356 0.087741002
-0.44543836 0.023479074 0.086010374
-0.32755357 -0.024089519 0.095198512
-0.28568649 -0.027883621 0.092393234
-0.11531985 -0.026382534 0.098825186
0.044780999 -0.02622414 0.09950389
0.18049817 -0.027076017 0.095853709
0.2280281 -0.02730214 0.09488479
0.29057163 -0.027882673 0.092397302
0.34477699 -0.025489336 0.090855829
0.35224417 -0.022715684 0.09000849
-0.39261496 -0.0058354447 0.092870273
-0.34615737 -0.0025247298 0.093061455
-0.29625434 -0.0071826312 0.094280936
-0.21642154 -0.007032536 0.094978712
-0.15994222 -0.0072220769 0.094097555
-0.12463329 -0.0063027479 0.098371401
-0.069768757 -0.0063114078 0.098331153
0.014485545 -0.0072281528 0.094069317
0.053026438 -0.0066814162 0.096611023
0.16840874 -0.0071610636 0.094381586
0.21446918 -0.0074947393 0.092830352
0.28546879 -0.0070924032 0.094700791
0.30038399 -0.0061361818 0.099146217
0.37679115 0.0099606588 0.094125032
-0.43218875 0.017574232 0.091934189
0.39312756 0.016206531 0.092881024
0.40485805 0.0208047 0.092476651
0.43881667 0.02433176 0.096646652
-0.32872432 -0.023983905 0.10923505
-0.31912801 -0.025933597 0.10074883
-0.22351222 -0.022721326 0.107017
-0.14989927 -0.021985609 0.107018
-0.13296324 -0.022117896 0.107017
-0.10359553 -0.022197623 0.10701801
-0.047155648 -0.025546702 0.10240662
-0.025890723 -0.026026161 0.1003522
-0.010517137 -0.024430659 0.10816169
0.034776375 -0.023621179 0.10999703
0.044284508 -0.022868516 0.107018
0.11699887 -0.023700964 0.10986717
0.16924433 -0.021690914 0.107018
0.23831496 -0.025736589 0.10159298
-0.34536499 -0.010823535 0.107018
-0.33448672 -0.010747455 0.1056569
-0.29798928 -0.011774103 0.10701801
-0.28935477 -0.018487411 0.107018
-0.27668977 -0.010493808 0.10701701
-0.26187292 -0.014594254 0.107017
-0.25054562 -0.010864528 0.107017
-0.22016424 -0.011001035 0.107017
-0.21231222 -0.014795589 0.10701701
-0.18922949 -0.010212288 0.107018
-0.093500093 -0.01585599 0.10701801
-0.086949274 -0.015562315 0.107018
-0.053311046 -0.019163266 0.107018
-0.024755806 -0.015665045 0.10701734
-0.01866404 -0.013813917 0.107018
0.018477295 -0.01485107 0.107017
0.030136675 -0.017385064 0.10701701
0.041936107 -0.012815516 0.107018
0.2149578 -0.01934725 0.107017
0.286926 -0.015453383 0.1070175
0.33621743 -0.015677748 0.10392704
0.37088725 -0.012649775 0.10038915
-0.39506984 -0.0022472781 0.10323925
-0.38622156 -0.006235498 0.10145235
-0.33396879 -0.0069560348 0.10557146
-0.3050836 -0.0057814722 0.10079476
-0.29366165 -0.0045142611 0.10668588
-0.27612492 -0.0050108265 0.1043774
-0.19400366 -0.0052553006 0.10478149
-0.15418828 -0.0079715056 0.1070175
-0.13307418 -0.0046967524 0.10583751
-0.12416933 -0.0052735563 0.10315601
-0.063437097 -0.0052193096 0.1034082
-0.059379786 -0.0080305403 0.10701799
0.039014541 -0.0077173598 0.107017
0.041444834 -0.0055709844 0.10177329
0.053455867 -0.0055657602 0.10701701
0.068484835 -0.0048109526 0.10959427
0.076268688 -0.003923622 0.107017
0.10543311 -0.0063972622 0.10661914
0.12438404 -0.0045833099 0.10904782
0.19776613 -0.0065909973 0.107017
0.20121498 -0.0069021611 0.107018
0.23852979 -0.0050074314 0.10439319
0.25844508 -0.0042186473 0.10817245
0.31221163 -0.0050452799 0.1042176
0.32773834 -0.0088203792 0.10701701
0.34376687 -0.0098681469 0.107018
0.35987535 -0.0079587772 0.107017
0.38796014 -0.0032294567 0.10591426
-0.38903177 0.00082630338 0.107017
-0.36798173 0.0033766422 0.1070175
0.35196972 0.0023793951 0.10425406
-0.37594742 0.010665688 0.107017
0.38023192 0.011641872 0.10701799
0.41149801 0.011546698 0.107018
0.4123106 0.028593853 0.10628079
-0.21658333 -0.022616964 0.11163164
-0.11186109 -0.021378662 0.11318295
-0.017899454 -0.023350481 0.11043766
0.0033279806 -0.020698164 0.11394527
0.067084372 -0.021660296 0.11286745
0.070294201 -0.021208365 0.11337373
0.15226513 -0.021253107 0.1133236
0.17736594 -0.021079825 0.11351772
0.26606926 -0.020776769 0.11385721
0.28681231 -0.022886937 0.11119219
0.31789064 -0.0221365 0.11233399
-0.32561502 -0.011229644 0.11604961
-0.30829692 -0.012051092 0.11639631
-0.18283913 -0.014149264 0.11671126
-0.10765767 -0.019677782 0.11475357
-0.094092831 -0.011340676 0.11609642
-0.057579815 -0.01976591 0.11468857
-0.010875538 -0.019313872 0.11502203
0.13225439 -0.018875021 0.11534578
0.24374749 -0.012296473 0.11645741
0.2528984 -0.018604247 0.11554554
-0.34330669 -0.0080141313 0.1164764
-0.25288206 -0.0078119403 0.11379429
-0.089535818 -0.0091141611 0.11486223
-0.012226952 -0.005544459 0.11084455
0.017574251 -0.007588774 0.11354437
0.082471997 -0.0079749227 0.11397682
0.13315755 -0.0062412862 0.11197955
0.26402697 -0.0074168816 0.11335187
-0.40602499 0.007531492 0.11161952
-0.38090897 0.00067736837 0.11515962
0.37724668 0.010724004 0.11448602
