# .PCD v0.7 - Point Cloud Data file format
VERSION 0.7
FIELDS x y z
SIZE 4 4 4
TYPE F F F
COUNT 1 1 1
WIDTH 907
HEIGHT 1
VIEWPOINT 0 0 0 1 0 0 0
POINTS 907
DATA ascii
-0.27062103 -0.059897229 -0.11056504
-0.2646912 -0.05561462 -0.11112507
-0.27514312 -0.043693416 -0.11232863
-0.28844777 -0.03951937 -0.11210631
-0.30201173 -0.029097635 -0.11067469
-0.31102496 0.0093420269 -0.118343
-0.29053184 0.0090848934 -0.118343
-0.27425563 0.0092634214 -0.11834301
-0.26371562 0.0062782373 -0.11747056
-0.25458255 0.0067747054 -0.11685343
-0.33221537 0.012580162 -0.11818221
-0.31662056 0.016479649 -0.11286466
-0.18606779 0.013497789 -0.11703788
-0.17181352 0.018290354 -0.118343
-0.15367204 0.013731604 -0.11707831
-0.11111163 0.016838059 -0.118343
-0.090538673 0.016513102 -0.11830512
0.0090946108 0.017235681 -0.118343
0.022217238 0.018046657 -0.118343
0.059632026 0.015462398 -0.11805447
0.073331922 0.01955756 -0.118343
0.10645073 0.011856817 -0.11393036
0.15155469 0.017047897 -0.11834301
0.24439874 0.019529138 -0.1121041
0.25086886 0.014781661 -0.11811127
0.28647685 0.014812385 -0.11207648
0.3440868 0.011341497 -0.11647737
-0.36103398 0.025853757 -0.11149558
-0.13710612 0.02459342 -0.11349485
-0.11374982 0.025195107 -0.11253744
-0.10929567 0.024539381 -0.11269446
-0.071838088 0.02466343 -0.11279663
0.046100348 0.021574464 -0.11777809
0.19175854 0.023479711 -0.11546542
0.21956931 0.022287885 -0.11372639
0.22934766 0.02144991 -0.11282454
0.34648696 0.023412131 -0.11111656
-0.29152253 -0.062509112 -0.10201944
-0.26513138 -0.061259486 -0.10105634
0.30309218 -0.057851501 -0.1005344
0.28340268 -0.042255156 -0.10798123
-0.27873629 -0.034524184 -0.1074385
0.28741026 -0.033187196 -0.10546663
-0.34145582 0.0075885546 -0.10130814
-0.32842445 0.0046983585 -0.10157684
-0.3127065 0.0023603411 -0.10366248
-0.26593027 0.0022306503 -0.10217686
-0.17758639 0.0098890532 -0.10543504
-0.12502645 0.0095304037 -0.10376175
-0.05333608 0.009407917 -0.10325658
0.0018967337 0.009135779 -0.10213281
0.18704422 0.0099175349 -0.10641795
0.30936268 0.0019256263 -0.1030774
-0.38244441 0.018644579 -0.10500474
-0.37117326 0.015272061 -0.10518438
-0.32241303 0.017660689 -0.10388187
-0.28926378 0.014166997 -0.10139288
-0.26719579 0.01638004 -0.10491575
-0.18247496 0.010773109 -0.10955457
-0.061925337 0.01058735 -0.10812317
-0.051315546 0.010914569 -0.10947122
0.27131197 0.015703708 -0.10679664
0.35628974 0.011755057 -0.10938415
-0.3490313 0.02328939 -0.10863369
-0.21232279 0.022559617 -0.1070791
-0.2004877 0.022154007 -0.10165428
-0.15881586 0.024572225 -0.10968194
-0.13597651 0.023012726 -0.10520613
-0.11725646 0.023916841 -0.10937177
-0.10403578 0.023629995 -0.10531212
-0.013446102 0.023336973 -0.10529283
0.035239585 0.022072276 -0.10081286
0.095202543 0.024116136 -0.10748839
0.11075746 0.022074547 -0.10080187
0.13457823 0.022436827 -0.10246083
0.14861317 0.02385121 -0.10896976
0.1666913 0.023386542 -0.10682086
0.18096906 0.024529273 -0.10989711
0.23208208 0.021106618 -0.10912075
0.33865127 0.021138819 -0.10354766
0.35437846 0.024303488 -0.10329355
0.39383453 0.022801841 -0.10383559
0.31313121 -0.049454615 -0.090922453
-0.30707917 -0.034763508 -0.095920168
-0.30348405 -0.023337699 -0.096450329
-0.25607917 -0.023420386 -0.090475008
0.31520486 -0.023213897 -0.094023168
0.26687485 -0.019036394 -0.095529012
0.31162733 -0.017264068 -0.098643608
0.28277886 -0.0074350638 -0.097775929
0.30316284 -0.0099376366 -0.097817421
-0.25007632 0.0028001517 -0.090602629
-0.2073635 0.0076240646 -0.099607125
-0.17826357 0.0066941916 -0.09214887
-0.095266357 0.0063483282 -0.090607747
-0.078366958 0.0072963834 -0.0945355
-0.060716353 0.0069902074 -0.093275145
-0.055996805 0.0067355577 -0.092228211
-0.017271923 0.0064203711 -0.090948254
0.024754606 0.0075122938 -0.095455587
0.033957537 0.0066092308 -0.091745637
-0.35448399 0.010000702 -0.091804281
-0.33094874 0.018391866 -0.094989553
-0.26580173 0.015312379 -0.094116136
0.25821403 0.015407048 -0.090748072
0.26005268 0.016061259 -0.094006896
0.29717147 0.014432332 -0.09476234
0.30987385 0.014819291 -0.091924898
0.33189315 0.019396706 -0.099798843
-0.37015253 0.027890503 -0.093373828
-0.34539321 0.021720009 -0.096524566
-0.17427838 0.020420281 -0.090517692
-0.077330694 0.021129496 -0.0964977
-0.058232866 0.021571057 -0.09579967
-0.04235597 0.021555372 -0.098452628
-0.027022216 0.021107875 -0.096384175
0.080455065 0.020676875 -0.094373956
0.18617681 0.021079404 -0.094312951
0.19461158 0.021677371 -0.098445393
0.20065174 0.020182801 -0.094786659
0.33914167 0.020215426 -0.094620988
0.34531075 0.02221266 -0.0947093
0.35588968 0.024292381 -0.096287861
0.36053658 0.02519202 -0.091050878
-0.38030982 0.031372413 -0.090143122
-0.41451386 0.041046958 -0.093702391
0.28120074 -0.060605489 -0.08721181
0.29312178 -0.061765239 -0.088895276
-0.30055261 -0.053057693 -0.088590711
0.29783487 -0.058194671 -0.080566809
-0.27849331 -0.048636384 -0.081696719
-0.28811601 -0.033831369 -0.084434628
-0.27660403 -0.030153483 -0.087010793
0.29664332 -0.033612125 -0.086358666
-0.2769078 -0.029567432 -0.086236849
0.28948572 -0.027589079 -0.086523086
-0.3480736 0.0080141965 -0.086049512
-0.30114847 0.00061879843 -0.088469267
-0.24377455 0.003015283 -0.089516103
0.14399034 0.00425203 -0.082142226
0.20876977 0.0035290313 -0.080895752
0.31085286 0.00096417405 -0.085814781
0.33467066 0.0047135949 -0.083057515
-0.2925413 0.014332537 -0.086510673
-0.2841256 0.013664763 -0.08592736
-0.21449214 0.018466275 -0.088536121
-0.14571941 0.019044872 -0.085529275
-0.12387604 0.018096218 -0.08251211
-0.1038741 0.019101283 -0.087145559
-0.079220571 0.018779859 -0.085658692
-0.067251779 0.019016415 -0.086747937
0.017734654 0.018243203 -0.083168283
0.034627352 0.019053865 -0.085993767
0.074819714 0.019859307 -0.087881729
0.09397725 0.01809934 -0.082496703
0.16116653 0.018380158 -0.083778299
0.18177308 0.018265642 -0.0806804
0.19910267 0.019170487 -0.089242771
0.21256763 0.019363325 -0.089584596
0.22946754 0.017298074 -0.086781889
0.24530381 0.016339004 -0.085399859
0.25757992 0.015945688 -0.089303248
0.26726615 0.015087384 -0.087799609
0.27008879 0.014063163 -0.087626867
0.31473672 0.015029445 -0.080694616
0.37730944 0.015733855 -0.084439784
0.3804611 0.016983801 -0.089005753
-0.14601538 0.020205868 -0.089523435
-0.10314725 0.020294737 -0.089923158
0.017355282 0.020154042 -0.089247942
0.072886035 0.020278022 -0.089811161
0.18108636 0.020164097 -0.089516029
-0.4058426 0.039180234 -0.088579088
-0.39343697 0.034613982 -0.081859589
-0.38779354 0.032959513 -0.085935779
-0.42757651 0.046857316 -0.082208052
0.40857524 0.040020723 -0.085166767
0.4302569 0.047748372 -0.080743849
0.27862883 -0.055809196 -0.079667352
0.2667411 -0.030298732 -0.079123527
0.29558975 -0.021370413 -0.074973293
-0.32946268 0.0032643187 -0.075342566
-0.23423669 0.0010744641 -0.072883442
-0.071223877 0.0027774137 -0.0758733
0.019373644 0.0023386853 -0.074166253
0.16307469 0.0016145569 -0.071369916
0.22732131 0.0022055008 -0.078629777
-0.34157795 0.019660186 -0.075678587
-0.28602755 0.013111871 -0.070180252
-0.25352862 0.01417495 -0.073526815
-0.22298947 0.015269476 -0.072116703
-0.21946487 0.016051892 -0.075617708
-0.081418961 0.016519863 -0.073869154
-0.050897554 0.015782323 -0.071829595
0.0089808209 0.016288033 -0.074157201
0.078888431 0.015542177 -0.070717528
0.14597912 0.016072156 -0.070432708
0.17264305 0.01741034 -0.076589227
0.19938503 0.017850107 -0.079610191
0.31916547 0.015386086 -0.072878234
-0.41774797 0.028926222 -0.073353596
0.39302734 0.020030672 -0.073131718
0.40724903 0.024835113 -0.071242653
-0.43521181 0.036051445 -0.079326652
-0.38095582 0.031035274 -0.079143874
-0.44662976 0.050130416 -0.072529256
0.43786156 0.050309628 -0.075442255
-0.28579852 -0.0010769091 -0.066549331
-0.33337355 0.0032988037 -0.061613955
-0.32319027 0.0017020309 -0.067451634
-0.18727699 0.00059527898 -0.066696778
-0.17090553 0.00040156487 -0.064261943
0.015120845 0.00017999412 -0.061766729
0.036134399 0.00038507694 -0.065016128
0.084728584 0.00020437251 -0.062485602
0.13818693 5.9430793e-05 -0.060501434
0.2180863 0.00017014434 -0.065403402
-0.27478409 0.012954085 -0.067360148
-0.22724205 0.013907857 -0.060382195
-0.13756169 0.015341799 -0.069800228
-0.10010773 0.014750125 -0.067069083
-0.067185968 0.014608199 -0.066049799
0.048276395 0.014537681 -0.064930625
0.056745205 0.015338002 -0.069777481
0.097603381 0.014463898 -0.063764662
0.16219844 0.014610069 -0.066074543
0.18857516 0.014318894 -0.061473202
0.20878202 0.01490994 -0.067994602
0.21792731 0.015011704 -0.065838359
0.25187168 0.013474358 -0.066638559
0.30115548 0.013375025 -0.067088552
0.32998157 0.016865749 -0.063428909
0.37573594 0.014090024 -0.063970953
-0.41797191 0.028604776 -0.06258513
0.35010609 0.021753499 -0.063923061
0.43824384 0.036404081 -0.06385003
-0.43498087 0.049295448 -0.063150719
0.42391348 0.0454963 -0.061233528
-0.30889151 -0.00073312793 -0.051132582
-0.25265288 -0.00087909249 -0.058738999
-0.24154302 -0.00084130937 -0.05474823
-0.067169197 -8.8157103e-06 -0.058589909
-0.048072737 -1.6654551e-05 -0.058531623
-0.023591513 -0.00051327446 -0.051064763
0.034307599 -0.00043196921 -0.052463636
0.064168736 -0.00023780635 -0.05556744
0.21428245 -0.00038660478 -0.054103881
0.23836406 -0.0010082788 -0.051869541
0.24148159 -0.00093478797 -0.055664323
0.27535409 -0.0017746869 -0.051538546
0.3592872 0.0091716936 -0.05207321
-0.25338686 0.013130547 -0.057946496
-0.070264004 0.013891336 -0.054826215
-0.061977338 0.014114624 -0.05832212
-0.052491184 0.014070103 -0.057612441
-0.048559982 0.013734599 -0.052335188
-0.030672723 0.01416196 -0.059029214
0.125579 0.014043903 -0.05712764
0.20700946 0.014310602 -0.05198697
0.2184303 0.014318169 -0.054680288
0.25378501 0.013408246 -0.050501384
0.26153016 0.012756544 -0.05188017
0.29573965 0.013185224 -0.054835662
0.30923161 0.014182869 -0.056813359
0.32270327 0.016068775 -0.058267944
0.33269626 0.017661652 -0.051465418
0.38440952 0.016787155 -0.058118742
-0.37114269 0.026766768 -0.051341847
0.35100853 0.021784112 -0.051250473
0.37864023 0.029174861 -0.052663304
-0.46302885 0.047524393 -0.05223757
-0.42394114 0.044801135 -0.056059033
0.41188759 0.04092617 -0.053070538
0.28951901 -0.043089412 -0.043178737
-0.27717778 -0.03025252 -0.041762095
0.28243268 -0.031922441 -0.045479864
0.29865181 -0.026295487 -0.046051063
-0.24833496 -0.0013929944 -0.046620928
-0.21363263 -0.0011485708 -0.041583527
-0.11672035 -0.00092800369 -0.044767916
-0.054970793 -0.0012337955 -0.040178385
-0.010948168 -0.00059956789 -0.049773723
-0.0084380284 -0.00059599511 -0.049841009
0.056532964 -0.00085649913 -0.046013422
0.16461124 -0.0010990492 -0.042549089
0.22239746 -0.0011414826 -0.044614751
0.31368992 -0.00034057375 -0.046097852
-0.3527326 0.0073873941 -0.049723476
-0.1738251 0.012971034 -0.040781327
-0.14923987 0.013216697 -0.044509578
-0.057253614 0.013067976 -0.041900408
-0.04145918 0.013545075 -0.049353942
0.11188401 0.013463085 -0.04794918
0.1609108 0.013324397 -0.045757562
0.22538346 0.012874999 -0.040812604
0.24018547 0.013242893 -0.040764816
0.26733705 0.012691531 -0.043308273
0.29715452 0.012567065 -0.041732408
0.38472968 0.016839705 -0.043537997
-0.40641665 0.024144189 -0.043773912
0.38662183 0.031697847 -0.046105988
0.44771242 0.040000636 -0.045431897
-0.46697438 0.05703171 -0.047323298
0.46147403 0.060435094 -0.040983386
0.29532391 -0.043500599 -0.034313016
0.30370295 -0.033392448 -0.035814393
-0.27017301 -0.0047216411 -0.03379951
-0.18616654 -0.0015851244 -0.035180777
-0.087910064 -0.0015572711 -0.035368424
0.037108704 -0.001791544 -0.03158924
0.13752477 -0.0013320142 -0.038856998
0.17337206 -0.0017073904 -0.033071131
0.28315115 -0.0022164388 -0.031944316
-0.35913059 0.0089714006 -0.036810886
0.34466708 0.0050076055 -0.030610561
-0.26834315 0.01230479 -0.039213281
-0.23582745 0.012410047 -0.036493558
-0.1336824 0.012669992 -0.03597815
-0.019965345 0.012726317 -0.036399905
0.070675589 0.012354187 -0.030425683
0.096762717 0.012934366 -0.039594039
0.15562946 0.012413581 -0.031364281
0.17156345 0.012927719 -0.039488997
0.20599309 0.012978606 -0.030937996
0.24467491 0.0123899 -0.035678595
0.29297006 0.012933436 -0.038431585
0.31892464 0.014847128 -0.032959279
-0.41316849 0.026433002 -0.036995918
-0.40627238 0.023966182 -0.033767633
0.37821937 0.029594459 -0.039821964
0.40916845 0.024938796 -0.031406462
-0.38223094 0.030153673 -0.031800315
0.39624447 0.035399042 -0.03456616
0.44683152 0.039271835 -0.033567812
0.42391974 0.04451219 -0.036594205
0.4324396 0.048235789 -0.034783609
0.45460907 0.042585116 -0.035208412
-0.47452059 0.05518863 -0.034450471
-0.45762974 0.058152802 -0.039999127
-0.44070601 0.050874703 -0.030109541
0.44234151 0.051562078 -0.034235481
-0.29484439 -0.043662645 -0.024448141
0.28143889 -0.032606035 -0.020017622
0.30660534 -0.034911312 -0.023921171
-0.2926625 -0.027703933 -0.025274539
-0.28370321 -0.024920022 -0.021521693
-0.28187057 -0.0021669425 -0.029290486
-0.2623806 -0.0021711867 -0.028426277
-0.24812615 -0.0070532025 -0.023756642
-0.11839178 -0.0021618318 -0.026451178
-0.10843916 -0.0024451981 -0.021126281
-0.07484971 -0.0019647158 -0.0292111
-0.035430793 -0.0022222057 -0.025150266
0.021575628 -0.0020884436 -0.027019838
0.038435191 -0.002174471 -0.025709748
0.042981163 -0.0018963303 -0.029980339
0.061437778 -0.0019032672 -0.029897559
0.16399041 -0.0022222986 -0.025020931
0.18627824 -0.00240384 -0.021940822
0.22185469 -0.0021559207 -0.026592478
0.31046975 -0.00360267 -0.023000788
0.26862335 0.000181604 -0.026847225
0.33691522 0.0031553023 -0.029155124
-0.36527207 0.010665604 -0.025698083
-0.32537121 0.014926746 -0.020765087
-0.30807585 0.012889794 -0.028532635
-0.19576797 0.011924344 -0.024744196
-0.16332155 0.012174534 -0.028432747
-0.14010406 0.012151894 -0.027963275
-0.037659463 0.012305278 -0.029840402
0.015271364 0.012315208 -0.029809723
0.03646965 0.012269498 -0.029087381
0.043283649 0.012200591 -0.027998481
0.054466084 0.012074852 -0.026011474
0.07579045 0.012222655 -0.028347166
0.12873387 0.012067131 -0.025889454
0.23490861 0.0118329 -0.020861229
0.252215 0.012471941 -0.023573004
0.284843 0.01187641 -0.02444003
0.29177704 0.012574658 -0.026223294
0.32518321 0.014994436 -0.023991007
0.35101482 0.021411214 -0.022377342
0.36519492 0.025584543 -0.028401535
-0.39621812 0.034683798 -0.023016
0.39459667 0.034808151 -0.024946161
0.40686378 0.038347676 -0.026399281
-0.46475214 0.046728045 -0.027949516
-0.47694743 0.052848749 -0.023251887
-0.47010028 0.062953308 -0.028609015
0.29618675 -0.043500599 -0.012847196
-0.26966956 -0.0023792235 -0.011204556
-0.17497215 -0.0024707583 -0.01097548
-0.13638547 -0.002456289 -0.016681621
-0.081607118 -0.0024348961 -0.016023038
-0.0079947151 -0.0024066246 -0.01141672
0.0032433367 -0.00240384 -0.017258938
0.085507691 -0.00240384 -0.015882535
0.092172891 -0.00240384 -0.016727967
0.20564288 -0.00240384 -0.012504891
0.21427579 -0.00240384 -0.017543346
0.26402932 -0.0036883787 -0.017291466
0.29949886 0.000181604 -0.019797523
-0.17894995 0.011764747 -0.016587004
-0.15340316 0.01177427 -0.017553177
-0.14085099 0.011779059 -0.017849265
-0.12465188 0.011785463 -0.011810899
-0.11986762 0.011787489 -0.01262627
-0.074192092 0.011805018 -0.013540838
-0.051345341 0.011813471 -0.012347439
-0.03857626 0.011818323 -0.011114365
0.064642094 0.0118329 -0.013722463
0.094489604 0.0118329 -0.012320436
0.23466802 0.0124249 -0.018052865
0.30113888 0.01283549 -0.018381353
0.37626261 0.028933266 -0.014829369
-0.44450748 0.037787393 -0.010683523
-0.38387969 0.03065482 -0.013343949
0.38789123 0.032612003 -0.013806256
0.39335793 0.034386437 -0.011334352
-0.42688712 0.045350134 -0.012462322
0.42830452 0.045865208 -0.01451866
-0.47113627 0.06370993 -0.011646251
-0.46907634 0.06276153 -0.013574847
-0.27458161 -0.045047358 -0.0096528418
0.3030985 -0.042060539 -0.0023241909
-0.27028787 -0.033211481 -0.0017332518
-0.31790227 -0.0003996446 -0.0067868577
-0.28886402 -0.00304328 -0.0031681298
-0.2155192 -0.0024860627 -0.0031461949
-0.20469978 -0.0024821735 -0.005412288
0.018559748 -0.00240384 -0.0053891195
0.072287694 -0.00240384 -0.0019819885
0.15680042 -0.00240384 -0.0058981199
0.16751328 -0.00240384 -0.0062830742
0.17899066 -0.00240384 -0.0087683648
0.28386545 -0.0085156001 -0.0040809615
-0.35910815 0.0087940367 -0.0092448508
-0.34179938 0.0040135249 -0.0091254935
0.32975262 0.0015167538 -6.1243132e-05
-0.32378432 0.014709819 -0.0083108004
-0.30869538 0.012825621 -0.00070267869
-0.28756016 0.011911916 -0.0030965561
-0.19892778 0.011757219 -0.0020772712
-0.021380235 0.011825067 -0.0096111074
0.11421066 0.0118329 -0.0014881678
0.13811859 0.0124249 -0.0090935314
0.17695633 0.0124249 -0.000992015
0.26598179 0.0118329 -0.0094633475
0.31528151 0.013520798 -0.0061800424
-0.40180832 0.02231472 -0.0035194345
0.3673026 0.02589751 -0.0066430885
0.40538123 0.023566164 -0.0013649417
0.4102264 0.025228744 -0.0072085261
-0.42545992 0.030596782 -0.0020651408
0.396052 0.034683697 -0.0028695927
0.40345111 0.037152536 -0.0098279258
-0.42536169 0.044799976 -0.0063826935
-0.26582855 -0.041301537 0.0066844542
-0.29786149 -0.039670926 0.004085592
-0.26736167 -0.024934784 0.0034457808
0.26131341 -0.023038521 0.0093830274
0.27902311 -0.026482128 0.0066303164
0.28016472 -0.027556919 0.0011098837
-0.32058537 -4.8587153e-05 0.006855418
-0.29671165 -0.0021586984 0.0042201672
-0.23200995 -0.0024926565 0.0090340832
-0.20360354 -0.0024817523 0.0059717922
-0.10564794 -0.0024441262 0.0011985305
0.085349955 -0.00240384 0.0054900418
0.27501085 -0.00240384 0.0063509084
0.29346031 -0.0023260014 0.0012256233
0.31379822 -0.00090191845 0.0044174055
0.29398838 0.000181604 0.0010143998
-0.31060755 0.012996151 0.0074814893
-0.30571485 0.012575037 0.0090919752
-0.28842789 0.011914555 0.005579601
-0.23870011 0.011763305 0.0086948853
-0.14627454 0.011776997 0.0031444486
0.12808493 0.0118329 0.0014659693
0.14982651 0.0118329 0.0019258827
0.19917321 0.0118329 0.006246523
0.20776428 0.012424899 0.0010437313
0.23896006 0.0118329 0.0034545492
0.27480716 0.0118329 0.0047563696
0.31306586 0.013849966 0.00098204706
0.36628085 0.011057626 0.00256122
-0.35908875 0.023026172 0.0093431128
0.35558844 0.022135098 0.0098935347
0.38206816 0.030753464 0.0060271751
0.40396929 0.03733106 0.0057618502
0.41780281 0.042695995 0.00070533995
0.47077018 0.049382344 0.0071524079
-0.44024304 0.050336715 0.0022471221
0.44055092 0.050451469 0.0062614135
0.47977844 0.06175071 0.0085318265
-0.27685681 -0.045673035 0.010360731
0.27253747 -0.032014981 0.010867522
0.28111389 -0.039718147 0.018246539
0.26563165 -0.020239152 0.011463327
0.26758036 -0.019716907 0.011045689
-0.28638986 -0.00682755 0.018213203
-0.23935795 -0.0024714014 0.013633058
-0.18463954 -0.0024744738 0.012145353
-0.1550919 -0.0024632895 0.015251957
-0.064184733 -0.0024284604 0.018364564
0.021794003 -0.00240384 0.015423251
0.077583872 -0.00240384 0.014323654
0.18117483 -0.00240384 0.010149186
0.20012082 -0.00240384 0.019135376
0.22144574 -0.00240384 0.015973834
0.2508201 -0.00240384 0.018035697
0.2616623 -0.0085092448 0.015736923
0.28038228 -0.0085156001 0.010577509
0.31307244 -0.004251136 0.011693249
-0.33603245 0.0026988154 0.01920848
-0.37822449 0.014620801 0.014049293
-0.36402419 0.010258917 0.017862642
-0.312085 0.013154838 0.018057259
-0.19248709 0.011759517 0.011830217
-0.16825667 0.011768778 0.013946531
-0.083442435 0.011801244 0.011462849
-0.072365977 0.01180579 0.019888988
-0.064038798 0.011808835 0.011062156
-0.022205962 0.011824718 0.011750338
0.021758638 0.0118329 0.010041201
0.055955738 0.0118329 0.013279115
0.15534896 0.0118329 0.016488018
0.17429489 0.012424899 0.011469443
0.21488461 0.0121289 0.01710736
0.22222602 0.0124249 0.016171563
0.23920316 0.012424899 0.019997897
0.31270453 0.01381225 0.018382914
0.33228084 0.016453132 0.015582505
0.37653026 0.014188279 0.019232608
0.34820941 0.020037971 0.017575108
0.352467 0.021236099 0.016782526
0.40596253 0.038305081 0.016422164
-0.45669159 0.042869728 0.011749322
-0.42833558 0.045880668 0.014884948
0.42594999 0.045599177 0.014844065
0.45981801 0.044304453 0.014733622
-0.48021635 0.059052981 0.011890154
0.44929025 0.053959079 0.011083696
0.47951925 0.056250926 0.017398667
-0.46556228 0.061139297 0.017743131
-0.27504417 -0.044888232 0.026981428
-0.29494482 -0.036362201 0.02782831
-0.27877903 -0.028313138 0.027687218
0.30203202 -0.024331063 0.028220633
-0.31575102 -0.00047374444 0.02963192
-0.29404432 -0.00682755 0.022271715
-0.16631104 -0.0024677804 0.020832108
-0.15019763 -0.0024612923 0.021205612
0.074930713 -0.0021819838 0.025613185
0.10575653 -0.00240384 0.022095416
0.11018515 -0.0023514067 0.02300314
0.19311473 -0.0022234761 0.025013888
0.23932275 -0.0021326938 0.027739074
0.2748417 -0.003003255 0.024341533
-0.33654624 0.0028361748 0.023072025
0.28728545 0.000181604 0.025882864
0.30531067 0.000181604 0.023694472
-0.32099903 0.014271996 0.022997251
-0.28810155 0.011999561 0.026424764
-0.27118564 0.011862112 0.021038186
-0.19503829 0.011758657 0.020972835
-0.16570961 0.011769636 0.021967649
-0.11388126 0.01218855 0.028399538
0.031776469 0.011980185 0.02451849
0.067661203 0.0118329 0.021801271
0.1490452 0.012147961 0.027169779
0.15519196 0.012105033 0.026491396
0.16965143 0.0118329 0.022022543
0.17287619 0.012195375 0.027919039
0.1845488 0.0124249 0.021356381
0.24337184 0.012669873 0.028124265
0.30509678 0.01323751 0.029195812
0.32748035 0.015442531 0.025780916
-0.42064267 0.028933056 0.025806122
0.41071948 0.02543328 0.026648737
-0.437549 0.035124175 0.023233937
0.43703562 0.049098626 0.022128109
-0.47638437 0.052606083 0.025001291
0.29249954 -0.023374833 0.03063447
-0.31260923 -0.00076100871 0.032380562
-0.24199542 -0.0017042047 0.037417196
-0.22844253 -0.0014119283 0.039372653
-0.19374987 -0.0012828151 0.039626509
-0.13031957 -0.0013347353 0.038753666
-0.092870384 -0.0017828838 0.032002807
-0.080283254 -0.0019034226 0.030162742
-0.0078822952 -0.0017377435 0.032418396
0.052875597 -0.0016927756 0.033127412
0.072414517 -0.0013333412 0.038703706
0.093842246 -0.0013734435 0.03812892
0.14610484 -0.001841617 0.030938555
0.16867706 -0.0013132095 0.039210107
0.22876674 -0.001549241 0.03804443
0.24829885 -0.0020205614 0.031436406
0.25267899 -0.00057729892 0.031692728
0.27336341 -0.0025466091 0.032735299
-0.32965988 0.0017032494 0.030976197
0.29778454 0.000181604 0.031229172
0.32544541 0.00098961696 0.031311512
-0.31187552 0.013459506 0.037445363
-0.2648077 0.01212474 0.031610969
-0.24040136 0.012409171 0.036173791
-0.19210488 0.012461977 0.033010457
-0.12382882 0.012839364 0.0385773
-0.024453644 0.012385893 0.03104512
0.19513419 0.012927554 0.034811795
0.22294573 0.013078344 0.033871345
0.26984704 0.012749916 0.034393802
0.2727927 0.012184186 0.035374481
0.30397889 0.012757379 0.037633631
0.32710242 0.015589282 0.034045007
0.35486037 0.022316031 0.031535771
0.36658069 0.026048357 0.038950223
-0.38736063 0.031800319 0.030935986
0.39929774 0.03581211 0.031852864
-0.4686389 0.048703536 0.033103734
-0.43808341 0.049970306 0.036788344
0.41968432 0.042962573 0.03550943
-0.460646 0.059439577 0.03898187
0.44362849 0.052069116 0.032939062
-0.27841097 -0.046100516 0.049702633
0.29858261 -0.025735389 0.04992003
-0.15234004 -0.00068004202 0.04842408
-0.13423355 -0.0011691024 0.041230042
-0.07712511 -0.0011855987 0.040929541
-0.058764193 -0.00070238032 0.048165776
0.042719059 -0.00098873605 0.043935042
0.057752728 -0.00073612737 0.047876183
0.1358058 -0.00079421344 0.04721535
0.28425428 -0.0018108969 0.049520195
0.30635697 -0.00123005 0.0429096
-0.38122839 0.015768062 0.047825109
-0.13398334 0.013558694 0.049781516
-0.10870495 0.012979887 0.040700499
-0.086619645 0.013187679 0.043873306
-0.015946671 0.013124345 0.04265672
0.018331245 0.013328105 0.045819096
0.16259922 0.013399417 0.046946008
0.23507009 0.013149483 0.049272269
0.26757967 0.012973655 0.042794097
0.27900213 0.012361941 0.04957372
0.34653497 0.019957775 0.044699408
-0.37016946 0.02644716 0.045331549
0.38505578 0.031774063 0.042454075
0.40047002 0.036901601 0.049701512
-0.46491003 0.047402516 0.044892013
0.4124538 0.041048396 0.044901442
-0.44767922 0.054128252 0.044177629
0.4663915 0.057524368 0.047684766
-0.28484499 -0.046726 0.057139724
-0.27870446 -0.046181243 0.056166805
0.29721686 -0.043188326 0.055448513
-0.31156686 -0.00034353376 0.053543009
-0.27709368 -0.0013993932 0.058325753
-0.2520726 -0.00083948846 0.059352975
-0.11289055 -0.00015788409 0.056228321
0.0078128921 -0.000539614 0.050720185
0.074366033 -3.7528283e-05 0.058704764
0.090799958 -3.9688683e-05 0.058745816
0.13297418 -0.00030470337 0.054813892
0.15704846 -0.00011438046 0.057877455
0.18947923 -0.00025256613 0.055860724
0.25703475 -0.0013063455 0.05443221
0.26003161 -0.001438744 0.051409326
0.2724835 -0.0016588551 0.053017575
0.28988332 -0.0014221799 0.059081625
-0.34822062 0.0062769549 0.051484335
-0.21854499 1.7979182e-06 0.059986759
-0.20786807 5.0436691e-05 0.059000805
0.33523232 0.0034076087 0.054980487
0.34255341 0.0049034562 0.051134158
-0.31668225 0.01447453 0.056551307
-0.26773608 0.012900316 0.059649162
-0.17967676 0.014101965 0.058258817
-0.13327187 0.013597613 0.050381519
-0.023977103 0.013832869 0.053836025
-0.0069762468 0.013988266 0.056266036
0.0012514879 0.01375136 0.052507613
0.020270739 0.014011092 0.056612045
0.058355782 0.013799442 0.053267442
0.087272823 0.013892949 0.054745104
0.11780091 0.013881858 0.05456984
0.13938682 0.014394895 0.053325932
0.16342063 0.014473501 0.05768257
0.18753313 0.014684749 0.057902448
0.22083332 0.014104124 0.052207224
0.24662584 0.013158791 0.054304134
0.27082527 0.013160774 0.050404508
0.29211006 0.013295431 0.05247001
0.32994479 0.017228922 0.054915033
-0.39575943 0.020569578 0.050493032
-0.35280994 0.021543132 0.052003641
-0.40058821 0.036300033 0.052550264
0.39028782 0.03289384 0.050875437
0.44522345 0.053978141 0.057274602
-0.28094637 -0.035397813 0.063942485
0.28955647 -0.035957064 0.066718698
0.25883007 -0.00103386 0.064433865
-0.33334219 0.003368628 0.063999258
-0.32663566 0.0021267431 0.062958986
-0.24570583 9.9744822e-05 0.069826923
-0.2188293 8.6212254e-05 0.061430622
-0.17409644 0.00079106994 0.067526452
-0.145386 0.00017584724 0.061063249
0.036212642 0.0011503255 0.069299869
0.054666728 0.00013790341 0.061319552
0.10689159 0.00073546084 0.066877946
0.20356983 0.00032807988 0.065032654
-0.38126701 0.015892562 0.062000416
-0.24665006 0.013645479 0.066174656
-0.18331891 0.014292764 0.061199345
-0.070111096 0.014926268 0.06788408
-0.036525276 0.01462208 0.066269159
0.094096072 0.015064582 0.068519086
0.16776907 0.015253775 0.069388777
0.1951506 0.015064944 0.063910507
0.26027045 0.013491681 0.069959648
0.30652142 0.01419476 0.067065373
0.37050462 0.012495847 0.06293346
-0.37551701 0.028150469 0.062711082
-0.34887132 0.020795383 0.066670753
0.37704584 0.029360263 0.067295305
-0.4027296 0.037080176 0.061279602
0.40371695 0.038116593 0.064194359
-0.41805524 0.042711332 0.066512913
0.43488246 0.049201209 0.06150189
-0.45240372 0.054186895 0.064499572
0.44007182 0.052071974 0.067404658
0.45237273 0.051634248 0.067102209
-0.28411579 -0.048225999 0.073338747
-0.28807336 -0.025640175 0.073627345
0.27150339 -0.00069643481 0.074435808
-0.34505486 0.0062732869 0.071765125
-0.2643218 9.4514369e-05 0.077568159
-0.23247252 0.0023340895 0.079991922
-0.17140278 0.0023330727 0.073921636
-0.16766965 0.0023591788 0.074035652
-0.1143816 0.0026522845 0.075308762
-0.089395925 0.00328353 0.077946976
-0.044724144 0.0023894173 0.074305065
0.090546057 0.0014372271 0.070552044
0.12324336 0.0020557365 0.073129147
0.18919951 0.0029843948 0.07752227
-0.36901283 0.012537332 0.072488233
-0.30843568 0.01413585 0.079528175
-0.25111625 0.014051598 0.071161285
-0.17282061 0.016553331 0.075395606
-0.028880471 0.015987068 0.072774753
0.1053329 0.017418191 0.079357177
0.13547683 0.015816772 0.071981579
0.19524367 0.0155622 0.071124732
0.24414317 0.014358101 0.071467929
0.29078984 0.013217046 0.071844772
0.32622415 0.017348917 0.078326203
0.33808506 0.018715959 0.070283577
-0.3744761 0.028272608 0.075310156
0.35857534 0.023568615 0.070634358
0.36240458 0.025407098 0.074794166
-0.40612543 0.03879942 0.077652171
0.42663366 0.032240383 0.073840603
0.41144112 0.041186236 0.073131874
-0.26965022 -0.063324541 0.084848806
-0.25733128 -0.05252704 0.081352159
0.28690815 -0.05430156 0.082475647
0.29376742 -0.050821044 0.081099488
-0.27856767 -0.044236932 0.086360514
0.29253876 -0.043762777 0.081269018
0.26492551 -0.037130799 0.086042821
0.28738168 -0.034299195 0.081993915
0.29025149 -0.036887247 0.088495225
-0.29801869 -0.017771116 0.08156848
0.27964351 -0.013002926 0.084604248
-0.27264649 9.3050359e-05 0.083436832
-0.21209548 0.0042158803 0.08410877
-0.15975347 0.0060802046 0.089460269
-0.02510269 0.0039186436 0.080628276
-0.015952148 0.0048039816 0.084286772
0.02978031 0.0059373761 0.088974215
0.076465942 0.0048383088 0.084491655
0.13076556 0.0061325496 0.089834444
0.1674332 0.0051880218 0.08598882
0.2243342 0.0029413751 0.081953205
0.30800039 0.00088173611 0.088943169
0.32538587 0.0032283082 0.087939888
-0.37806901 0.015916418 0.082568519
-0.3271752 0.017325686 0.089453168
-0.26619819 0.014634521 0.085594051
-0.24046545 0.016671017 0.086675256
-0.097376093 0.018923944 0.086325638
-0.05146873 0.018582528 0.084743232
-0.033904627 0.018872358 0.086077847
0.0089683495 0.018844234 0.085939467
0.13250194 0.019006258 0.086665601
0.20230025 0.017351229 0.080969371
0.25141174 0.016574986 0.08797659
0.26513606 0.015385108 0.087938517
0.34975454 0.022131935 0.084739327
0.36944428 0.027442809 0.087543257
0.41398603 0.042249955 0.084422499
-0.29442954 -0.060985629 0.094611749
0.28705829 -0.061807111 0.099728279
0.27477604 -0.057509176 0.092549965
-0.307403 -0.037906542 0.094030656
-0.25186241 -0.038372837 0.0964479
0.29592013 -0.0072819605 0.090105414
-0.12201111 0.0068437341 0.092640139
-0.091466129 0.0084534343 0.099302292
-0.020983495 0.0075342366 0.095530018
0.010919228 0.006938403 0.093084432
0.083936624 0.0086041102 0.099949524
0.12967633 0.0072830603 0.094547018
0.28312653 0.00042412351 0.09335953
0.31257427 0.0016973382 0.093992099
0.32193494 0.002792801 0.090052515
-0.38118619 0.017499052 0.092807047
-0.29956633 0.014322097 0.097303241
-0.28095412 0.013967771 0.095082507
-0.23677123 0.018131146 0.096282169
-0.090803728 0.019930793 0.090968616
0.21561098 0.018834289 0.090933084
0.24735358 0.017413363 0.098879978
0.25476718 0.017071817 0.095872819
0.2676174 0.014597731 0.090009369
0.37512273 0.015603817 0.092280895
-0.14911383 0.021758201 0.099414259
-0.085605755 0.020746004 0.094727553
-0.074950367 0.021875098 0.099932469
-0.023108549 0.021234183 0.096962869
0.024565067 0.020841904 0.095142521
0.10165239 0.020220714 0.092262886
0.16577932 0.021607289 0.095908061
0.18361938 0.021765087 0.097097859
0.34758821 0.021971177 0.091177769
-0.41117483 0.038310274 0.097192474
0.37685642 0.030733489 0.098163284
-0.29045981 -0.043930657 0.10715389
-0.27822158 -0.040810164 0.10070319
-0.28293067 -0.031636827 0.10241306
-0.29264098 -0.0208393 0.10422983
0.30277404 -0.0097766165 0.10322125
-0.34653848 0.0091939652 0.10687538
-0.2361736 0.0059602987 0.10293676
-0.19214675 0.0085004736 0.10113387
-0.12903734 0.0090616532 0.10181082
-0.0042600376 0.0092924088 0.10277204
0.094035134 0.0090061249 0.1016005
0.15363368 0.0094894068 0.10358375
0.18958689 0.0085734278 0.1012442
0.19796242 0.0092294645 0.10530549
0.23458941 0.0062579587 0.10397802
0.24674377 0.004464807 0.1015145
-0.38298723 0.0188783 0.10380177
-0.15662417 0.010740047 0.10876111
-0.073455714 0.010199748 0.10651393
-0.0090690246 0.010994584 0.10978017
0.024369968 0.010434382 0.107469
0.19810145 0.010058123 0.10902685
0.26533937 0.016917221 0.10971588
0.28622115 0.014863484 0.10416524
0.2998403 0.014504627 0.10342464
0.32830539 0.018888038 0.10533528
-0.3746022 0.029651664 0.10198269
-0.35505092 0.024365349 0.10154083
-0.18560323 0.021804288 0.10029042
-0.12142348 0.022490505 0.10278503
-0.088853262 0.023928054 0.10940547
-0.059510879 0.023032257 0.10526221
0.01437928 0.023050835 0.1053247
0.02696375 0.022617079 0.10332184
0.054271568 0.023347143 0.10667661
0.063050352 0.023675617 0.10818794
0.12552781 0.02292682 0.1047191
0.14097729 0.023817614 0.10881497
0.16369927 0.02254146 0.10020921
0.20266691 0.022509165 0.10707796
0.33987918 0.021708503 0.10891373
0.2824806 -0.026118573 0.11379922
-0.29513392 0.0065652593 0.11833357
0.23009518 0.0082542049 0.1128075
0.27691105 0.0045284741 0.11745069
0.3176969 0.0034728302 0.11140053
-0.36330232 0.017526574 0.11462
-0.15459248 0.017234011 0.118343
-0.099763855 0.011677652 0.11262438
-0.064414263 0.01728553 0.11834301
0.04125946 0.011695631 0.1126509
0.062017784 0.015251686 0.11442621
0.08825323 0.013187124 0.11651459
0.14086711 0.012691024 0.1158876
0.1774535 0.01962382 0.118344
0.18436682 0.016745305 0.118343
0.22958857 0.011280647 0.11767876
0.31189734 0.012772141 0.1177566
0.33628863 0.017302096 0.1173764
0.34234858 0.014169915 0.11760993
-0.087334618 0.024308041 0.11115748
-0.057516981 0.024392378 0.11447048
0.030765908 0.023810457 0.11575935
0.041639213 0.023287073 0.11586205
0.14792158 0.021827351 0.1176709
0.16584924 0.024341626 0.11121666
0.23554316 0.020667214 0.11332595
