# .PCD v0.7 - Point Cloud Data file format
VERSION 0.7
FIELDS x y z
SIZE 4 4 4
TYPE F F F
COUNT 1 1 1
WIDTH 915
HEIGHT 1
VIEWPOINT 0 0 0 1 0 0 0
POINTS 915
DATA ascii
-0.22914061 -0.084730342 -0.141436
-0.23938438 -0.07632643 -0.141436
-0.20842773 -0.035965547 -0.141436
-0.19918187 -0.037406728 -0.141436
-0.21087122 -0.096202083 -0.13012011
-0.21696985 -0.087768652 -0.13083938
0.28113326 -0.089639008 -0.13593839
0.25510752 -0.07435938 -0.13357213
-0.2476725 -0.062783927 -0.13522838
-0.23737609 -0.06074274 -0.13676515
0.29020119 -0.066727266 -0.13335398
-0.22013295 -0.041066561 -0.13031361
-0.23533055 -0.036474336 -0.13655913
0.279091 -0.090485074 -0.12396589
-0.23112512 -0.080741413 -0.12730306
-0.22602297 -0.084826678 -0.12460534
0.25273836 -0.084569916 -0.12638405
-0.19421613 -0.077666789 -0.12382787
0.2975702 -0.073904343 -0.12985975
-0.24702358 -0.068236768 -0.1276124
0.29909474 -0.055605534 -0.12868726
-0.23955652 -0.040404473 -0.1297726
0.26039594 -0.04845345 -0.12180451
0.27921483 -0.035251949 -0.12681906
-0.22126901 -0.029503543 -0.12211075
-0.20540853 -0.029591933 -0.12103553
-0.21241194 -0.087989934 -0.11973222
-0.22582915 -0.067842171 -0.11745499
-0.20456821 -0.05096297 -0.117455
-0.20115283 -0.04935503 -0.117455
-0.18582575 -0.04324507 -0.11714021
0.26417032 -0.035000343 -0.11152319
-0.29376522 -0.020546533 -0.110109
-0.21110192 -0.028804705 -0.11407448
0.34719163 -0.020997133 -0.110109
-0.27786881 -0.011274399 -0.110109
-0.26301813 -0.01737158 -0.110109
-0.24105412 -0.017282631 -0.110109
-0.149638 -0.017287383 -0.110109
-0.13292053 -0.016323464 -0.110109
0.043089945 -0.0160369 -0.110109
0.10017513 -0.015563844 -0.110109
0.14402115 -0.012533432 -0.110109
0.16670071 -0.017535472 -0.110109
0.17829138 -0.016767064 -0.110109
0.23462313 -0.012291715 -0.110109
0.24688207 -0.011012924 -0.110109
0.33155292 -0.015716143 -0.110109
0.022961281 -0.0072243423 -0.110109
-0.42049739 0.052354306 -0.110109
0.260638 -0.084694475 -0.10580352
-0.18266122 -0.075615101 -0.10036977
0.2446233 -0.052620307 -0.10048016
-0.2296427 -0.046347708 -0.10080938
-0.18585318 -0.043212589 -0.1017084
0.27148664 -0.04517987 -0.10292954
-0.19848219 -0.032087039 -0.10942333
0.2658467 -0.035004184 -0.10764635
-0.28215131 -0.0210327 -0.10392139
-0.2748228 -0.0210327 -0.10212123
-0.24193591 -0.0210327 -0.10914099
-0.045344174 -0.0210327 -0.10008423
-0.017025895 -0.0210327 -0.10563885
0.1616054 -0.0210327 -0.10014649
0.3328031 -0.0210327 -0.10947415
0.34367278 -0.0210327 -0.10250261
-0.34731555 -0.018432748 -0.10315032
-0.34312904 -0.0099476352 -0.10535352
-0.21298668 -0.0066444702 -0.10095061
-0.14915192 -0.0066444702 -0.10235656
-0.086379349 -0.0066444706 -0.10234854
-0.066305742 -0.0066444706 -0.10756519
0.0057318211 -0.0066444702 -0.10810386
0.039776698 -0.0066444706 -0.10624167
0.060027197 -0.0066444702 -0.10237293
0.070538834 -0.0066444702 -0.10282023
0.085255817 -0.0066444702 -0.10425268
0.11140364 -0.0066444702 -0.10288427
0.28664023 -0.0066444702 -0.10317644
0.29080176 -0.0066444702 -0.1061765
0.35334721 -0.0066444702 -0.10010237
-0.39087707 0.01780894 -0.1059107
0.40767044 0.028753521 -0.10035386
0.41543442 0.026596023 -0.10535663
-0.41100645 0.035085652 -0.10413219
0.40943539 0.03019765 -0.10080313
0.42350316 0.03090422 -0.10010774
-0.41378579 0.056432415 -0.10060847
-0.22584835 -0.084960662 -0.099150471
-0.20422636 -0.088869438 -0.098270297
0.26963407 -0.088430375 -0.098321602
0.27582341 -0.087137155 -0.098321602
-0.24519379 -0.071310185 -0.098270297
0.29325318 -0.077955909 -0.098321602
-0.23869443 -0.064203709 -0.098270297
-0.22514436 -0.042892396 -0.098270297
0.28743905 -0.049732197 -0.098321602
0.2612581 -0.037940223 -0.098321602
-0.30911091 -0.0210327 -0.097124785
-0.29363456 -0.021032702 -0.093047753
-0.27939162 -0.021032702 -0.097659141
-0.031677388 -0.0210327 -0.094823524
0.030911513 -0.0210327 -0.096223831
0.084455833 -0.0210327 -0.09079802
0.16550507 -0.0210327 -0.098666996
0.18176436 -0.021032698 -0.095510393
0.2445959 -0.021032698 -0.095719106
0.2928564 -0.0210327 -0.094351485
0.3283706 -0.0210327 -0.099553838
-0.25994015 -0.0066444702 -0.097432591
0.099855542 -0.0066444697 -0.092139155
0.17069718 -0.0066444706 -0.096896157
0.18500283 -0.0066444702 -0.092051715
0.2346908 -0.0066444702 -0.097507626
0.31141356 -0.0066444702 -0.092582226
0.32258096 -0.0066444702 -0.091981113
0.35542482 -0.0066444702 -0.094981372
-0.3518452 0.0032697348 -0.090877652
-0.39413172 0.039563634 -0.09678328
-0.41162136 0.054574739 -0.097004071
-0.42110741 0.062716641 -0.094829634
0.26873761 -0.083179057 -0.086566307
-0.23551787 -0.074018449 -0.083443411
-0.19133908 -0.071980178 -0.089320682
0.28516555 -0.077173807 -0.080501288
-0.18992503 -0.063773401 -0.080603763
-0.22392501 -0.04263708 -0.088082708
0.26736832 -0.045556068 -0.083158024
-0.2511391 -0.0210327 -0.083928943
-0.24193822 -0.0210327 -0.082831696
-0.21323416 -0.0210327 -0.082795054
-0.20974652 -0.0210327 -0.084750466
-0.15308446 -0.0210327 -0.080586433
-0.061265703 -0.021032702 -0.08798442
-0.024131382 -0.0210327 -0.08381696
0.053770073 -0.0210327 -0.086982518
0.19369452 -0.0210327 -0.089175291
0.21630546 -0.0210327 -0.082427949
0.22306395 -0.0210327 -0.085726336
0.27790871 -0.0210327 -0.08821778
0.30717537 -0.021032702 -0.088688023
0.31949419 -0.0210327 -0.080366768
0.35847804 -0.0210327 -0.081778929
-0.34329706 -0.010143414 -0.089104779
-0.36687306 -0.0027933791 -0.080124468
-0.34102401 -0.0060179075 -0.083593465
-0.31753466 -0.0066444702 -0.083403856
-0.2725746 -0.0066444702 -0.0847141
-0.25512993 -0.0066444702 -0.084835134
-0.17665008 -0.0066444702 -0.085115448
-0.13136101 -0.0066444702 -0.086971559
-0.093406081 -0.0066444706 -0.083820529
-0.0019570589 -0.0066444702 -0.080893472
0.018844768 -0.0066444706 -0.088675737
0.14754491 -0.0066444702 -0.085751161
0.1625181 -0.0066444702 -0.086982891
0.23520412 -0.0066444702 -0.088123314
0.29576409 -0.0066444702 -0.087261371
0.34455466 -0.0066444702 -0.085333169
0.36166751 -0.008885026 -0.080796726
-0.38041139 0.0088263741 -0.08208023
-0.39861035 0.024446266 -0.087488927
-0.4153448 0.038809232 -0.08845415
0.43977016 0.036426123 -0.084484257
0.43704987 0.044188373 -0.084501475
-0.42798588 0.068620555 -0.088420875
-0.2370251 -0.058076426 -0.072948433
-0.19463995 -0.050177943 -0.071140192
0.28481579 -0.050894961 -0.077994764
-0.20490676 -0.0210327 -0.07403186
-0.18900131 -0.021032702 -0.078421623
-0.053787991 -0.0210327 -0.071457304
0.11875062 -0.0210327 -0.077282399
0.12296309 -0.0210327 -0.07726945
0.17176777 -0.0210327 -0.075218
0.19919632 -0.0210327 -0.077540524
0.2048263 -0.0210327 -0.076187789
0.27698323 -0.0210327 -0.073611356
0.28481337 -0.0210327 -0.070948213
-0.35101575 -0.016403472 -0.076776288
-0.34449959 -0.011544487 -0.079533577
0.36770451 -0.018786831 -0.070878163
-0.31043378 -0.0066444702 -0.078561097
-0.28587118 -0.0066444702 -0.079518899
-0.26062387 -0.0066444706 -0.071042158
-0.11986578 -0.0066444702 -0.072349049
-0.1072907 -0.0066444702 -0.076992258
-0.086057276 -0.0066444697 -0.07495752
-0.060469911 -0.0066444702 -0.070856385
-0.0046388134 -0.0066444706 -0.070364252
0.096947163 -0.0066444702 -0.072276793
0.11513738 -0.0066444706 -0.074719414
0.13762553 -0.0066444702 -0.070758007
0.14732422 -0.0066444697 -0.079354137
0.21323849 -0.0066444702 -0.072074674
0.2286765 -0.0066444697 -0.072616674
0.33079159 -0.0066444702 -0.079632394
0.38570857 -0.0078056101 -0.074281573
-0.40223491 0.027557215 -0.073536798
0.43747655 0.053140074 -0.076417103
-0.19339952 -0.075403579 -0.065891676
-0.21365719 -0.0402431 -0.06504076
-0.30144802 -0.0210327 -0.067358352
-0.28941739 -0.021032702 -0.062802993
-0.27587804 -0.0210327 -0.068235219
-0.21320486 -0.0210327 -0.063523442
-0.20699158 -0.0210327 -0.06755653
-0.13014653 -0.021032702 -0.067895211
-0.11351569 -0.0210327 -0.060269736
-0.048502609 -0.0210327 -0.064709239
0.0312883 -0.0210327 -0.068613857
0.07038679 -0.021032698 -0.069895804
0.12151474 -0.0210327 -0.060247906
0.15712892 -0.0210327 -0.06780722
0.16114464 -0.0210327 -0.063822202
0.17557463 -0.021032698 -0.068272218
0.20293148 -0.0210327 -0.060924109
0.27703226 -0.0210327 -0.069727518
0.2865178 -0.0210327 -0.06167376
0.32981512 -0.0210327 -0.062148876
0.344859 -0.0210327 -0.064758226
-0.29504454 -0.0066444706 -0.066317737
-0.11175844 -0.0066444702 -0.0687536
-0.036625266 -0.0066444702 -0.065319873
0.17284575 -0.0066444702 -0.066211961
0.21679673 -0.0066444702 -0.060551696
0.28710091 -0.0066444706 -0.062333856
0.30256927 -0.0066444702 -0.069362588
0.362073 -0.0085532842 -0.068669558
-0.39491463 0.021274295 -0.062573798
-0.40442756 0.048400398 -0.069295771
0.44144776 0.056389075 -0.062478807
-0.44272888 0.062312856 -0.065469436
-0.42779967 0.068460725 -0.064217374
-0.45297092 0.071103781 -0.060946777
-0.1936799 -0.051428799 -0.058638453
0.264184 -0.05503023 -0.057249125
0.27035257 -0.050091542 -0.059952099
0.264184 -0.049122043 -0.052161969
0.27966529 -0.047082573 -0.057702854
-0.31786031 -0.0210327 -0.053678695
-0.30690706 -0.021032702 -0.050486311
-0.26095361 -0.0210327 -0.057772834
-0.22386061 -0.0210327 -0.057481911
-0.21816337 -0.0210327 -0.057581283
-0.065949827 -0.0210327 -0.05919889
-0.018938297 -0.0210327 -0.057745706
0.031690996 -0.021032698 -0.05174968
0.096776336 -0.0210327 -0.050322518
0.21007685 -0.0210327 -0.05482804
0.25588354 -0.0210327 -0.052595153
0.26830551 -0.0210327 -0.053140976
0.31507874 -0.0210327 -0.050396644
0.36927938 -0.0210327 -0.058153562
-0.36641443 -0.0031869896 -0.050721511
-0.340294 -0.0094833877 -0.05121075
-0.24085131 -0.0066444706 -0.052210871
-0.041208804 -0.0066444706 -0.059734721
-0.015238352 -0.0066444706 -0.057071
0.18068197 -0.0066444702 -0.051242881
0.29046702 -0.0066444702 -0.058784626
0.31302232 -0.0066444697 -0.058700837
0.3879675 0.012632952 -0.05997733
0.41199493 0.013701224 -0.059940781
-0.37173474 0.020340651 -0.05501844
-0.43013734 0.051505424 -0.055158623
-0.41808999 0.060126703 -0.05433495
-0.45172611 0.08759331 -0.05373374
0.264184 -0.063449606 -0.043060735
-0.22856365 -0.049157634 -0.040624101
0.28560999 -0.031745035 -0.0419484
-0.29232624 -0.021032702 -0.044283278
-0.21791519 -0.0210327 -0.044552829
-0.15530345 -0.0210327 -0.047716696
-0.10702599 -0.0210327 -0.044693194
-0.086537488 -0.0210327 -0.045690402
0.15580633 -0.0210327 -0.041868567
0.19840071 -0.0210327 -0.04780731
0.22304857 -0.021032698 -0.041611038
0.24971321 -0.021032698 -0.043158911
0.26244453 -0.024838399 -0.040312596
0.29729661 -0.0210327 -0.045170918
-0.34360552 -0.018257754 -0.043248683
0.36434627 -0.014682183 -0.049259145
-0.30160049 -0.0066444706 -0.045656234
-0.26797217 -0.0066444702 -0.042953983
-0.21729444 -0.0066444706 -0.046686184
0.021196015 -0.0066444706 -0.04644122
0.090213433 -0.0066444706 -0.04416291
0.15575001 -0.0066444702 -0.041267611
0.20494564 -0.0066444702 -0.042822506
0.2150735 -0.0066444702 -0.044225186
0.30421907 -0.0066444697 -0.048429012
-0.34923863 0.001032575 -0.042132575
0.40465719 0.0076976563 -0.043587595
0.39944902 0.022026861 -0.045711868
-0.38447142 0.031272329 -0.040685877
-0.43973842 0.059745912 -0.046887726
-0.41056451 0.053667657 -0.041591845
-0.40761787 0.051138554 -0.04606501
0.46306646 0.055486973 -0.042215113
-0.43590599 0.075418569 -0.042986028
0.28926837 -0.07026796 -0.034554899
-0.22070372 -0.064198501 -0.031803802
0.25234526 -0.067115545 -0.031462539
-0.20186 -0.046992648 -0.034434747
-0.19520631 -0.049440026 -0.036708549
0.28560999 -0.034952596 -0.032524653
-0.3333405 -0.0210327 -0.037919506
-0.27522212 -0.0210327 -0.039584983
-0.23080702 -0.022388801 -0.037541576
0.0022738941 -0.0210327 -0.036606874
0.050418559 -0.021032702 -0.031133432
0.22386001 -0.0210327 -0.034207366
0.23058631 -0.0210327 -0.039319325
0.24619271 -0.0210327 -0.03240826
0.32371005 -0.0210327 -0.032183297
0.33068618 -0.0210327 -0.033608522
0.35363114 -0.0210327 -0.030567314
0.37650704 -0.015334114 -0.035756141
-0.31438449 -0.0066444702 -0.032940563
-0.30017194 -0.0066444697 -0.030455451
-0.2850965 -0.0066444697 -0.031667832
-0.19457756 -0.0066444702 -0.037433226
-0.16785936 -0.0066444706 -0.030910064
-0.15897954 -0.0066444702 -0.035134688
-0.14095393 -0.0066444702 -0.035891019
-0.095003478 -0.0066444706 -0.034143694
-0.08295849 -0.0066444702 -0.037443765
-0.018195704 -0.0066444702 -0.031267188
0.097333834 -0.0066444697 -0.031345207
0.17650358 -0.0066444702 -0.032592587
0.2706238 -0.0066444697 -0.03705164
0.36839831 -0.0066444702 -0.032684132
0.3722153 -0.00025508611 -0.031575605
0.39993122 0.0038310038 -0.03619517
0.39505386 0.018430829 -0.030984459
0.41860285 0.019107476 -0.030003037
-0.37227553 0.020804776 -0.039173517
0.42126691 0.021287033 -0.033946268
0.41161293 0.031979349 -0.035377283
-0.42820069 0.049843241 -0.036184128
0.4457089 0.041285235 -0.037641898
0.46428162 0.058973916 -0.032052107
-0.22207098 -0.086528085 -0.022766069
0.26166862 -0.080648609 -0.027749056
-0.20982511 -0.064198501 -0.020185161
-0.20185998 -0.054407977 -0.025358271
-0.19045871 -0.059724018 -0.024529837
0.264184 -0.05261562 -0.026898988
-0.20186 -0.040466249 -0.024778675
0.28560999 -0.047513884 -0.021548482
-0.23712409 -0.0210327 -0.026038736
-0.19944742 -0.0210327 -0.021141022
-0.15791941 -0.0210327 -0.020977054
-0.11671261 -0.021032698 -0.024841839
-0.077793978 -0.021032698 -0.023160353
-0.030763132 -0.0210327 -0.024331234
0.22072126 -0.0210327 -0.028116703
0.26952523 -0.021032702 -0.023586169
0.32291633 -0.0210327 -0.027078085
0.33100018 -0.0210327 -0.024621367
-0.340294 -0.012635838 -0.020481385
-0.32815176 -0.0066444706 -0.020448606
-0.28565997 -0.0066444706 -0.023761824
-0.25884986 -0.0066444702 -0.029581171
-0.17670602 -0.0066444702 -0.023536585
-0.1332985 -0.0066444697 -0.026408125
-0.12560219 -0.0066444706 -0.028181706
-0.10914908 -0.0066444697 -0.020184696
-0.077429831 -0.0066444702 -0.028705155
-0.045002013 -0.0066444702 -0.023257282
0.0095182657 -0.0066444702 -0.02000846
0.1078538 -0.0066444697 -0.029382339
0.11349691 -0.0066444697 -0.024095491
0.16440073 -0.0066444702 -0.028269487
0.21998939 -0.0066444702 -0.029387673
0.30414683 -0.0066444702 -0.024166074
0.312121 -0.0066444706 -0.0291517
0.36524582 -0.0081978114 -0.02547734
-0.3698869 0.018754676 -0.022602223
0.41327178 0.014745931 -0.02227433
-0.41220063 0.036110651 -0.023920568
-0.44065046 0.06052877 -0.029900938
0.46331012 0.062505737 -0.026967153
0.26619738 -0.082544647 -0.018890632
0.29025757 -0.063483804 -0.013245977
-0.21035342 -0.021032702 -0.014798261
-0.076303683 -0.0210327 -0.012895662
-0.0099853519 -0.0210327 -0.015745573
0.099834263 -0.0210327 -0.010778486
0.11951119 -0.021032698 -0.013327582
0.21059816 -0.0210327 -0.015473336
0.27436686 -0.0210327 -0.014906626
0.28560999 -0.024646312 -0.010277923
0.33217981 -0.0210327 -0.010368248
0.34069476 -0.0210327 -0.010141222
-0.34975576 -0.017484883 -0.019400381
-0.32508343 -0.0066444697 -0.014831545
-0.2507222 -0.0066444702 -0.016580332
-0.092343062 -0.0066444697 -0.019447364
0.0021660477 -0.0066444706 -0.017292179
0.04197 -0.0066444706 -0.016306691
-0.38129544 0.0095851664 -0.015466765
-0.34807062 3.0071475e-05 -0.014236567
0.40162811 0.005219345 -0.0100279
0.41410735 0.015429568 -0.01543358
0.42347783 0.023095839 -0.015694754
0.43044466 0.028795669 -0.013856567
-0.38438085 0.031194618 -0.01368771
-0.42799208 0.068625882 -0.010957117
-0.22093362 -0.086999245 -0.0049189841
-0.21931382 -0.087460198 -0.0070244651
0.29019782 -0.066922523 -0.0092636719
-0.23600519 -0.055555578 -0.0068800426
-0.19275203 -0.053004712 -0.0032592639
-0.21205434 -0.040454209 -0.0096392352
0.264184 -0.041640799 -0.0071124919
-0.23080701 -0.036753014 -0.0031498354
0.264184 -0.032995939 -0.006823604
-0.25867197 -0.0210327 -0.0091981087
0.053908069 -0.0210327 -0.00033641493
0.17835405 -0.0210327 -0.00022393931
0.28575152 -0.025297696 -0.0055153985
0.34674475 -0.0210327 -0.007643342
0.36537981 -0.015945481 -0.0093473643
-0.27050525 -0.0066444697 -0.0014627539
-0.25224775 -0.0066444706 -0.0078181624
-0.18298951 -0.0066444706 -0.006659694
-0.13676493 -0.0066444702 -0.0022701696
-0.094684169 -0.0066444706 -0.0070743114
-0.012329459 -0.0066444706 -0.0093017593
-0.0030679591 -0.0066444702 -0.0095364489
0.057058543 -0.0066444702 -0.0019949339
0.077622294 -0.0066444697 -0.0060816035
0.14588615 -0.0066444702 -0.0090553276
0.16360043 -0.0066444702 -0.0029618815
0.18616909 -0.0066444706 -0.0051934235
0.25471488 -0.0066444702 -0.0029968629
0.27895224 -0.0066444697 -0.0015001781
0.33777815 -0.0066444702 -0.0071669668
0.38543284 -0.008031223 -0.0056210756
0.4022423 0.0057218866 -0.0024150833
-0.39080006 0.01774282 -0.0097075514
0.39696348 0.019993264 -0.0052559525
-0.40098795 0.026486946 -0.0013282783
-0.38021797 0.027621701 -0.0045936983
0.42905927 0.027662165 -0.0097545935
0.4206534 0.039376378 -0.0038831383
-0.41956407 0.042430565 -0.0042713676
-0.4384234 0.05861716 -0.0089758709
-0.42734927 0.068074152 -0.0072593763
0.45999974 0.071568519 -0.0006089597
-0.46627954 0.083093472 -0.0034437866
-0.44419047 0.082529172 -0.0052713598
-0.45821539 0.094566084 -0.0047005732
-0.23519358 -0.053595461 0.0057438985
0.28814039 -0.055486944 0.0045536403
-0.23080701 -0.045798074 0.0031429338
-0.21415997 -0.040258519 0.0060313353
-0.20367624 -0.041334771 0.0061632013
-0.20185998 -0.035709906 0.0040946398
-0.15393834 -0.0210327 0.0060164109
-0.1413203 -0.0210327 0.0093632117
-0.13022549 -0.021032702 0.00327521
0.00087888259 -0.0210327 0.0067766043
0.062275041 -0.021032698 0.0054478026
0.084861696 -0.0210327 0.0063862242
0.19637471 -0.0210327 0.0077643692
0.22730988 -0.0210327 0.0076927422
0.24814317 -0.0210327 0.0081114862
0.26569226 -0.0210327 0.0042043217
0.28560999 -0.029150924 0.0027652755
0.35843456 -0.0210327 0.00034548715
-0.35729611 -0.0110131 0.00481252
-0.29300937 -0.0066444706 0.0060424656
-0.24841234 -0.0066444702 0.0043687103
-0.22126541 -0.0066444702 0.0031755771
-0.21957129 -0.0066444702 0.0054130787
-0.18292829 -0.0066444706 0.0066697616
-0.17097455 -0.0066444702 0.0087157525
-0.092585124 -0.0066444702 0.0020915098
0.012139286 -0.0066444702 0.0074023772
0.054437771 -0.0066444702 0.0084547997
0.13510376 -0.0066444697 0.0046883924
0.28666475 -0.0066444702 0.00086500961
0.32518882 -0.0066444697 0.0062714797
-0.35688907 0.007598835 0.0048626997
0.40677068 0.009426889 0.005176275
0.39344409 0.017113768 0.0024936665
0.43030804 0.047275219 0.0031974912
-0.43087617 0.071101353 0.0025077816
-0.22556999 -0.064198501 0.018295024
0.25386924 -0.056149013 0.014350262
-0.2317898 -0.048521593 0.011298003
-0.23238042 -0.0210327 0.013998308
-0.16496769 -0.021032698 0.016792249
-0.08404927 -0.0210327 0.016486201
-0.06484019 -0.0210327 0.019616976
-0.027412098 -0.0210327 0.015891867
0.23707819 -0.0210327 0.013410609
0.2682372 -0.0210327 0.015322067
0.33356103 -0.0210327 0.016809462
-0.3451162 -0.019247137 0.017794244
0.38047135 -0.012090577 0.014936954
-0.042813092 -0.0066444697 0.016035985
-0.034928977 -0.0066444702 0.019338932
0.008311376 -0.0066444702 0.01269218
0.013404527 -0.0066444702 0.012382643
0.045800894 -0.0066444702 0.018410195
0.063215643 -0.0066444706 0.018226754
0.15367351 -0.0066444706 0.016316023
0.18665415 -0.0066444702 0.014227817
0.23368165 -0.0066444697 0.013453614
0.24060529 -0.0066444706 0.019301513
0.36180121 -0.0087756524 0.017102268
0.3883509 -0.0056437426 0.012653064
0.38961476 0.013980689 0.015603479
0.3901709 0.014435733 0.01010045
0.39753914 0.020464243 0.019005766
-0.41419491 0.037822288 0.014629547
0.42183599 0.040343896 0.01617525
0.45311004 0.047340471 0.01466041
-0.43662259 0.057071567 0.014681378
-0.44069964 0.060571022 0.014662825
-0.42612013 0.067019135 0.010572109
-0.43903384 0.078103267 0.015777521
-0.44643921 0.084459186 0.018812019
-0.46011573 0.094858758 0.018347695
-0.21966714 -0.087413706 0.021948446
0.2694023 -0.083190538 0.027644811
0.25446117 -0.073194914 0.026144151
-0.23757274 -0.066160508 0.025551574
-0.23597629 -0.055485822 0.026400477
0.264184 -0.053695768 0.024448223
0.26308942 -0.046958651 0.022878541
0.27586836 -0.04574433 0.020201117
-0.22131287 -0.021032702 0.029800583
-0.17367063 -0.0210327 0.026242353
-0.10714516 -0.0210327 0.020461272
-0.081955418 -0.0210327 0.020708147
0.093400329 -0.0210327 0.022689678
0.10752244 -0.0210327 0.029854599
0.13402593 -0.0210327 0.026760694
0.30636472 -0.0210327 0.025422007
0.3237561 -0.0210327 0.027290517
-0.35609162 -0.012046907 0.023773298
-0.34382468 -0.0036141295 0.028485849
-0.26061279 -0.0066444702 0.02082891
-0.17337416 -0.0066444702 0.025633005
-0.16575976 -0.0066444706 0.027270589
-0.15452394 -0.0066444702 0.023484921
-0.10199253 -0.0066444702 0.021012902
0.10717273 -0.0066444702 0.024136541
0.25493452 -0.0066444702 0.027627772
0.29337353 -0.0066444697 0.029662983
0.39046288 -0.0039157821 0.027330283
-0.35545051 0.0063641407 0.02345562
-0.37417394 0.022434164 0.022408977
0.41063201 0.031176724 0.023941167
0.44884264 0.043849111 0.029184971
-0.42300549 0.064345814 0.025831882
-0.45311666 0.071228847 0.0263188
-0.43163162 0.071749799 0.028273769
-0.45152164 0.088821508 0.027049286
0.27898687 -0.057161495 0.032253701
-0.22462323 -0.046496511 0.0360227
0.28560999 -0.049152687 0.031252138
-0.24152265 -0.0210327 0.030974057
-0.20283782 -0.0210327 0.032927312
-0.19267191 -0.0210327 0.039743576
-0.028234916 -0.0210327 0.034685053
0.015621504 -0.0210327 0.035141733
0.11758547 -0.0210327 0.030535787
0.12807126 -0.021032698 0.033815283
0.34861016 -0.021032698 0.030059479
0.35102063 -0.021032702 0.0309011
-0.2766684 -0.0066444697 0.038306065
-0.24017078 -0.0066444702 0.030878749
-0.075767532 -0.0066444702 0.035463281
0.030282091 -0.0066444702 0.039738685
0.20274961 -0.0066444706 0.034872033
0.23318583 -0.0066444706 0.031131906
0.24636143 -0.0066444702 0.031489655
0.3304438 -0.0066444702 0.036652341
-0.37016088 2.8498936e-05 0.030624136
0.38004014 0.0061469753 0.032123752
0.391597 0.015602536 0.035594184
0.40832946 0.010702218 0.03546419
-0.38619578 0.032752328 0.034413818
0.4156903 0.03531548 0.037647858
-0.41670904 0.058941387 0.033043727
-0.40872404 0.052088004 0.033134311
0.45670298 0.050280198 0.031729553
0.45878947 0.068509996 0.031130236
-0.22594911 -0.084883362 0.046554893
0.28890538 -0.056865789 0.049468979
-0.20859089 -0.040910389 0.048678886
-0.1204541 -0.0210327 0.043884862
-0.11776025 -0.0210327 0.042454068
0.023950826 -0.0210327 0.04215141
0.074800938 -0.0210327 0.042688042
0.087426215 -0.0210327 0.040518012
0.2728546 -0.021032702 0.047969501
0.31211615 -0.021032702 0.046616126
-0.3536734 -0.014122419 0.049605448
0.36681944 -0.017705062 0.041049462
0.3765597 -0.015291009 0.044368804
-0.34285378 -0.0096269203 0.04725188
-0.29217857 -0.0066444702 0.04621511
-0.17691711 -0.0066444702 0.046475209
-0.13097665 -0.0066444702 0.041692544
0.035318624 -0.0066444702 0.042126101
0.12070861 -0.0066444702 0.04159499
0.13540888 -0.0066444702 0.049744751
0.29963967 -0.0066444706 0.046785444
0.30188239 -0.0066444702 0.044192389
0.33455029 -0.0066444702 0.044690624
0.43799186 0.034971066 0.045531914
-0.42519069 0.047259789 0.042478807
0.43344754 0.04984377 0.045550458
-0.42207921 0.063550726 0.048051976
-0.44884029 0.086520001 0.041887358
0.26388654 -0.081883222 0.054459564
0.28973609 -0.059830613 0.056561951
-0.22562666 -0.044009887 0.052591585
-0.32260475 -0.0210327 0.055281006
-0.29773173 -0.0210327 0.058314513
-0.056520332 -0.0210327 0.051199239
-0.023728635 -0.0210327 0.05719677
0.040487543 -0.0210327 0.058326017
0.051938463 -0.0210327 0.050694287
0.11681531 -0.0210327 0.056012765
0.18273146 -0.0210327 0.053632028
0.19899687 -0.0210327 0.053332232
0.25588065 -0.0210327 0.054711469
0.31868741 -0.0210327 0.059456557
-0.35135007 -0.016116505 0.050632577
0.37225682 -0.018811507 0.050034091
-0.19241303 -0.0066444706 0.054206423
-0.17745481 -0.0066444702 0.058935285
-0.15566701 -0.0066444697 0.056115195
-0.072769076 -0.0066444697 0.051930152
-0.00031210482 -0.0066444702 0.056524206
0.019905627 -0.0066444702 0.05965646
0.045231432 -0.0066444697 0.05182923
0.19764289 -0.0066444697 0.055806194
0.29140484 -0.0066444697 0.050453875
0.31320697 -0.0066444706 0.052322473
0.34240893 -0.0066444697 0.05686428
0.36515641 -0.0060305162 0.054034367
-0.38659492 0.014133621 0.055060763
0.42084682 0.020943332 0.056618959
-0.39225385 0.037951887 0.052571964
-0.38955712 0.035637304 0.055005014
-0.41073895 0.053817354 0.056145906
-0.40647092 0.050154179 0.05701166
0.46190983 0.055216216 0.050340012
-0.45331401 0.071398228 0.055429146
-0.45245948 0.089626551 0.051291026
-0.22543786 -0.085133307 0.066738278
0.26551488 -0.082349293 0.068979159
0.27731451 -0.082281746 0.064518839
-0.23723425 -0.068732142 0.066008918
0.27728754 -0.046150513 0.067333527
-0.31325814 -0.0210327 0.061593022
-0.15559508 -0.0210327 0.06996309
-0.14753532 -0.0210327 0.062734105
-0.075924881 -0.021032702 0.064733416
-0.061003935 -0.0210327 0.062316153
0.012434085 -0.0210327 0.064723611
0.077990159 -0.0210327 0.062122799
0.17143637 -0.0210327 0.061870176
0.23804483 -0.021032702 0.068187654
0.28878894 -0.0210327 0.069993921
0.29520488 -0.021032702 0.066372879
0.32835168 -0.0210327 0.060851499
0.37258643 -0.018541824 0.066725485
-0.20049542 -0.0066444702 0.069481082
-0.14105935 -0.0066444706 0.067881197
-0.11510292 -0.0066444706 0.062518999
-0.034139387 -0.0066444697 0.062465556
-0.0017229617 -0.0066444702 0.066327788
0.0033607781 -0.0066444706 0.063316897
0.028487265 -0.0066444702 0.064736165
0.097694755 -0.0066444706 0.06130312
0.11590905 -0.0066444706 0.063169256
0.13311228 -0.0066444697 0.069649369
0.22864985 -0.0066444702 0.06191244
0.24796014 -0.0066444702 0.066668354
0.34186837 -0.0066444706 0.06176379
0.38096219 0.0069013899 0.06740842
0.42036945 0.020552777 0.069869019
-0.41149375 0.035503916 0.060561493
0.41857383 0.037674852 0.064439394
0.44558957 0.041187588 0.065852381
-0.43453002 0.055275563 0.067874163
0.44285512 0.057540517 0.063685127
-0.44665697 0.065684631 0.064439774
-0.45792413 0.078262746 0.0622456
-0.2306342 -0.081288509 0.076325543
-0.2026114 -0.085277587 0.079633392
-0.19059904 -0.069738038 0.077963606
-0.23655812 -0.056891032 0.070647314
0.25409052 -0.056342196 0.078531086
-0.22521201 -0.043170094 0.071398675
-0.28136563 -0.0210327 0.079436362
-0.2638858 -0.021032698 0.073744766
-0.18504524 -0.0210327 0.07735908
-0.13534568 -0.021032702 0.071161091
-0.02137314 -0.021032698 0.077318966
0.14043421 -0.0210327 0.074601747
0.26501101 -0.021032702 0.074819371
0.30564383 -0.0210327 0.078419298
0.36795396 -0.0210327 0.078674756
-0.34391516 -0.019691857 0.073287316
-0.31711069 -0.0066444702 0.075583324
-0.27383053 -0.0066444702 0.070811532
-0.24341395 -0.0066444702 0.071933717
-0.16474366 -0.0066444706 0.075101294
-0.099921256 -0.0066444706 0.070528761
-0.060546227 -0.0066444706 0.074371904
-0.055264778 -0.0066444697 0.07034339
0.10852715 -0.0066444702 0.075545713
0.13297626 -0.0066444702 0.077297099
0.21254472 -0.0066444702 0.077506095
0.27945197 -0.0066444706 0.074805699
0.3381258 -0.0066444702 0.077448279
0.36092481 -0.0094927223 0.070506401
0.38923904 -0.0049170624 0.077911675
0.37673694 0.003444375 0.076336861
0.40730441 0.028454032 0.073288217
0.43001166 0.028441377 0.072332866
0.41347095 0.033499591 0.079377152
0.43539503 0.032846242 0.078544118
-0.3975358 0.042485286 0.071682706
0.44872534 0.048179138 0.075692669
-0.41818887 0.060211569 0.077433325
0.26058382 -0.079997361 0.08056508
-0.19198056 -0.054867942 0.084188387
0.28595096 -0.052069329 0.081337743
-0.21369067 -0.040238686 0.083305739
-0.19597587 -0.048437353 0.089048751
0.2748484 -0.045452408 0.088645764
-0.30477566 -0.0210327 0.085976437
-0.22237381 -0.021032698 0.084564179
-0.203594 -0.0210327 0.089209467
-0.19514598 -0.0210327 0.088349134
-0.18783832 -0.0210327 0.081875332
-0.054671563 -0.0210327 0.087031916
-0.0074852817 -0.0210327 0.081073962
0.028632304 -0.0210327 0.080303602
0.048124209 -0.0210327 0.085789144
0.087016501 -0.021032702 0.080829278
0.14904125 -0.021032702 0.089011282
0.29341072 -0.021032698 0.088069588
0.31839132 -0.021032698 0.089962184
0.33267224 -0.0210327 0.088225931
-0.21193926 -0.0066444702 0.085555114
-0.14850408 -0.0066444702 0.083555214
0.012127921 -0.0066444702 0.083142005
0.056626491 -0.0066444702 0.082475998
0.17540663 -0.0066444702 0.087438419
0.18696466 -0.0066444697 0.080954373
0.35605615 -0.0066444702 0.085514702
0.36298272 -0.0078089833 0.08161404
-0.37058923 0.00039617531 0.086530447
-0.36902943 0.018018709 0.086111009
-0.37549579 0.023568705 0.084906891
-0.43002129 0.051405802 0.089938007
-0.24016823 -0.080518208 0.099780001
-0.19184539 -0.073202848 0.091378525
0.28832704 -0.072658971 0.090128548
0.29848507 -0.073659346 0.099957511
-0.2448079 -0.05480253 0.099177979
0.25582847 -0.052885544 0.094336078
0.29198626 -0.058361091 0.098322198
-0.24006994 -0.045916196 0.098373502
-0.23037927 -0.046912886 0.096875854
-0.22909741 -0.041873462 0.098373502
-0.19633362 -0.043027353 0.098373502
-0.2291479 -0.039724417 0.098373502
-0.26357678 -0.0210327 0.091550492
-0.11451612 -0.0210327 0.095308378
-0.099294141 -0.0210327 0.091904089
-0.002908323 -0.0210327 0.097455516
0.001546666 -0.0210327 0.09797392
0.11092327 -0.021032698 0.09842433
0.1567349 -0.0210327 0.095288523
0.22354946 -0.0210327 0.099789456
0.26601249 -0.0210327 0.096734852
0.36158955 -0.021032698 0.096811101
-0.35746178 -0.010870941 0.090823479
-0.2515521 -0.0066444706 0.090043113
-0.23727849 -0.0066444702 0.09419024
-0.21536314 -0.0066444702 0.096272349
-0.19400229 -0.0066444697 0.093165636
-0.14888562 -0.0066444706 0.094314866
-0.095864102 -0.0066444697 0.094313368
-0.061429486 -0.0066444706 0.098605141
0.044568315 -0.0066444702 0.092569828
0.10688743 -0.0066444702 0.097784661
0.11894498 -0.0066444706 0.092939414
0.18350527 -0.0066444702 0.099939972
0.32301325 -0.0066444702 0.093214445
0.33636221 -0.0066444702 0.096916161
0.35558528 -0.0066444702 0.092936434
0.3669287 -0.0045804828 0.098071918
0.38336152 0.0088644549 0.095890626
-0.40396753 0.029044263 0.092686892
0.4231419 0.022821009 0.099240519
-0.40511975 0.030033199 0.099904768
-0.38673186 0.033212438 0.095875807
-0.43184912 0.068420134 0.099978805
-0.43823755 0.071775675 0.091765963
0.26540381 -0.091342226 0.10507829
0.29869884 -0.07309173 0.10109568
-0.23739393 -0.067519009 0.10933502
0.24357159 -0.06415204 0.10698511
-0.23091158 -0.047377348 0.10858873
-0.1968789 -0.04726078 0.10875314
0.27941227 -0.046930641 0.10302617
-0.21049528 -0.030561492 0.10268371
-0.27645981 -0.021032702 0.10530053
-0.22271845 -0.0210327 0.10157141
-0.12283322 -0.0210327 0.10724695
-0.046450965 -0.0210327 0.1023846
-0.024804015 -0.0210327 0.1086369
-0.0009583272 -0.021032702 0.10339929
0.026676591 -0.0210327 0.10803797
0.27163827 -0.0210327 0.10728176
0.29581332 -0.021032702 0.10383092
0.31806457 -0.0210327 0.10256046
0.32628879 -0.021032698 0.10928108
0.36212224 -0.011963834 0.10657161
0.37227607 -0.018795755 0.10110169
-0.36491364 -0.0044750907 0.10640754
-0.33740431 -0.0066444702 0.10835379
-0.32737494 -0.0066444702 0.10158489
-0.26490158 -0.0066444702 0.10487776
-0.19157784 -0.0066444706 0.10048248
-0.12747175 -0.0066444697 0.10473229
0.021801889 -0.0066444702 0.10403232
0.033577755 -0.0066444702 0.10682134
0.050542429 -0.0066444702 0.10794066
0.064154297 -0.0066444697 0.10164709
0.12162986 -0.0066444702 0.10105831
0.13467786 -0.0066444702 0.10868725
0.18877777 -0.0066444706 0.1044645
0.19212633 -0.0066444702 0.1038728
0.27369317 -0.0066444706 0.10337069
0.42808324 0.026863676 0.10343908
-0.39618272 0.041323993 0.10091761
-0.43484864 0.060499169 0.10274526
-0.23030056 -0.09024965 0.11930484
-0.19948879 -0.091554932 0.11602021
-0.21514934 -0.088008218 0.11554436
-0.19570246 -0.089323685 0.11494616
-0.23655805 -0.071506575 0.11644735
0.24845749 -0.079728544 0.11071722
-0.23754817 -0.062049918 0.11216871
-0.23492913 -0.052956808 0.1192967
0.29121146 -0.042057429 0.11487847
0.28138509 -0.036400843 0.11548616
-0.10161807 -0.0210327 0.11472865
0.14614336 -0.020583339 0.115312
0.17579336 -0.020668382 0.115312
0.18138069 -0.0210327 0.11418651
0.19237296 -0.021032698 0.11429553
0.24247381 -0.020220429 0.11531201
-0.332349 -0.010436192 0.11531201
-0.30159888 -0.015525913 0.11531201
-0.29614562 -0.014347021 0.11531201
-0.12649623 -0.018533956 0.115312
0.0099236146 -0.010163359 0.11531201
0.045432523 -0.011889564 0.11531201
0.07625252 -0.015455208 0.11531201
0.25503308 -0.012100485 0.115312
0.36139107 -0.015830692 0.115312
-0.33914497 -0.0066444702 0.11523645
-0.2014094 -0.0095039662 0.115312
-0.14216331 -0.0097685941 0.115312
-0.1008048 -0.0066444697 0.11447328
-0.098319754 -0.0066444702 0.11516869
-0.06697762 -0.0066444697 0.11496087
-0.0031850934 -0.0070570847 0.115312
0.018391073 -0.0066444702 0.11070047
0.15610337 -0.00710748 0.115312
0.31349853 -0.0066444702 0.11166926
0.38893965 0.0046451497 0.115312
0.39582962 0.019065531 0.11090378
0.41207159 0.015251473 0.115312
0.39936998 0.021720812 0.115312
-0.19636837 -0.08981467 0.12711431
-0.21210715 -0.054382667 0.122354
-0.20376235 -0.05595649 0.122354
-0.18610547 -0.04565233 0.12874833
0.25120014 -0.043387391 0.12039441
-0.22032316 -0.031032003 0.12576565
-0.21810839 -0.030783582 0.12358557
0.26182204 -0.03655491 0.12761199
-0.21672013 -0.094554976 0.13017964
0.26861772 -0.091659918 0.13105878
0.27964696 -0.090952046 0.13651657
0.27398852 -0.081423767 0.13189501
0.26526904 -0.063867889 0.13189501
0.27238789 -0.065776944 0.13189501
-0.22052847 -0.041230366 0.13040443
0.25866938 -0.049878649 0.13896802
0.25844482 -0.038084023 0.13542533
0.28093335 -0.036230668 0.1342849
0.26310879 -0.08930704 0.141487
0.2461578 -0.050698161 0.14011225
0.29895699 -0.058795996 0.141487
0.28596985 -0.044134527 0.141487
