# .PCD v0.7 - Point Cloud Data file format
VERSION 0.7
FIELDS x y z
SIZE 4 4 4
TYPE F F F
COUNT 1 1 1
WIDTH 872
HEIGHT 1
VIEWPOINT 0 0 0 1 0 0 0
POINTS 872
DATA ascii
-0.35123661 0.023324657 -0.16350099
-0.34561223 0.027949199 -0.16059628
-0.27224511 0.027949199 -0.16204038
-0.25848317 0.0229409 -0.16346946
-0.2403053 0.025215417 -0.16350099
-0.22065315 0.0229409 -0.1632106
-0.1852286 0.027949199 -0.16164513
-0.17078096 0.027949199 -0.16049546
-0.15417144 0.025691865 -0.16350099
-0.057157911 0.025597347 -0.16350099
0.028612852 0.027949199 -0.16045117
0.096169516 0.027949199 -0.16271943
0.32727441 0.0229409 -0.16295773
0.37396941 0.0229409 -0.16286208
-0.26572856 0.0229409 -0.15497941
-0.25626519 0.0229409 -0.15484411
-0.24811074 0.027949199 -0.15677494
-0.23949096 0.0229409 -0.15245184
-0.22978748 0.027949199 -0.15734413
-0.18641585 0.027949199 -0.1550965
-0.16788903 0.02544505 -0.15426275
-0.11304004 0.0229409 -0.15651193
-0.094576478 0.02544505 -0.15872508
-0.0582694 0.027949199 -0.15695986
-0.049872778 0.0229409 -0.1501402
-0.0068731718 0.0229409 -0.1503222
0.014765844 0.027949199 -0.15143007
0.03507939 0.0229409 -0.1526559
0.072325453 0.027949199 -0.15676472
0.081897445 0.0229409 -0.15056646
0.15146378 0.02544505 -0.1519499
0.18219833 0.027949199 -0.15046224
0.20565706 0.027949199 -0.15380517
0.21973622 0.027949199 -0.15407544
0.24454167 0.02544505 -0.15379323
0.26384199 0.02544505 -0.15457319
0.28062898 0.0229409 -0.15207712
0.35123214 0.0229409 -0.15207601
0.37408009 0.02345923 -0.1577964
-0.37047201 0.027930595 -0.14971927
-0.28904307 0.027949199 -0.14404978
-0.25195482 0.0229409 -0.14270057
-0.23971306 0.0229409 -0.14814326
-0.22747497 0.027949199 -0.14504912
-0.17995778 0.0229409 -0.14254665
-0.16661771 0.027949199 -0.14838712
-0.10825431 0.0229409 -0.14114133
-0.085940257 0.02544505 -0.14219564
-0.039998472 0.027949199 -0.14024882
-0.0065767262 0.0229409 -0.14637724
0.040203035 0.027949199 -0.14945884
0.085384615 0.027949199 -0.14244168
0.12116725 0.0229409 -0.14009514
0.15220092 0.027949199 -0.14167859
0.16278031 0.0229409 -0.14037445
0.26737848 0.027949199 -0.1405099
0.33453819 0.027949199 -0.14478964
0.34012237 0.027949199 -0.14817169
-0.40064931 0.035745628 -0.14289534
-0.37047201 0.026796769 -0.13374576
-0.36329991 0.027949199 -0.13532855
-0.28472075 0.0229409 -0.13729292
-0.24923439 0.026279768 -0.13546969
-0.2300622 0.027949199 -0.13218735
-0.2232812 0.0229409 -0.1352573
-0.2108427 0.027949199 -0.13715544
-0.14007486 0.027949199 -0.13680345
-0.13182449 0.0229409 -0.1330317
-0.11626476 0.027949199 -0.13818274
-0.091212973 0.0229409 -0.13828465
-0.075990088 0.0229409 -0.1397209
-0.058965147 0.0229409 -0.13774279
-0.014153481 0.027949199 -0.13181929
0.05455526 0.027949199 -0.13988471
0.078877553 0.02544505 -0.1361762
0.16318166 0.027949199 -0.13848767
0.18592456 0.0229409 -0.133431
0.20957215 0.0229409 -0.13787919
0.25465953 0.027949199 -0.13999629
0.29681358 0.02544505 -0.13585642
0.32528794 0.02544505 -0.13500918
-0.37742388 0.030504666 -0.13517012
0.40940338 0.037376925 -0.13388123
0.29462981 -0.031582754 -0.1244459
-0.36863115 0.0229409 -0.12441075
-0.34353963 0.0229409 -0.12554261
-0.31878239 0.0229409 -0.12555888
-0.29813522 0.027949199 -0.12093859
-0.28650221 0.022940898 -0.12902407
-0.23202492 0.027949199 -0.12737212
-0.22616179 0.027949201 -0.12730879
-0.17320886 0.0229409 -0.12143181
-0.13900693 0.0229409 -0.12656188
-0.098305784 0.027949199 -0.12240218
0.015070856 0.02544505 -0.12227061
0.18067093 0.0229409 -0.12432826
0.21298273 0.027949199 -0.121695
0.27798334 0.027949199 -0.12107128
0.28662342 0.0229409 -0.12191344
0.34835604 0.027949199 -0.12614807
0.36944646 0.027949199 -0.12531069
0.37097672 0.027949199 -0.12840492
-0.40321761 0.038292371 -0.12175955
0.40979785 0.032473978 -0.1280123
-0.28574792 0.0229409 -0.11533639
-0.27294254 0.0229409 -0.11073902
-0.26815844 0.027949199 -0.11443096
-0.23124793 0.027949199 -0.11248595
-0.22076118 0.0229409 -0.11881069
-0.095381193 0.02544505 -0.11521278
-0.039194979 0.0229409 -0.11144131
-0.027804598 0.0229409 -0.1171252
0.022986382 0.027949199 -0.11941555
0.056188203 0.0229409 -0.11616024
0.067626074 0.027949199 -0.11674613
0.092405587 0.027949199 -0.11879437
0.17536873 0.027949199 -0.1132014
0.18640736 0.027949199 -0.11297287
0.2137107 0.0229409 -0.11536901
0.23276184 0.027949199 -0.11670649
0.25838283 0.0229409 -0.11807512
0.33974886 0.0229409 -0.11363353
0.37531322 0.023234092 -0.11739718
0.38135695 0.029861752 -0.11736138
0.40295431 0.030640304 -0.11304132
-0.37588057 0.024573725 -0.10389473
-0.29251453 0.026279768 -0.10580795
-0.2132268 0.0229409 -0.10553128
-0.031286277 0.027949199 -0.10072505
-0.025281316 0.024610333 -0.10412029
0.11033358 0.027949199 -0.10850522
0.14083947 0.0229409 -0.10585365
0.15855296 0.027949199 -0.10665805
0.16779242 0.027949199 -0.10901739
0.2636503 0.027949199 -0.10057219
0.33601934 0.027949199 -0.10521384
0.34682399 0.027949199 -0.1028188
-0.41450313 0.036234293 -0.10003518
-0.40111566 0.032192305 -0.10713169
-0.42234769 0.044068009 -0.10891175
-0.28101355 -0.032242034 -0.094236992
-0.37406909 0.029491771 -0.098434657
-0.36686701 0.027949199 -0.094420433
-0.33577985 0.025445051 -0.097635821
-0.27221686 0.0229409 -0.099044673
-0.23543738 0.025445048 -0.094230145
-0.16495924 0.0229409 -0.09394072
-0.15486895 0.027949199 -0.092801541
-0.11982231 0.027949199 -0.090358883
-0.039580792 0.027949199 -0.099433243
-0.018970124 0.027949199 -0.090711758
0.00095435977 0.0229409 -0.092267908
0.043297086 0.0229409 -0.096988171
0.11144854 0.0229409 -0.090787068
0.17630586 0.027949199 -0.097660765
0.21854106 0.0229409 -0.096962407
0.24297306 0.0229409 -0.095189542
0.29331979 0.0229409 -0.0946187
0.31303889 0.027949199 -0.09898711
0.35686052 0.02544505 -0.092858925
0.38023764 0.024553554 -0.094712459
0.28641829 -0.031892259 -0.084586039
0.29399973 -0.029795665 -0.084562525
-0.38801962 0.028238485 -0.087169603
-0.35350066 0.0229409 -0.080576748
-0.32034165 0.0229409 -0.082262233
-0.30364975 0.0229409 -0.089124143
-0.29507285 0.027949199 -0.084370553
-0.28404915 0.0229409 -0.084601142
-0.2155984 0.027949199 -0.082214735
-0.19113114 0.027949199 -0.085423768
-0.14442907 0.0229409 -0.086558484
-0.11168465 0.027949199 -0.088295415
-0.10586119 0.0229409 -0.085074365
-0.077956729 0.0229409 -0.086860031
-0.044928487 0.02544505 -0.086362526
-0.036272027 0.027949199 -0.083397388
-0.0030577034 0.0229409 -0.083527029
0.088513508 0.0229409 -0.081763804
0.093106046 0.027949199 -0.089909792
0.13484365 0.0229409 -0.081070974
0.16184062 0.027949199 -0.082774602
0.20258129 0.0229409 -0.088837296
0.29074177 0.0229409 -0.085964277
0.30444208 0.0229409 -0.085404754
0.31044441 0.02544505 -0.087859526
0.33897781 0.027949199 -0.084260128
0.3663184 0.027949199 -0.084674627
0.41718882 0.039463364 -0.084692478
0.44297719 0.041364361 -0.08387132
0.28884545 -0.040184189 -0.075445935
0.29377896 -0.029487152 -0.075178832
-0.38897121 0.028525759 -0.070032425
-0.3621369 0.0229409 -0.077326357
-0.31662703 0.0229409 -0.073986329
-0.26373187 0.027949199 -0.0705029
-0.24813282 0.0229409 -0.07204105
-0.21228859 0.0229409 -0.077583477
-0.16337791 0.0229409 -0.079184912
-0.1459744 0.02544505 -0.073936686
-0.09458667 0.0229409 -0.074780785
-0.065335192 0.027949199 -0.07743936
-0.045329541 0.0229409 -0.076189324
-0.020464182 0.0229409 -0.071237594
-0.014503896 0.0229409 -0.076683819
0.047669508 0.0229409 -0.072183341
0.056471549 0.0229409 -0.07857649
0.1662351 0.0229409 -0.078380957
0.18064129 0.0229409 -0.078691065
0.30718106 0.027949199 -0.074875198
0.31132042 0.0229409 -0.078329325
0.32522884 0.0229409 -0.073479429
-0.4060106 0.039135531 -0.071809985
-0.39753607 0.031111598 -0.077463597
-0.38580963 0.033036545 -0.071408853
0.40593296 0.033942685 -0.075130314
0.41064942 0.037711006 -0.071845204
-0.44859982 0.046528604 -0.072967753
-0.41100883 0.04064456 -0.073637925
0.29302332 -0.035300553 -0.060687944
-0.27984327 -0.024628915 -0.069601022
-0.34940085 0.0229409 -0.066535801
-0.32983786 0.027949199 -0.062392663
-0.30583918 0.0229409 -0.062333882
-0.29970658 0.0229409 -0.067121044
-0.26669317 0.02544505 -0.065851621
-0.24178913 0.0229409 -0.064218938
-0.22867092 0.027949199 -0.062844343
-0.21537444 0.027949199 -0.060999278
-0.063130304 0.0229409 -0.062044714
-0.039929327 0.027949199 -0.060752697
-0.00035214424 0.0229409 -0.066354483
0.22720918 0.0229409 -0.068329453
0.25713754 0.027949199 -0.060139783
0.28801858 0.0229409 -0.066361576
0.30105725 0.0229409 -0.063982278
0.32892567 0.027949199 -0.068397291
0.38539803 0.025936227 -0.06986028
-0.41367757 0.035985097 -0.063926294
0.38390148 0.030543542 -0.069055058
0.42974445 0.037818655 -0.061081681
-0.42708024 0.045496915 -0.063663937
-0.41395432 0.041533872 -0.060919359
0.42931262 0.042711653 -0.062948085
0.44583941 0.047139745 -0.066268653
0.28508061 -0.03844659 -0.05559298
-0.36294574 0.0229409 -0.059584394
-0.25001913 0.027949199 -0.056052573
-0.24114469 0.0229409 -0.05160287
-0.21046346 0.0229409 -0.055646375
-0.1954564 0.027949199 -0.056568723
-0.1549976 0.027949199 -0.05638919
-0.12638317 0.027949199 -0.053086843
-0.081279971 0.027949199 -0.056021526
-0.034375556 0.027949199 -0.050937064
0.020076048 0.0229409 -0.054454103
0.050537735 0.027949199 -0.050827049
0.069875643 0.0229409 -0.052375525
0.13084528 0.0229409 -0.057462361
0.18623567 0.0229409 -0.052799135
0.19118266 0.027949199 -0.058123671
0.2309164 0.0229409 -0.055945255
0.25525239 0.027949199 -0.055988379
0.26381227 0.0229409 -0.056049049
0.3430849 0.027949199 -0.052768461
0.35043204 0.0229409 -0.053976014
0.37259686 0.0229409 -0.051890202
-0.40655619 0.033835024 -0.055676386
-0.39933905 0.037121288 -0.050688285
-0.45723885 0.049136944 -0.053432696
-0.28450176 -0.033302955 -0.04670684
-0.27322021 -0.033613153 -0.048366461
0.29780376 -0.031407367 -0.041074295
-0.28632033 -0.026478695 -0.042838953
0.29139987 -0.026220277 -0.042671636
-0.3886542 0.028430063 -0.047370635
-0.33024871 0.0229409 -0.048601724
-0.32366168 0.0229409 -0.045790948
-0.31136477 0.027949199 -0.049493227
-0.28343704 0.027949199 -0.049270526
-0.27474713 0.0229409 -0.049713429
-0.24110214 0.0229409 -0.042890158
-0.23098889 0.0229409 -0.045953486
-0.16453758 0.027949199 -0.043949757
-0.11711253 0.0229409 -0.041827213
0.034194797 0.0229409 -0.044295479
0.043657646 0.027949199 -0.04228672
0.088864699 0.027949199 -0.049115553
0.10244109 0.0229409 -0.044100463
0.14595349 0.0229409 -0.041101653
0.1776118 0.027949199 -0.04909556
0.3048538 0.0229409 -0.044865366
0.32810459 0.0229409 -0.046248753
-0.42304921 0.038814493 -0.04403203
-0.4042936 0.033151932 -0.04144625
-0.41277069 0.041176528 -0.043980256
0.43507338 0.044255055 -0.040940579
0.4611505 0.046233892 -0.046824776
0.46115634 0.051243991 -0.042348254
-0.28034401 -0.034341164 -0.034134917
-0.27354196 -0.039537512 -0.032846145
0.29352969 -0.0349053 -0.034771893
-0.28109699 -0.023257907 -0.039207857
-0.27619395 -0.022854865 -0.031034626
0.29248577 -0.022983847 -0.033651695
-0.38592374 0.027605748 -0.03644805
-0.37706774 0.024932142 -0.037407145
-0.36900532 0.027799075 -0.037106894
-0.3250792 0.0229409 -0.038095798
-0.31700987 0.027949199 -0.034070261
-0.30674499 0.027949199 -0.03996902
-0.28413028 0.027949199 -0.033425786
-0.22564714 0.027949199 -0.038536262
-0.21269545 0.027949199 -0.03901748
-0.20587516 0.0229409 -0.039095167
-0.18387234 0.027949199 -0.039277494
0.032873362 0.027949199 -0.034567952
0.064124003 0.0229409 -0.033484668
0.087992825 0.02544505 -0.039119169
0.11428986 0.027949199 -0.032310981
0.13929978 0.027949199 -0.03901621
0.22281399 0.0229409 -0.032616019
0.24857044 0.0229409 -0.036322579
0.36556619 0.027949199 -0.037007879
0.37342954 0.025514504 -0.033781745
-0.40606141 0.039150845 -0.036897253
-0.45548862 0.048608549 -0.033224426
0.44574857 0.047115307 -0.030502062
-0.4483923 0.051931281 -0.039673652
-0.27217391 -0.03140362 -0.026371002
0.29426435 -0.034886073 -0.027416945
0.28566378 -0.02570484 -0.024025701
0.2934379 -0.022966914 -0.022037309
-0.36601496 0.027949199 -0.023255065
-0.2800675 0.027949199 -0.023091778
-0.2796919 0.027949199 -0.020449731
-0.25872436 0.027949199 -0.023425333
-0.24627687 0.024610333 -0.026150042
-0.23311965 0.027949199 -0.026442885
-0.18114501 0.027949199 -0.02962476
-0.17732671 0.027949199 -0.021867581
-0.16285101 0.0229409 -0.028467551
-0.15273175 0.0229409 -0.022027433
-0.13595121 0.02544505 -0.029119663
-0.036263518 0.0229409 -0.027607188
0.034863546 0.027949199 -0.023255784
0.05221843 0.02544505 -0.023847442
0.10221022 0.027949199 -0.021393035
0.11982553 0.0229409 -0.022483461
0.14965504 0.0229409 -0.026622817
0.16191138 0.027949199 -0.02911517
0.21050364 0.0229409 -0.021246213
0.24138066 0.0229409 -0.024298988
0.26930866 0.0229409 -0.02908136
0.27168578 0.027949199 -0.029584771
0.29375151 0.0229409 -0.02589887
0.30484879 0.0229409 -0.020437628
0.39642388 0.028890528 -0.029838115
0.40725213 0.031791862 -0.02406887
-0.40958357 0.040214263 -0.029990889
0.43033493 0.042985406 -0.026117198
0.46590802 0.052344859 -0.021323979
-0.275879 -0.027857216 -0.017128512
0.30065373 -0.023403844 -0.019229809
0.29361111 -0.018427258 -0.013921395
0.30454654 -0.015077256 -0.013020097
-0.351616 0.0229409 -0.01244925
-0.29815313 0.0229409 -0.012056112
-0.28743464 0.0229409 -0.01218012
-0.25262123 0.0229409 -0.012630221
-0.19757652 0.0229409 -0.010493677
-0.17735611 0.027949199 -0.018482663
-0.15681775 0.0229409 -0.016383484
-0.13749194 0.0229409 -0.019239865
-0.11190461 0.0229409 -0.011687189
-0.0888355 0.0229409 -0.016305886
-0.054107707 0.026279768 -0.011636763
0.018692713 0.0229409 -0.014482971
0.061356768 0.027949199 -0.013023913
0.099807292 0.027949199 -0.010925833
0.10274036 0.0229409 -0.010068104
0.13176233 0.027949199 -0.016736172
0.1464898 0.027949199 -0.018455876
0.17927721 0.027949199 -0.019207191
0.23526558 0.027949199 -0.014625005
0.31902695 0.0229409 -0.010800317
0.32060897 0.027949199 -0.012983697
0.34021598 0.027949199 -0.010078639
0.36445919 0.027949199 -0.011764189
0.37660265 0.028587876 -0.016145796
0.40611961 0.031488415 -0.0192794
0.45303342 0.049067523 -0.013325725
0.45872432 0.050592437 -0.01501753
-0.27372289 -0.035497282 -0.0050740223
0.2904824 -0.036515795 -0.0024521686
-0.27639383 -0.027687036 -0.0015386827
-0.26915795 -0.028891195 -0.0090205437
0.30231166 -0.020451825 -0.0087084267
-0.29411787 -0.0073737213 -0.0074515557
-0.29660308 0.0098136421 -0.0047134482
-0.28990892 0.0061609526 -0.0091694314
0.31050497 0.0081669809 -0.0042028432
-0.27062184 0.0229409 -0.00020943582
-0.23408209 0.0229409 -0.0036613345
-0.22778782 0.0229409 -0.0034953058
-0.21480298 0.02544505 -0.0040623397
-0.19677795 0.0229409 -0.0014988109
-0.17934552 0.027949199 -0.0066063106
-0.14929861 0.0229409 -0.0047993343
-0.1127924 0.027949199 -0.0088612363
-0.091615818 0.0229409 -0.0086203534
-0.064378597 0.0229409 -0.006208986
0.093700096 0.02544505 -0.0063890424
0.11462965 0.027949199 -0.0067397319
0.13621953 0.027949199 -0.0061667338
0.17235328 0.0229409 -0.0067348331
0.18797533 0.0229409 -0.0067038089
0.21783639 0.02544505 -0.0047225822
0.25340065 0.0229409 -0.0083671883
0.26158199 0.027949199 -0.0080935489
0.30651706 0.027949199 -0.0031777918
0.31001043 0.0229409 -0.0069889426
0.34866247 0.0229409 -0.0096938536
0.36034966 0.0229409 -0.0067350417
0.38237372 0.025125898 -0.0053046793
-0.40197271 0.037916377 -0.0057878699
0.40071315 0.030039795 -0.0061622299
-0.43250337 0.047134113 -0.0014062226
-0.41895372 0.043043315 -0.0017962083
0.28215155 -0.031132236 0.00074164942
-0.2786884 -0.022931466 0.0028954789
-0.26935267 -0.028528508 0.0026209741
0.28793865 -0.024081504 0.0038246354
0.29553777 -0.022918778 0.0093144802
0.2961804 -0.012196417 0.0080023427
-0.37021974 0.027949199 0.0072250515
-0.32834661 0.0229409 0.0069456995
-0.3113755 0.0229409 0.009922348
-0.27903083 0.027949199 0.0024549291
-0.20392939 0.027949199 0.0055166632
-0.19792071 0.0229409 0.00031964481
-0.15301304 0.0229409 0.0087183993
-0.13687012 0.02544505 0.0070036156
-0.12978172 0.0229409 0.0058880243
0.034855589 0.027949199 0.0093473755
0.057498988 0.0229409 0.0088464804
0.061787426 0.027949199 0.0080890991
0.095288962 0.0229409 0.0051042698
0.17865899 0.0229409 0.0074241422
0.22099377 0.027949199 0.0085079167
0.35898453 0.0229409 0.0084250122
-0.44671786 0.04596056 0.00071327947
0.45877743 0.045597952 0.001905247
-0.46720389 0.056067336 0.0076569393
-0.28499115 -0.024876757 0.012322051
0.28749281 -0.024180543 0.019040029
0.30017653 -0.023472305 0.011506215
-0.29017225 -0.014233403 0.01400099
-0.28167269 -0.015357216 0.019936861
0.29378742 -0.017943375 0.01603052
-0.34606045 0.02544505 0.012817919
-0.32415581 0.0229409 0.011555217
-0.2826483 0.027949199 0.015415922
-0.1871576 0.02544505 0.018737491
-0.061650261 0.0229409 0.012109986
-0.057942845 0.0229409 0.018601906
-0.041854709 0.02544505 0.010442831
0.00067389011 0.027949199 0.019335128
0.013240904 0.0229409 0.01679118
0.024578393 0.0229409 0.017968327
0.036677271 0.027949199 0.017815221
0.062088773 0.0229409 0.010265768
0.12366854 0.027949199 0.016388681
0.14372528 0.02544505 0.012079271
0.15668312 0.0229409 0.015227824
0.17593122 0.027949199 0.015615633
0.18785332 0.027949199 0.011147566
0.19981432 0.0229409 0.016821373
0.22627504 0.0229409 0.01219596
0.23618346 0.027949199 0.017329734
0.25028569 0.027949199 0.013259023
0.28523672 0.027949199 0.011807919
0.32303804 0.027949199 0.015340842
0.33695596 0.0229409 0.019669279
0.3887051 0.026822334 0.015596031
-0.40607309 0.039154418 0.019640226
-0.39559561 0.035991017 0.01216644
0.38736326 0.031471126 0.016482767
0.40367222 0.030832689 0.017877776
0.4514111 0.043624155 0.018982101
0.29184368 -0.035769995 0.023244973
0.28818446 -0.028065883 0.026241211
-0.39198071 0.029434558 0.029244363
-0.36238152 0.0229409 0.02829469
-0.34891409 0.027949199 0.0259341
-0.32585448 0.0229409 0.021341473
-0.29767627 0.027949199 0.025957104
-0.28099164 0.0229409 0.025328018
-0.25357643 0.0229409 0.026520312
-0.23090844 0.027949199 0.023289636
-0.22436453 0.02544505 0.023983942
-0.19056156 0.0229409 0.020700172
-0.18832161 0.027949199 0.026703082
-0.13661432 0.0229409 0.027561495
-0.12644525 0.0229409 0.022557925
-0.10939084 0.027949199 0.021959119
-0.098065495 0.02544505 0.027935747
-0.054959975 0.02544505 0.024673449
0.0091777444 0.0229409 0.029442534
0.018832654 0.027949199 0.028269876
0.052914299 0.027949199 0.02171829
0.089490652 0.0229409 0.020969078
0.11335732 0.027949199 0.024290394
0.16116472 0.0229409 0.025943637
0.23897108 0.0229409 0.024759993
0.34740222 0.022940898 0.023112079
0.35135841 0.027949199 0.020952545
0.37433645 0.027980663 0.023586959
0.3838917 0.02553262 0.026170883
0.39492613 0.028489199 0.022712894
0.39984116 0.034814849 0.0252607
-0.413508 0.041399129 0.020450305
0.44622487 0.047243159 0.028402582
-0.44897321 0.052106746 0.025320556
0.46346283 0.051862109 0.027107576
0.29456079 -0.032833412 0.038272463
-0.2799488 -0.029283198 0.032951657
0.29311895 -0.019030012 0.035623632
-0.35456207 0.027949199 0.037933595
-0.23918843 0.0229409 0.034710545
-0.17239299 0.027949199 0.03596513
-0.12272196 0.027949199 0.033205651
-0.11553845 0.02544505 0.035585053
-0.099605814 0.0229409 0.034784503
-0.087878451 0.0229409 0.039210033
-0.072542407 0.0229409 0.035667844
-0.061071217 0.0229409 0.03456676
-0.050363898 0.0229409 0.030025154
-0.044917814 0.027949199 0.036311153
-0.028072709 0.027949199 0.031934217
-0.01493432 0.02544505 0.034068462
0.0058948901 0.02544505 0.036350235
0.10641692 0.027949199 0.037270419
0.11813915 0.0229409 0.037873983
0.13101295 0.0229409 0.039720211
0.14679758 0.0229409 0.034850359
0.16695374 0.0229409 0.032202896
0.2069411 0.027949199 0.033609312
0.22341084 0.0229409 0.033892393
0.23883775 0.027949199 0.034506947
0.26943228 0.027949199 0.038454778
0.30103737 0.027949199 0.038197074
0.33552906 0.027949199 0.031295493
0.35797262 0.027949199 0.033317801
0.374219 0.026653908 0.0346637
0.39230859 0.027787868 0.030975632
-0.39286518 0.035166644 0.039902039
0.40647453 0.031583615 0.039992101
0.41101438 0.032800075 0.035592273
-0.4403792 0.049512021 0.035277963
0.43227005 0.043503962 0.030604258
0.44904542 0.047998913 0.033590939
-0.27956876 -0.039673179 0.047040448
-0.37608063 0.024634134 0.049490184
-0.33061755 0.0229409 0.042671368
-0.14313255 0.027949199 0.044478986
-0.10991844 0.027949199 0.046265885
0.012808736 0.027949199 0.046134245
0.04706458 0.027949199 0.042977527
0.07786952 0.0229409 0.045796625
0.088958755 0.0229409 0.041126952
0.094447851 0.0229409 0.047041252
0.17066105 0.027949199 0.043557353
0.2132085 0.0229409 0.04296422
0.26794362 0.0229409 0.045516819
0.29908895 0.0229409 0.046784952
0.3290762 0.0229409 0.042639952
0.36661091 0.02544505 0.040569305
-0.39526898 0.035892412 0.048533708
0.40444702 0.036048837 0.044767391
0.42538774 0.036651384 0.044173509
-0.45015708 0.05246409 0.047162481
-0.28463858 -0.032696404 0.059341073
-0.27480349 -0.035566095 0.055934653
0.28760362 -0.03563492 0.056995932
0.29212612 -0.0355918 0.056403164
-0.27741769 -0.027929265 0.059844021
-0.3304579 0.027949199 0.055223983
-0.32293418 0.0229409 0.05887207
-0.25523001 0.0229409 0.054345451
-0.20690545 0.0229409 0.052779496
-0.19474161 0.0229409 0.058276374
-0.14517772 0.0229409 0.057673365
-0.08363691 0.0229409 0.052654654
-0.032548472 0.0229409 0.055675555
0.0037699901 0.0229409 0.054000437
0.011139927 0.02544505 0.050832085
0.070863068 0.0229409 0.055285104
0.16483346 0.0229409 0.051683888
0.195931 0.0229409 0.052565448
0.22387238 0.027949199 0.051116727
0.25801653 0.027949199 0.055486813
0.26407647 0.027949199 0.059950858
0.27770185 0.027949199 0.053746462
0.29641318 0.027949199 0.051469013
-0.40734309 0.034072731 0.056064583
-0.39826182 0.031330921 0.059718192
-0.38888109 0.033963758 0.056057777
0.39909363 0.034614444 0.055643827
0.43553382 0.039369896 0.053732038
-0.43876815 0.049025614 0.054388877
0.46051064 0.04890633 0.051362731
-0.28125909 -0.023558311 0.063250646
-0.3446846 0.0229409 0.062267888
-0.21345109 0.0229409 0.069600448
-0.13308388 0.027949199 0.062841021
-0.1155417 0.0229409 0.063494116
-0.10712259 0.02544505 0.065074183
-0.085219227 0.0229409 0.063411765
-0.061494771 0.0229409 0.069088973
-0.037861831 0.0229409 0.068358541
0.015313223 0.0229409 0.066592529
0.022072263 0.0229409 0.06913133
0.034282472 0.027949199 0.060961477
0.16252235 0.027949199 0.060478806
0.21239689 0.0229409 0.063527271
0.26574343 0.0229409 0.06698221
0.31631646 0.0229409 0.06792888
0.32713115 0.0229409 0.069971457
0.33807254 0.027949199 0.067642726
0.35233375 0.0229409 0.064915568
0.38036117 0.024586651 0.067056119
-0.38703302 0.033405785 0.066667341
0.38221297 0.030091112 0.06296926
0.39207268 0.032733232 0.066073306
0.42581278 0.036765218 0.065439582
-0.44544846 0.045577306 0.065140307
0.43397489 0.043960795 0.062892012
-0.44676667 0.05144044 0.061801061
-0.27411026 -0.028575782 0.079474211
0.28468975 -0.026012931 0.075522937
0.29373804 -0.029164087 0.072449207
-0.3426255 0.027949199 0.071013473
-0.32791471 0.027949199 0.070205085
-0.27510971 0.027949199 0.076098412
-0.24545161 0.022940898 0.074305624
-0.22353823 0.0229409 0.078061551
-0.20074016 0.027949199 0.074823737
-0.11133719 0.0229409 0.075140037
-0.087525651 0.0229409 0.074344873
-0.054206677 0.027949199 0.07770519
-0.033977076 0.0229409 0.078329526
-0.0055964962 0.0229409 0.074282296
0.02715379 0.027949199 0.071518034
0.060513794 0.027949199 0.077581391
0.090068534 0.0229409 0.079225548
0.10826147 0.0229409 0.076309174
0.11260701 0.0229409 0.072070584
0.13987961 0.0229409 0.076233074
0.18001018 0.0229409 0.078398563
0.20479454 0.0229409 0.074995026
0.25091577 0.027949199 0.072921351
0.26255697 0.027949199 0.077501386
0.29538113 0.027949199 0.074312866
0.3551957 0.027949199 0.078387931
0.37845576 0.029084397 0.073104411
-0.28302324 -0.027039239 0.0860122
-0.27586678 -0.024241209 0.080241121
-0.38789988 0.028202547 0.086688638
-0.37419325 0.024064334 0.088402092
-0.36924073 0.0229409 0.08967936
-0.34856039 0.027949199 0.082676955
-0.31271166 0.027949199 0.081139043
-0.30438891 0.0229409 0.086570084
-0.28857401 0.027949199 0.089572638
-0.27060065 0.027949199 0.086946033
-0.21111123 0.027949199 0.084641464
-0.2033828 0.0229409 0.089920647
-0.18784821 0.0229409 0.082409531
-0.1575487 0.0229409 0.087829061
-0.11881103 0.027949199 0.085766263
-0.1044438 0.0229409 0.08420416
-0.028721392 0.0229409 0.085900411
0.0029850155 0.027949199 0.084484175
0.024142489 0.027949199 0.085010044
0.063473955 0.02544505 0.082736239
0.085874408 0.0229409 0.08982037
0.10383512 0.027949199 0.083175346
0.1231566 0.027949199 0.08434736
0.19035779 0.0229409 0.083168581
0.3003099 0.0229409 0.080512121
0.33019671 0.0229409 0.086174667
-0.42366731 0.039001308 0.086235896
0.39815587 0.034363054 0.081497028
0.40374807 0.030853109 0.085422546
0.41620475 0.036695033 0.086228803
0.43575341 0.039428823 0.080802843
0.4283421 0.042451471 0.087860316
0.44315058 0.04641933 0.088401124
-0.35606647 0.027949199 0.097938359
-0.34237075 0.027949199 0.093637981
-0.27769977 0.027949199 0.099026442
-0.17387207 0.027949199 0.096681692
-0.16938764 0.027949199 0.099936381
-0.14637166 0.0229409 0.094929002
-0.077471904 0.027949199 0.090610147
-0.067019254 0.0229409 0.095098823
0.084396429 0.0229409 0.090284027
0.22427104 0.027949199 0.098261133
0.32332033 0.0229409 0.096112646
0.33740631 0.0229409 0.09716402
0.36598048 0.027949199 0.098002851
-0.37778044 0.030612297 0.090096399
0.3968803 0.034021214 0.097531229
0.42374614 0.036211532 0.09414129
-0.43029937 0.046468694 0.094880849
-0.39091533 0.029112987 0.10529839
-0.37047201 0.025167551 0.10021112
-0.33318809 0.0229409 0.10159127
-0.32615298 0.027949199 0.10616858
-0.29314268 0.0229409 0.10044795
-0.270769 0.027949199 0.10489734
-0.24943879 0.0229409 0.10609502
-0.22922598 0.0229409 0.10126369
-0.1319394 0.027949201 0.10338058
-0.12182257 0.027949199 0.109841
-0.015495725 0.026279768 0.10390208
0.16450007 0.0229409 0.10618988
0.17677821 0.027949199 0.1092108
0.24457 0.024610333 0.10577367
0.25034377 0.027949199 0.1069248
0.26397324 0.027949199 0.10467335
0.29947567 0.0229409 0.10165331
0.32343665 0.0229409 0.10009807
0.33667654 0.027949199 0.10011593
0.34540325 0.027949201 0.10230111
0.38831779 0.026718598 0.10644791
-0.40318242 0.032816641 0.100375
0.39326823 0.033053376 0.10697636
-0.35885033 0.027949199 0.11956004
-0.30935329 0.0229409 0.11533533
-0.26438311 0.027949199 0.11728249
-0.24758641 0.027949199 0.1124464
-0.21862143 0.02544505 0.11597343
-0.20535608 0.027949197 0.11648891
-0.083899081 0.02544505 0.11565197
-0.07553719 0.027949199 0.11748319
-0.022093393 0.027949199 0.11939345
-0.0021119267 0.0229409 0.11664243
0.0024893433 0.0229409 0.11306256
0.015142322 0.027949199 0.11824399
0.046255074 0.0229409 0.11755286
0.057166547 0.0229409 0.11639351
0.1174624 0.027949199 0.11102153
0.12455827 0.0229409 0.11684201
0.13148026 0.02544505 0.11327037
0.18616679 0.027949199 0.11432536
0.19579759 0.0229409 0.11661522
0.20942713 0.027949199 0.11456949
0.21177496 0.0229409 0.11659163
0.26734307 0.027949199 0.11670518
0.2794787 0.027949199 0.11718126
0.28213704 0.0229409 0.11450234
0.32384011 0.027949199 0.11758463
0.33164662 0.027949199 0.11407141
0.37360269 0.027783994 0.1137978
-0.38731012 0.033489447 0.11029587
-0.38196933 0.026412075 0.12737949
-0.37207946 0.028891051 0.12622592
-0.23354608 0.0229409 0.1220035
-0.210703 0.027949199 0.12687695
-0.17920223 0.0229409 0.12532286
-0.1629203 0.02544505 0.12553361
-0.15567029 0.027949199 0.12149456
-0.13038349 0.0229409 0.12520307
-0.10883385 0.0229409 0.12804872
-0.030091092 0.0229409 0.12718172
-0.028002381 0.027949199 0.12051953
0.027260184 0.027949199 0.12629551
0.062446386 0.027949199 0.12642607
0.09685377 0.027949199 0.12821828
0.14622159 0.0229409 0.12169472
0.19215001 0.0229409 0.12800631
0.21615231 0.027949199 0.12011175
0.2233699 0.0229409 0.1208238
0.26071665 0.0229409 0.12923276
0.31502554 0.027949199 0.12208851
0.37407729 0.023469787 0.1202762
0.38199997 0.030034166 0.12225563
0.40320009 0.033210423 0.12648144
0.41270918 0.033254173 0.12537403
-0.37447429 0.024149202 0.13070504
-0.36703676 0.027949201 0.13068745
-0.34340832 0.0229409 0.1354574
-0.28225008 0.0229409 0.13524637
-0.26625177 0.0229409 0.13149253
-0.25681177 0.027949199 0.13656436
-0.22371991 0.027949199 0.13443938
-0.17331386 0.027949199 0.13931903
-0.14964896 0.027949199 0.13611807
-0.12279013 0.0229409 0.13826776
-0.11300369 0.027949199 0.13209422
-0.093961433 0.0229409 0.13743934
-0.073401995 0.0229409 0.13953641
-0.055511981 0.027949199 0.13805819
-0.0083487481 0.027949199 0.13506225
0.052094012 0.027949199 0.13699949
0.069024429 0.027949199 0.13585368
0.08597105 0.027949199 0.1339173
0.1272651 0.027949199 0.13211764
0.14352998 0.0229409 0.1307441
0.1688008 0.027949199 0.13352785
0.21636143 0.027949199 0.13345717
0.26581287 0.027949199 0.13789684
0.3347702 0.0229409 0.13666847
0.37750766 0.023822069 0.13937998
0.39000723 0.027171278 0.1375073
-0.41304374 0.03638833 0.13101032
0.40740025 0.036840234 0.13684884
-0.38760585 0.028113805 0.1442652
-0.37348044 0.024682071 0.14570904
-0.34721446 0.0229409 0.14197469
-0.29095507 0.027949199 0.14113085
-0.27337974 0.027949197 0.14394531
-0.26941589 0.0229409 0.14419724
-0.24141251 0.0229409 0.14353138
-0.23106557 0.027949199 0.14646947
-0.20916073 0.027949199 0.14731096
-0.1896006 0.0229409 0.14654565
-0.17710811 0.02544505 0.14923696
-0.14958394 0.027949199 0.14488575
-0.1252887 0.0229409 0.14766884
-0.095648818 0.02544505 0.14637747
-0.070966184 0.0229409 0.1462089
0.035387993 0.0229409 0.14667869
0.24932502 0.0229409 0.14601895
0.29537433 0.027949199 0.14668
0.362185 0.0229409 0.14296755
0.38208908 0.027553806 0.14243838
-0.37851772 0.03083485 0.14637694
0.3991951 0.033342779 0.14593032
0.40096676 0.030107761 0.14495085
-0.28657854 0.0229409 0.15785894
-0.25014314 0.0229409 0.15233797
-0.23564321 0.0229409 0.15690237
-0.21636333 0.027949199 0.1569652
-0.16801029 0.027949199 0.15927961
-0.12506983 0.027949199 0.15926076
0.017733462 0.0229409 0.15539205
0.032804754 0.0229409 0.15009856
0.053644583 0.02544505 0.15557155
0.06730859 0.0229409 0.15331323
0.11058304 0.027949199 0.15425001
0.13069068 0.0229409 0.15580621
0.15761387 0.0229409 0.15075597
0.16851532 0.027949199 0.15542108
0.27871579 0.027949199 0.15853734
-0.32609773 0.023521755 0.16350099
-0.066262931 0.027949199 0.16163081
0.025643246 0.0229409 0.16037753
0.056424648 0.0229409 0.16213349
0.073695667 0.023406755 0.16350099
0.085646592 0.024866417 0.16350099
0.13998631 0.027949199 0.16129538
0.1708694 0.024772167 0.16350099
0.24268211 0.027949199 0.16156748
0.26503429 0.027949199 0.16138783
0.29797569 0.024915377 0.16350099
0.30586153 0.027949199 0.16149366
0.33092612 0.0229409 0.16068397
0.35752261 0.027949199 0.16047022
0.361469 0.025622517 0.16350099
