# .PCD v0.7 - Point Cloud Data file format
VERSION 0.7
FIELDS x y z
SIZE 4 4 4
TYPE F F F
COUNT 1 1 1
WIDTH 879
HEIGHT 1
VIEWPOINT 0 0 0 1 0 0 0
POINTS 879
DATA ascii
-0.29782376 0.016462162 -0.092639901
-0.27828896 0.016594974 -0.092639901
-0.26585484 0.017399905 -0.09257479
-0.19010942 0.017069072 -0.091917083
-0.081303649 0.017878259 -0.092639901
0.053873055 0.018498899 -0.092639901
0.082909487 0.016812891 -0.090529323
0.092682391 0.017643858 -0.092639901
0.12610343 0.0175933 -0.092639901
0.14777902 0.017021187 -0.090447634
0.18192114 0.017130816 -0.090465501
0.22878006 0.017281281 -0.092159674
0.28338915 0.015958693 -0.092516392
0.31412044 0.017993877 -0.092639901
0.33919021 0.014315482 -0.092639908
-0.36282867 0.02202481 -0.09110333
-0.26442975 0.027628552 -0.092639901
-0.23611607 0.027671512 -0.092639901
-0.20465109 0.022770006 -0.092639901
-0.077407464 0.02338006 -0.092639901
-0.055294447 0.023319829 -0.092639908
-0.047244433 0.021119658 -0.092639901
-0.0053197965 0.028323948 -0.092639901
0.24243949 0.02669958 -0.092639901
0.33745015 0.021423623 -0.092639901
-0.23320784 0.039266013 -0.090963975
-0.22380441 0.036494024 -0.092271201
-0.20187515 0.030609731 -0.092639901
-0.19635814 0.033429988 -0.092639901
-0.14391389 0.035683937 -0.092639901
-0.13013342 0.034770958 -0.092639893
-0.12085499 0.036488999 -0.092639908
-0.11672184 0.034707721 -0.092639901
-0.10883237 0.034493919 -0.092639908
-0.098860539 0.038679227 -0.090256006
-0.074902058 0.032685779 -0.092639901
-0.061192438 0.033739809 -0.092639893
0.00012178393 0.032722898 -0.092639901
0.081679307 0.031822231 -0.092639901
0.15212962 0.039043855 -0.091805659
0.16455072 0.037587482 -0.092639901
0.17492789 0.033268325 -0.092639901
0.23688239 0.034310509 -0.092639901
-0.36001834 0.019088678 -0.086162075
-0.3339909 0.013758944 -0.086434551
-0.31566933 0.013246032 -0.080809809
-0.2911357 0.015307711 -0.088665649
-0.18166447 0.017032187 -0.08100044
-0.11435358 0.016738195 -0.086811751
-0.097014777 0.016662464 -0.082781538
-0.03001491 0.01645029 -0.086572662
-0.025467539 0.016464891 -0.085579745
0.056330331 0.016727544 -0.082242996
0.082866453 0.016812751 -0.080557309
0.093167186 0.016845826 -0.08597292
0.11670674 0.016921412 -0.087720893
0.18807836 0.017150588 -0.083291471
0.25442743 0.017363634 -0.084452301
0.29877457 0.01466578 -0.082286917
0.32072842 0.01330941 -0.080450185
0.35871994 0.018731957 -0.081805207
0.3617759 0.019571772 -0.087415695
-0.32061681 0.035314426 -0.085719407
-0.31434983 0.035365712 -0.08372695
-0.28178617 0.038102131 -0.082413271
-0.23114845 0.03925702 -0.08304774
-0.16405328 0.03896397 -0.08857514
-0.082539916 0.038607944 -0.088840872
-0.074411988 0.038572446 -0.082821593
-0.016404638 0.038502689 -0.089500569
0.033413015 0.038662661 -0.084011972
0.093566671 0.03885581 -0.080830805
0.10460088 0.038891241 -0.085322611
0.12366743 0.038952466 -0.089307018
0.15463068 0.039051887 -0.0864136
0.20792587 0.039223015 -0.081779972
0.2321818 0.039300904 -0.089250848
0.28423637 0.037896235 -0.085951895
0.3270053 0.03553097 -0.081203744
0.39909118 0.034101363 -0.087611847
-0.38044834 0.04632118 -0.088280022
-0.37079719 0.043765906 -0.088947147
-0.41027665 0.055373415 -0.082455575
-0.39392585 0.052118275 -0.080207542
0.38996068 0.050124049 -0.080759801
0.39488387 0.052600093 -0.082032263
0.42340782 0.050032228 -0.080922216
-0.35608825 0.018008672 -0.078631751
-0.2380175 0.017278319 -0.070863046
-0.22531913 0.017222857 -0.07015264
-0.17759579 0.017014418 -0.078241847
-0.11924606 0.016759565 -0.078927755
-0.084688097 0.016608626 -0.070269823
0.055334598 0.016724346 -0.071648203
0.09000814 0.016835684 -0.070977792
0.12573877 0.016950414 -0.07304059
0.13476609 0.016979402 -0.079653062
0.16217926 0.017067425 -0.071026973
0.18263455 0.017133106 -0.072119519
0.25954229 0.017380057 -0.072206251
0.29430804 0.015041125 -0.073703885
0.33856103 0.013913851 -0.070858754
-0.38272703 0.02532915 -0.073620327
-0.37790969 0.024005322 -0.072312281
-0.40569785 0.033785436 -0.078739896
-0.31143358 0.035610773 -0.077754118
-0.27789086 0.038429469 -0.074192248
-0.2487773 0.039334014 -0.070858218
-0.21606091 0.039191123 -0.077782311
-0.1698879 0.038989451 -0.074236497
-0.13065749 0.038818106 -0.075902469
-0.11838155 0.038764488 -0.07765945
-0.064038604 0.038527139 -0.073129892
0.072910212 0.038789485 -0.077534758
0.17672668 0.039122835 -0.072709709
0.20814775 0.039223731 -0.07369253
0.21221428 0.039236788 -0.076231435
0.22125943 0.03926583 -0.07540068
0.23891614 0.039322525 -0.072466858
0.24591945 0.039345015 -0.077017196
0.29443723 0.037039027 -0.073773943
0.33992836 0.035969 -0.07669574
-0.42566445 0.044194676 -0.071561113
0.38685891 0.048564084 -0.07751397
0.41967803 0.041074 -0.074284166
-0.39201486 0.051157176 -0.079090275
-0.42652762 0.062890001 -0.077417232
0.42994127 0.06347625 -0.074933015
-0.34300089 0.014576389 -0.066335157
-0.32527116 0.013463386 -0.069984369
-0.22553763 0.017223811 -0.063837901
-0.14812779 0.016885711 -0.067667976
-0.078502491 0.016581608 -0.066213869
-0.0084473528 0.016519543 -0.060025599
0.039741177 0.016674276 -0.062145136
0.071847379 0.016777368 -0.066591807
0.1822982 0.017132027 -0.068618312
0.22828947 0.017279705 -0.063104995
-0.36947447 0.02168728 -0.063504256
0.39704043 0.029272556 -0.061884802
-0.3448343 0.036891915 -0.064371012
-0.32438388 0.035442114 -0.060845587
-0.31307554 0.035472788 -0.061386757
-0.30078194 0.036505859 -0.064638808
-0.21957433 0.039206468 -0.063598841
-0.20585427 0.039146543 -0.065420434
-0.16907135 0.038985886 -0.060590457
-0.15612283 0.038929328 -0.0615329
-0.11509991 0.038750157 -0.066870026
-0.098018944 0.038675554 -0.065358542
-0.042165 0.0384316 -0.062233217
-0.035208333 0.038442314 -0.063913606
0.027722519 0.038644385 -0.0617221
0.049066477 0.038712919 -0.067197211
0.061205473 0.0387519 -0.064789109
0.11883707 0.038936954 -0.069100611
0.13773631 0.038997639 -0.060355827
0.29566172 0.036936127 -0.061186057
0.31769118 0.035215259 -0.060008761
0.33400607 0.035768263 -0.069297001
0.34536973 0.0370587 -0.063439779
-0.43267965 0.047851946 -0.062673546
-0.42648575 0.04462285 -0.060796708
-0.37229151 0.044161536 -0.062265899
0.36668217 0.042676404 -0.063899189
0.39539239 0.052855849 -0.06819246
0.44585413 0.055078115 -0.069691911
-0.43589738 0.069879815 -0.067479461
-0.42904872 0.069786198 -0.061250232
-0.436212 0.073392287 -0.063770607
0.43321866 0.071885407 -0.061819293
0.44225061 0.074989527 -0.060526375
-0.24900712 0.01732632 -0.05167757
-0.19322696 0.017082687 -0.056238618
-0.087931842 0.016622793 -0.058470637
-0.076922782 0.016574709 -0.057466865
-0.068836875 0.016539391 -0.058364861
-0.050031107 0.016457256 -0.055642258
-0.021001276 0.016479231 -0.054309018
-0.011900241 0.016508454 -0.054289181
0.019801419 0.01661025 -0.053142603
0.026936259 0.016633159 -0.059861735
0.045494735 0.01669275 -0.051763806
0.05360464 0.016718792 -0.050817575
0.063278124 0.016749853 -0.054045491
0.09844175 0.016862763 -0.056252688
0.1079277 0.016893223 -0.058902048
0.12003188 0.016932089 -0.059070159
0.27867609 0.016354755 -0.057986125
0.28465673 0.015852172 -0.05905094
0.31658292 0.013169258 -0.055647593
-0.39519116 0.028754372 -0.055274703
-0.37144691 0.022229312 -0.050098509
0.36514902 0.020498738 -0.053473335
-0.4157033 0.039001606 -0.055037454
-0.40665498 0.034284413 -0.057009414
-0.27457535 0.038708076 -0.05492419
-0.21515386 0.039187159 -0.054647174
-0.19246149 0.039088048 -0.057940204
-0.17593192 0.039015852 -0.054083787
-0.071073867 0.038557865 -0.05689808
-0.055477578 0.038489744 -0.053842299
0.05816108 0.038742121 -0.05699962
0.061573595 0.038753081 -0.053287633
0.072201386 0.038787208 -0.058369122
0.080332339 0.038813315 -0.058811806
0.19709818 0.039188251 -0.054590438
0.20720571 0.039220706 -0.051871356
0.22275043 0.039270617 -0.055526733
0.2372687 0.039317235 -0.057524446
0.27562213 0.038620111 -0.052137479
0.29360035 0.037109353 -0.054894567
0.3292672 0.035607636 -0.054230109
0.35826385 0.040447541 -0.050958876
0.42717034 0.044979893 -0.050374359
-0.40543911 0.05790868 -0.055242129
-0.39927787 0.054809984 -0.050096728
0.45255464 0.074999735 -0.054047618
-0.34932443 0.016149933 -0.042776067
-0.32055578 0.013303557 -0.049307004
-0.24686264 0.017316952 -0.046796788
-0.22220623 0.01720926 -0.045706332
-0.20673093 0.01714167 -0.044624969
-0.19465341 0.01708892 -0.047142636
-0.15495983 0.01691555 -0.04332599
-0.1270255 0.016793542 -0.046094786
0.025398087 0.016628221 -0.04993118
0.081657887 0.016808871 -0.049701221
0.15789069 0.017053654 -0.045143232
0.19191061 0.017162893 -0.04135751
0.20531444 0.017205933 -0.046619907
0.30562052 0.014090481 -0.046114825
-0.37015927 0.021875463 -0.046742413
-0.36819667 0.021336125 -0.048080612
0.36997989 0.021826314 -0.044530291
-0.33672673 0.035860479 -0.045849413
-0.27884352 0.038349412 -0.043387286
-0.22575209 0.03923345 -0.040266477
-0.20212783 0.039130267 -0.043162793
-0.11175358 0.038735539 -0.041622251
-0.099032305 0.03867998 -0.045705304
-0.078293763 0.038589399 -0.042076215
0.0018339679 0.038561258 -0.049020596
0.017986516 0.038613122 -0.045455649
0.026615229 0.038640831 -0.041459482
0.12455469 0.038955312 -0.047371261
0.17418921 0.039114691 -0.047536343
0.24019806 0.039326645 -0.044007991
0.26602331 0.039409567 -0.049051028
0.32008469 0.035296388 -0.042148672
0.34304136 0.036417201 -0.044392824
0.40646917 0.03418795 -0.04916862
-0.43219373 0.047598615 -0.044460662
0.387119 0.048694875 -0.048632603
-0.45396078 0.058639016 -0.041317068
0.45795715 0.060650785 -0.043601688
0.465314 0.064815886 -0.049551569
-0.43894178 0.074766494 -0.046976212
0.44652885 0.078585953 -0.04337766
0.45818627 0.074699432 -0.044473171
0.4513624 0.081661463 -0.045358408
-0.21922286 0.017196231 -0.039978825
-0.20684533 0.017142169 -0.036903523
-0.18119955 0.017030157 -0.038017116
-0.1491691 0.016890258 -0.039639603
-0.058808871 0.016495593 -0.033591487
-0.034158066 0.016436985 -0.033866964
0.029993977 0.016642978 -0.033316024
0.04313945 0.016685188 -0.030919041
0.051787667 0.016712956 -0.03331206
0.11394425 0.016912542 -0.038415216
0.1392931 0.016993936 -0.030383492
0.17357405 0.017104015 -0.039573416
0.22966398 0.01728412 -0.037446484
0.23513885 0.017301697 -0.033892304
0.3372255 0.013868582 -0.034337729
0.35754454 0.018408943 -0.038328916
0.38056368 0.024734847 -0.037480447
-0.32218641 0.03536763 -0.033437468
-0.31362802 0.035426367 -0.035597786
-0.26776221 0.039280601 -0.034588639
-0.2307636 0.039255336 -0.031500719
-0.21464214 0.039184924 -0.036383081
-0.18096593 0.039037835 -0.039830543
-0.094820529 0.038661584 -0.034828775
-0.05118116 0.03847098 -0.033225257
-0.042612482 0.038433556 -0.032687318
-0.017804157 0.038498197 -0.030341707
0.051640395 0.038721185 -0.03886991
0.12426683 0.038954388 -0.036143281
0.17623882 0.03912127 -0.037060045
0.18814094 0.039159492 -0.035890918
0.19073994 0.039167833 -0.031861965
0.21057986 0.039231542 -0.035910979
0.23798187 0.039319526 -0.039483789
0.24542043 0.039343413 -0.033091865
0.25815427 0.039384302 -0.030426646
0.29186931 0.037254814 -0.037770696
0.30562413 0.036098957 -0.035401449
0.3114647 0.035608158 -0.031633019
0.41189915 0.037018698 -0.03330281
-0.43646038 0.049822956 -0.033815578
-0.38595825 0.048111103 -0.033297218
-0.36772895 0.042953551 -0.034985669
0.42677388 0.044773214 -0.034016863
0.44820461 0.05574137 -0.039662499
-0.42196983 0.066222586 -0.037681989
-0.41656524 0.063504376 -0.039759599
0.46666086 0.066241443 -0.035298519
0.44037306 0.075487033 -0.032501142
0.46460101 0.071095839 -0.036601003
-0.45285177 0.083035439 -0.031992853
0.44995001 0.08035811 -0.035479337
-0.34169763 0.014054046 -0.02915116
-0.32052749 0.013302598 -0.022816094
-0.28036407 0.016212907 -0.028678488
-0.18134862 0.017030809 -0.023259077
-0.17489384 0.017002614 -0.0236104
-0.094912216 0.016653281 -0.024883982
-0.025947532 0.016463351 -0.021877185
-0.011705289 0.016509082 -0.027590048
-0.0075669615 0.01652237 -0.029056115
0.0172181 0.016601954 -0.025186956
0.042816203 0.016684148 -0.025835885
0.067444921 0.016763233 -0.021577127
0.072626002 0.01677987 -0.024392709
0.19411816 0.01716998 -0.023316354
0.20727527 0.017212229 -0.020093093
0.2896474 0.015432781 -0.02367785
0.292514 0.015191887 -0.027510455
0.30703443 0.013971665 -0.022912458
-0.34833592 0.037819013 -0.022722131
-0.083663657 0.038612854 -0.02094787
-0.037004683 0.038436547 -0.029871909
-0.023287237 0.038480595 -0.023994094
0.010732837 0.038589831 -0.029022815
0.10384834 0.038888827 -0.029567942
0.14654815 0.039025933 -0.020187747
-0.37867117 0.045850642 -0.029049426
0.4053967 0.057887349 -0.0273434
0.45375204 0.058533937 -0.021260943
-0.45861748 0.060983196 -0.021220712
-0.42345786 0.066971675 -0.021143705
0.43452415 0.072542608 -0.023890626
0.4417935 0.076202109 -0.021182165
-0.45935506 0.081757218 -0.02489974
-0.36092436 0.019337656 -0.014589708
-0.31093222 0.01364411 -0.011213917
-0.30404246 0.014223097 -0.015307235
-0.27009654 0.017075738 -0.018225489
-0.23440045 0.017262522 -0.019874915
-0.21146712 0.017162357 -0.018223543
-0.20718156 0.017143639 -0.013502884
-0.1840556 0.017042631 -0.019761253
-0.14044377 0.01685215 -0.018126234
-0.087068513 0.016619021 -0.012526466
-0.040442757 0.016416807 -0.018919203
-0.011926066 0.016508373 -0.019037515
-0.0075057233 0.016522566 -0.012788754
0.070053026 0.016771607 -0.018513046
0.15790582 0.017053703 -0.016381444
0.21667692 0.017242417 -0.01707321
0.23767774 0.017309852 -0.014205147
0.25211674 0.017356213 -0.016319875
0.27742097 0.016460229 -0.015751928
-0.33479667 0.035795055 -0.013243542
-0.31892407 0.035257049 -0.014675685
-0.2990486 0.036651518 -0.018047556
-0.26717278 0.039330136 -0.011424585
-0.25197747 0.039347991 -0.018966254
-0.14820214 0.038894735 -0.018398613
-0.12582351 0.038796995 -0.015462302
-0.097769096 0.038674459 -0.017580114
-0.064245269 0.03852804 -0.013533753
-0.052284747 0.0384758 -0.015861142
-0.040266924 0.038426071 -0.014466777
-0.026456177 0.038470417 -0.01781271
0.020219818 0.038620293 -0.013477631
0.086799361 0.038834084 -0.015552704
0.10284515 0.038885608 -0.01596687
0.11549555 0.038926221 -0.010500643
0.16320586 0.03907942 -0.011372485
0.23838663 0.039320827 -0.018110245
0.25902817 0.039387107 -0.011109849
-0.37881756 0.0458894 -0.015697859
0.36171842 0.041362185 -0.015471831
0.38713795 0.048704408 -0.01193635
-0.44531453 0.054286528 -0.01341102
0.46880835 0.074037559 -0.010466116
-0.46228552 0.081106715 -0.010115737
0.45838097 0.085056044 -0.019623194
-0.29160374 0.01526838 -0.004295229
-0.15543187 0.016917612 -0.0042016506
-0.13784398 0.016840793 -0.009736307
-0.080777578 0.016591545 -0.007109154
0.00098900683 0.016549842 -0.0054543167
0.084415063 0.016817726 -0.006651212
0.13318807 0.016974334 -0.0050467127
0.17959829 0.017123356 -0.0096746301
0.18716034 0.01714764 -0.0055250693
0.2142735 0.0172347 -0.0090328315
0.26286742 0.017390735 -0.0082469732
-0.41563261 0.038964756 -0.0060358681
-0.35362136 0.039218396 -0.0035720207
-0.33815998 0.03590906 -0.0066828458
-0.32092774 0.035324965 -0.0044128262
-0.31302315 0.035477199 -0.0090789776
-0.29798883 0.036740575 -0.0062303133
-0.28873324 0.037518345 -0.0038924105
-0.25104403 0.039343916 -0.0084671043
-0.20585684 0.039146554 -0.0043345056
-0.19331838 0.039091788 -0.00041600689
-0.17874543 0.039028142 -0.0032961015
-0.16277625 0.038958393 -0.0052700974
-0.12490255 0.038792972 -0.0033388101
-0.090956874 0.038644709 -0.0063338447
-0.088538498 0.038634144 -0.0051214341
-0.063501641 0.038524792 -0.0030183867
-0.056626432 0.038494762 -0.00085582444
-0.0025703218 0.038547114 -0.0044851676
0.0071417121 0.038578302 -0.0058712736
0.10514633 0.038892996 -0.0059659947
0.11262555 0.038917009 -0.0035745471
0.1342153 0.038986333 -0.0099298507
0.19302577 0.039175175 -0.00077474676
0.32013392 0.035298061 -0.00025398377
0.3341881 0.035774432 -0.0077499393
0.35910252 0.040669601 -0.0054235435
0.36926514 0.043360271 -0.0028477143
0.43305498 0.048047662 -0.00098853651
-0.40593597 0.058158562 -0.0036749467
0.43769395 0.050450355 -0.0049137063
-0.41030008 0.060353436 -0.0085071549
0.42374867 0.067118093 -0.0039611608
0.46269143 0.063034013 -0.0065627536
-0.46538809 0.077744432 -0.0031414088
-0.43970269 0.075149566 -0.0085790716
0.43192658 0.071234949 -0.0066320747
0.44979477 0.08023005 -0.0047010616
-0.36103764 0.01936879 0.0033719502
-0.29441392 0.015032228 0.00053331628
-0.23701966 0.017273962 0.0029715551
-0.22839226 0.017236281 0.0039998055
-0.20432058 0.017131142 0.005950558
-0.16267905 0.016949266 0.0022901236
-0.11269315 0.016730942 0.0094705913
-0.10139713 0.016681606 0.00048775971
-0.098494396 0.016668927 0.0087669492
-0.089613587 0.016630139 0.0025458355
0.011555199 0.016583771 0.0020715147
0.1040317 0.016880713 0.0022127863
0.16419201 0.017073888 0.00075605884
0.21658197 0.017242111 0.0093192421
0.23039342 0.017286461 0.0059910635
0.24428409 0.017331064 0.0053634085
0.26185176 0.017387474 0.0008271262
0.29802173 0.014729047 0.0085380748
0.34252396 0.014281131 0.00011501089
0.37098613 0.02210284 0.0029474385
-0.40735584 0.034649789 0.0064051356
-0.34730935 0.037547201 0.0085244291
-0.32654679 0.035515428 0.006438788
-0.31047255 0.035691533 1.7728657e-05
-0.00999346 0.038523279 0.0064000152
0.02739542 0.038643338 0.0080005955
0.06294176 0.038757477 0.0062682279
0.11386842 0.038921002 0.00035712845
0.17925912 0.039130967 0.0042547695
0.27659068 0.03853872 0.0050751548
0.28083247 0.038182274 0.009289097
0.31549281 0.035269663 0.0088822069
0.41081867 0.036455438 0.0036904979
-0.42375666 0.043200094 0.0010225959
-0.38705432 0.048662368 0.0041588955
0.43679431 0.049997043 0.008208856
-0.44300231 0.053122565 0.0046013072
0.3960526 0.053187903 0.0075990502
-0.43203866 0.07129138 0.0069974158
-0.46264765 0.080714248 0.0021377045
0.45218703 0.082422405 0.0038421014
-0.32205999 0.013354542 0.01916186
-0.2936151 0.015099353 0.018118553
-0.24545297 0.017310794 0.012926266
-0.21622804 0.017183151 0.012475889
-0.18816426 0.017060578 0.012833204
-0.12343363 0.016777853 0.014749286
-0.063853495 0.016517626 0.018536266
-0.053149879 0.016470876 0.015786223
0.018098988 0.016604783 0.013846951
0.10257619 0.01687604 0.016373266
0.1748822 0.017108213 0.016877946
0.18747549 0.017148651 0.014185568
0.23848522 0.017312443 0.011440162
0.25559601 0.017367385 0.014239068
0.31467852 0.013329294 0.015525821
0.33241203 0.013705429 0.012078496
0.35827407 0.018609429 0.015100678
0.37989405 0.024550825 0.016398877
-0.40038782 0.031017138 0.019217618
-0.34623799 0.03726355 0.013366827
-0.32706517 0.035532996 0.010402059
-0.27708185 0.038497448 0.016107211
-0.26925942 0.039154787 0.016860001
-0.17231824 0.039000068 0.01148516
-0.15836389 0.038939118 0.013620794
-0.1360877 0.038841825 0.010536939
-0.04917787 0.038462229 0.012486085
-0.0013583824 0.03855101 0.016859295
0.0018991902 0.038561463 0.017630853
0.046159685 0.038703587 0.011024361
0.1010687 0.038879901 0.015102543
0.11965768 0.038939588 0.010695403
0.25956959 0.039388843 0.018121805
0.28693298 0.037669629 0.011977689
0.29481974 0.037006881 0.01719553
0.40068159 0.031170748 0.019573323
-0.43426725 0.048679601 0.01533795
0.36640686 0.042603508 0.013161339
0.3742035 0.044667773 0.015984312
0.38899696 0.049639367 0.019775312
-0.41264212 0.061531328 0.012934709
0.47029004 0.069179595 0.017962066
-0.46575379 0.077348068 0.015233003
-0.43871078 0.074650228 0.019285239
0.43910369 0.074848011 0.010244252
0.45768392 0.086092547 0.016097855
-0.27806371 0.016406216 0.024343209
-0.26562351 0.017398894 0.027072929
-0.2142311 0.017174428 0.027020475
-0.19276126 0.017080653 0.024131803
-0.17920631 0.017021449 0.028476711
-0.1647864 0.01695847 0.022361023
-0.12804203 0.016797982 0.026408019
-0.052137226 0.016466454 0.02192007
-0.034860574 0.016434731 0.020733953
-0.0048078848 0.016531229 0.024420902
0.10740893 0.016891558 0.021639014
0.11301732 0.016909566 0.024565822
0.12461556 0.016946808 0.02078972
0.18121368 0.017128544 0.021452207
0.21044026 0.017222391 0.027351394
-0.39582747 0.028929234 0.022356287
-0.38083366 0.024808852 0.029666016
-0.27492005 0.038679108 0.021401081
-0.26824504 0.039240029 0.027350754
-0.25202155 0.039348185 0.022196863
-0.12512803 0.038793955 0.026601627
-0.068621591 0.038547151 0.022027081
-0.05191236 0.038474172 0.023968086
-0.014829362 0.038507752 0.022740502
0.041656516 0.038689129 0.02864459
0.078092873 0.038806126 0.026022458
0.089300022 0.038842112 0.02500922
0.2609711 0.039393343 0.024359245
0.28486228 0.037843637 0.024868347
0.33223352 0.035708178 0.028946148
0.34851563 0.037866592 0.028482441
-0.36225861 0.04150521 0.028765447
0.35770819 0.040300429 0.025683042
0.36791575 0.043003011 0.022649445
0.40249866 0.056429837 0.025225328
0.43703333 0.050117783 0.023643909
-0.46685019 0.066005372 0.02806079
0.41611415 0.06327752 0.023101162
-0.44092035 0.07576254 0.020002306
0.42964464 0.070086196 0.028747506
0.44667336 0.0786587 0.027018167
-0.3579067 0.01850839 0.038113803
-0.32130218 0.013328858 0.035092391
-0.27054018 0.017038453 0.031908769
-0.25057217 0.017333155 0.039182708
-0.24033675 0.01728845 0.032229725
-0.2071539 0.017143518 0.036315352
-0.14311723 0.016863827 0.034918264
-0.064241245 0.016519319 0.030807871
-0.040672705 0.01641638 0.030729802
-0.016770348 0.016492818 0.034028023
0.052176632 0.016714206 0.03102367
0.088397741 0.016830513 0.033223785
0.098606832 0.016863294 0.033682749
0.14610302 0.017015804 0.032830268
0.15309614 0.01703826 0.032058377
0.17754053 0.01711675 0.031099312
0.20157066 0.017193912 0.03206297
0.24139777 0.017321795 0.031859607
0.28362444 0.015938919 0.036161728
0.35461694 0.017604409 0.039907213
-0.38562012 0.026124204 0.039305829
-0.35427892 0.039392486 0.03721372
-0.31710267 0.035195313 0.035700519
-0.29281294 0.037175514 0.034666128
-0.28727233 0.037641112 0.030515408
-0.15031229 0.038903952 0.037551347
-0.14552817 0.038883056 0.036525451
-0.059543967 0.038507506 0.033948541
0.0077028647 0.038580105 0.033095904
0.069614097 0.038778901 0.03036755
0.12913436 0.03897002 0.035178136
0.15865307 0.039064806 0.038099319
0.19167912 0.03917085 0.033374973
0.25501969 0.039374232 0.035124861
0.26701346 0.039343525 0.032935761
0.3200658 0.035295747 0.03866782
0.33829844 0.035913751 0.033079594
-0.39839008 0.054363485 0.036330711
-0.42343184 0.066958576 0.030959247
-0.41596633 0.063203178 0.036032017
-0.43214798 0.071346417 0.038419418
0.43648374 0.073529094 0.038855359
0.44361332 0.077118218 0.038307987
0.46664089 0.072183892 0.037832871
-0.35680282 0.018205034 0.044761803
-0.29677397 0.0148339 0.046021029
-0.26193732 0.017382795 0.047371861
-0.21812336 0.017191429 0.046470605
-0.20564777 0.017136941 0.043214813
-0.1737396 0.016997576 0.041448735
-0.134192 0.016824843 0.042573307
-0.1128548 0.01673165 0.047559328
-0.067032471 0.01653151 0.043046586
-0.009367764 0.016516587 0.043754481
0.089407086 0.016833752 0.041246288
0.14547047 0.017013773 0.04479634
0.15715277 0.017051283 0.049656145
0.17163162 0.017097777 0.047466528
0.19553381 0.017174525 0.042808626
0.24459088 0.017332047 0.048689295
0.356702 0.018177405 0.049926154
-0.39426881 0.028500905 0.041662402
0.39385149 0.028386494 0.048059747
-0.30573434 0.036089696 0.045665048
-0.1453723 0.038882375 0.040221382
0.087769724 0.038837194 0.040496457
0.10763694 0.03890099 0.04970419
0.13304316 0.03898257 0.0421509
0.2456803 0.039344244 0.046713807
0.27473027 0.038695056 0.04007275
0.3223297 0.035372488 0.041673355
-0.36734992 0.042853206 0.041661087
-0.45154572 0.057423264 0.044621505
-0.43864754 0.050930381 0.043109722
-0.39103562 0.050664689 0.049698286
-0.41311181 0.061767552 0.04359046
-0.44427866 0.077453166 0.044425931
-0.43288785 0.071718857 0.046983644
0.43742728 0.074004076 0.045874141
-0.45588166 0.081038296 0.044429913
-0.17318746 0.016995164 0.050701406
-0.12881716 0.016801367 0.053981572
-0.085747063 0.016613251 0.054493587
-0.063760631 0.01651722 0.055774268
-0.040451072 0.016416779 0.051130027
0.057533436 0.016731407 0.051929202
0.13882233 0.016992426 0.059625894
0.18457866 0.017139349 0.050897889
0.2250593 0.017269332 0.051385485
0.2320371 0.017291738 0.057397399
-0.36800265 0.021282813 0.059301604
0.37259799 0.022545803 0.057132725
-0.40017229 0.030904779 0.056942888
-0.33318838 0.035740547 0.053492505
-0.29245391 0.037205689 0.052063286
-0.23129381 0.039257653 0.050148726
-0.228057 0.039243516 0.058297902
-0.20101541 0.039125409 0.055022877
-0.17134124 0.038995802 0.054694675
-0.10498781 0.03870599 0.050436214
-0.092301399 0.03865058 0.055067386
-0.010403277 0.038521964 0.055376962
0.029761519 0.038650934 0.053043272
0.085598648 0.038830224 0.054151691
0.091714621 0.038849868 0.056085676
0.15526591 0.039053928 0.059251919
0.21684994 0.039251678 0.052508287
0.23485978 0.039309502 0.055333726
0.27988631 0.038261779 0.05631711
0.31466079 0.035339579 0.05125846
0.34698534 0.037461422 0.05021609
-0.42224777 0.042413458 0.055377673
0.39583296 0.05307743 0.058943599
-0.42542404 0.067961484 0.057855982
-0.3254568 0.013469678 0.069215015
-0.29813766 0.014719304 0.068233885
-0.17881615 0.017019747 0.0672011
-0.08971034 0.016630562 0.067380816
0.038142726 0.016669143 0.0698485
0.090640008 0.016837712 0.063029513
0.10437742 0.016881822 0.06025216
0.14581881 0.017014891 0.065362498
0.165966 0.017079584 0.067716122
0.18518861 0.017141307 0.063913688
0.2660186 0.017400853 0.064781889
0.27187294 0.016926453 0.067961
0.30744019 0.013937567 0.064287573
-0.35377324 0.039258596 0.064002298
-0.29592741 0.036913801 0.066828042
-0.091252804 0.038646001 0.065568164
-0.082684234 0.038608573 0.06150081
-0.073786028 0.038569711 0.065916285
-0.066161133 0.038536407 0.063651055
0.011059221 0.038590878 0.069752187
0.046127032 0.038703483 0.0645568
0.082582429 0.038820542 0.062874839
0.15880971 0.039065309 0.068130262
0.16316478 0.039079294 0.068566062
0.19835246 0.039192278 0.069047689
0.27621502 0.038570289 0.069317929
0.30885544 0.035827421 0.066732258
0.34141791 0.036019485 0.061017014
0.35203034 0.03879714 0.065484501
0.40850157 0.035247475 0.066775404
-0.38669428 0.048481274 0.067034632
0.3728838 0.044318363 0.063739419
0.41994786 0.041214645 0.068736322
-0.45544744 0.064105317 0.067534819
0.41501272 0.062723562 0.064984135
0.45567048 0.065532215 0.066567577
-0.43108612 0.070811845 0.063853733
0.43481109 0.07268706 0.063147813
0.44067031 0.075636692 0.068456963
0.4519406 0.075948387 0.062872425
-0.35198539 0.016881188 0.072072238
-0.31497112 0.013304706 0.078614376
-0.18140428 0.017031051 0.076463439
-0.17421454 0.016999649 0.075643905
-0.0015247799 0.016541772 0.07023859
0.014551159 0.016593391 0.071835659
0.028456438 0.016638041 0.07578817
0.039475929 0.016673423 0.079526864
0.11516555 0.016916465 0.072203986
0.15624471 0.01704837 0.071130082
0.17029396 0.017093481 0.072617605
0.28598255 0.015740756 0.073737092
0.29022649 0.015384116 0.076450914
0.32258627 0.013372381 0.074462123
0.33314127 0.013730146 0.079066902
-0.39506626 0.028720044 0.075600885
-0.3878231 0.026729584 0.073208869
0.39039332 0.027436141 0.079722099
-0.39852574 0.030046362 0.075509168
-0.34044087 0.035986371 0.071158841
-0.32174265 0.035352588 0.074680686
-0.27616668 0.038574353 0.07777334
-0.26964906 0.039122049 0.073700614
-0.23135146 0.039257906 0.077107012
-0.21082501 0.039168254 0.074666962
-0.18070768 0.03903671 0.074863844
-0.17143625 0.038996212 0.079680428
-0.16063723 0.03894905 0.079782404
-0.15457641 0.038922578 0.07062044
-0.11823754 0.038763862 0.076116391
-0.086775862 0.038626451 0.077364355
-0.065073393 0.038531657 0.079332858
-0.037700485 0.038434312 0.078777775
0.042826451 0.038692884 0.075542882
0.14277771 0.039013825 0.07747367
0.15264624 0.039045513 0.072802
0.18729457 0.039156768 0.072019421
0.23694593 0.0393162 0.079743557
0.26039028 0.03939148 0.075949542
0.29413494 0.037064426 0.075130373
0.30023605 0.036551733 0.072399452
0.39869952 0.030137468 0.071576416
0.41757637 0.039978355 0.074964486
-0.43495688 0.049039144 0.073398165
-0.37725505 0.045475703 0.071487062
0.35754853 0.040258162 0.078033537
0.36578357 0.042438481 0.077282704
-0.39793643 0.05413533 0.070525534
-0.42244232 0.066460438 0.071453422
-0.43699098 0.073105127 0.073911779
-0.35317317 0.017207585 0.088799395
-0.27322644 0.016812716 0.083951689
-0.1979322 0.01710324 0.084086336
-0.18350673 0.017040234 0.084096104
-0.15475391 0.016914651 0.085416995
-0.12915359 0.016802836 0.084878787
-0.049690768 0.016455768 0.088279016
0.016271448 0.016598914 0.088144623
0.056696434 0.01672872 0.084196955
0.064805917 0.016754759 0.087247871
0.080933653 0.016806545 0.084768109
0.11461887 0.016914709 0.083157703
0.15587704 0.017047189 0.08213491
0.18510014 0.017141024 0.087645493
0.24109194 0.017320814 0.08652433
0.27783126 0.016425749 0.080089428
0.31410313 0.013377646 0.085295238
-0.37846157 0.02415698 0.085292712
0.38722178 0.026564563 0.087052159
-0.41176745 0.036949705 0.084379286
-0.33984667 0.035966229 0.085619122
-0.25799325 0.03937427 0.0883229
-0.21428365 0.03918336 0.084236696
-0.15645546 0.038930785 0.08608973
-0.063393369 0.038524318 0.081179656
-0.045640349 0.038446777 0.08358822
-0.0093284696 0.038525417 0.080524668
0.0040568709 0.038568396 0.083816081
0.017549489 0.038611721 0.087321155
0.11935444 0.038938615 0.082574166
0.15905133 0.039066084 0.089345105
0.17738537 0.039124954 0.082130566
0.18201138 0.039139807 0.088350974
0.24610634 0.039345615 0.082585216
0.42973208 0.046315365 0.083964117
-0.43337476 0.057275712 0.085359305
-0.39555424 0.052937251 0.08025603
0.4282667 0.059205227 0.087409362
-0.43530124 0.062086232 0.081360713
-0.42104143 0.065755621 0.080366127
-0.34744585 0.015633697 0.092611648
-0.33989015 0.013958902 0.090335108
-0.11191588 0.016727548 0.099263139
-0.072046623 0.016553411 0.091902666
-0.056158744 0.016484018 0.090015672
0.013785316 0.016590931 0.091917492
0.041996434 0.016681518 0.094947912
0.1248292 0.016947493 0.098010875
0.1336273 0.016975744 0.094605356
0.14332737 0.017006891 0.096581981
0.2303828 0.017286427 0.09565448
0.27192146 0.016922379 0.090704404
-0.36984017 0.021787774 0.091787726
0.36777639 0.021220762 0.092149273
0.37932491 0.024394419 0.09757714
0.38481501 0.025903162 0.096228778
0.39046541 0.027455952 0.090475239
-0.33330715 0.03574457 0.093276247
-0.32611227 0.035500698 0.096431524
-0.21236476 0.039174974 0.090661764
-0.04094141 0.038426254 0.090989366
-0.039382234 0.03842891 0.095632367
0.019943047 0.038619407 0.096478142
0.024374116 0.038633633 0.093372412
0.12832132 0.038967408 0.095276341
0.17488188 0.039116912 0.093657613
0.224786 0.039277155 0.091337912
0.33756131 0.035888765 0.095073774
0.35220188 0.038842566 0.094686687
-0.39162466 0.048358195 0.09936367
0.38821709 0.049247153 0.099534012
0.42325914 0.047546297 0.09135437
0.39639848 0.051325463 0.094151139
-0.285613 0.01577181 0.10132639
-0.1314566 0.016812894 0.10071864
-0.12782679 0.017456753 0.101629
-0.081287302 0.018239167 0.10162899
0.13710877 0.017580567 0.101629
0.19745481 0.017180694 0.10130778
0.22497591 0.017568454 0.101629
-0.23774326 0.026050944 0.10162899
-0.21133171 0.020653635 0.101629
-0.20805952 0.029410537 0.101629
-0.13565375 0.027059779 0.101629
-0.10336894 0.024107628 0.10162899
-0.09681391 0.025008138 0.101629
0.029663727 0.024260938 0.101629
0.062712543 0.023931772 0.10162899
0.077595308 0.023132164 0.101629
0.085055038 0.021447439 0.10162899
0.13521338 0.028482206 0.10162899
0.20645376 0.029463969 0.101629
0.21112223 0.020132435 0.101629
0.25530475 0.028011393 0.101629
0.29612744 0.026187968 0.101629
0.38117447 0.029969597 0.10146036
-0.31206119 0.032073677 0.101629
-0.19759503 0.037561178 0.10162899
-0.12960346 0.033326995 0.101629
-0.083570085 0.035509285 0.101629
-0.068744868 0.034171358 0.101629
-0.033278678 0.035263859 0.101629
-0.028987639 0.032775737 0.101629
0.24855511 0.036075149 0.101629
0.25725022 0.039381396 0.10031466
0.26288691 0.031728175 0.101629
0.34921145 0.037384294 0.10158911
0.37866527 0.044100486 0.10143095
