# .PCD v0.7 - Point Cloud Data file format
VERSION 0.7
FIELDS x y z
SIZE 4 4 4
TYPE F F F
COUNT 1 1 1
WIDTH 932
HEIGHT 1
VIEWPOINT 0 0 0 1 0 0 0
POINTS 932
DATA ascii
0.28897369 -0.038337748 -0.21007
-0.28615749 -0.026393153 -0.21134001
0.31841189 -0.0031551931 -0.21007001
-0.32662487 -0.050627902 -0.20891128
-0.32193023 -0.041416559 -0.20054053
0.31109959 -0.044623297 -0.20272928
0.32810313 -0.047535442 -0.20631149
0.32603124 -0.0325315 -0.20136276
-0.28101826 -0.02978955 -0.20640655
-0.28531429 -0.014381818 -0.20796464
0.28832909 -0.0083369389 -0.20969403
0.31952816 -0.041367624 -0.19071852
0.28426081 -0.034994923 -0.1975712
0.29082492 -0.030497432 -0.19602302
-0.32308403 -0.01848107 -0.19386321
0.29900014 -0.012045201 -0.196023
-0.31000319 -0.0013296225 -0.19912679
0.30535603 -0.0052702152 -0.19527413
-0.29382649 -0.038636137 -0.18976711
0.32681024 -0.028567336 -0.18097052
0.30994371 -0.044775616 -0.17648119
0.3140094 -0.044167679 -0.17487562
0.32111019 -0.040155798 -0.17004001
-0.2913413 -0.031415485 -0.1673564
0.32492197 -0.035209171 -0.1689014
-0.34856921 0.00959861 -0.16178502
-0.29592967 0.0011015499 -0.16282979
-0.21685326 0.0080494722 -0.16792899
-0.2092808 0.0011015499 -0.16141911
-0.17746377 0.0011015499 -0.16233823
-0.11108057 0.0051101809 -0.16792899
-0.078233175 0.0011015499 -0.1628321
0.0055435598 0.0011015499 -0.16373461
0.089993365 0.0011015499 -0.16658375
0.10517864 0.0011015499 -0.16436452
0.14588344 0.0033853608 -0.16792899
0.2142016 0.0067485459 -0.16792899
0.22222915 0.0070401877 -0.16792899
0.28290489 0.0052194195 -0.16792899
0.29943517 0.0080091711 -0.16792899
0.32536453 0.004708027 -0.16792899
-0.33669835 0.019600697 -0.16792899
-0.31140101 0.015851468 -0.16792899
-0.21642706 0.015943114 -0.16792899
-0.010292202 0.013705888 -0.16792899
0.1864531 0.012938728 -0.16792899
0.31532565 0.01736147 -0.16792899
-0.34352788 0.023662459 -0.16449198
-0.27048963 0.0291954 -0.16755049
-0.24800067 0.026015552 -0.16792899
-0.21839732 0.0291954 -0.16271868
-0.20720065 0.0291954 -0.16269609
-0.19391087 0.0291954 -0.1675171
-0.18534377 0.0291954 -0.16108042
-0.10243007 0.0291954 -0.16164036
0.012995727 0.021889826 -0.16792899
0.036305685 0.028382879 -0.16792899
0.076234251 0.028548362 -0.16792899
0.087331451 0.029195398 -0.16401592
0.18336067 0.026958466 -0.16792899
0.3191143 -0.012297047 -0.1592683
0.30935055 -0.0091266325 -0.15859103
-0.30176723 0.0011015499 -0.15628669
-0.23207958 0.0011015499 -0.15748405
0.21491325 0.0011015499 -0.15042697
0.25154227 0.0011015499 -0.1506881
0.27661908 0.0011015499 -0.15959704
-0.35765466 0.027010795 -0.15690653
-0.26806232 0.0291954 -0.15587547
0.0050297156 0.029195402 -0.15095779
0.020860359 0.029195398 -0.15099272
0.042650923 0.0291954 -0.15770495
0.17086023 0.0291954 -0.15251166
0.2145372 0.0291954 -0.15210862
0.3465637 0.0291954 -0.15590055
0.35659707 0.021955011 -0.1574744
0.30933279 -0.044856116 -0.14247981
0.2922416 -0.032600891 -0.14257713
-0.32371381 -0.019303245 -0.14432925
0.2957114 -0.015327777 -0.14191027
0.31265092 -0.0095615927 -0.14896649
-0.37306806 0.0046819653 -0.14735381
-0.27293441 0.0011015499 -0.14983492
-0.09457951 0.0011015499 -0.14817639
-0.067992777 0.0011015499 -0.14267169
-0.024500823 0.0011015499 -0.14931431
0.16660969 0.0011015499 -0.14245568
0.21614631 0.0011015499 -0.14213134
0.30108604 0.0011015499 -0.1422779
0.3722021 0.0011015499 -0.14270611
-0.17894614 0.029195402 -0.14063568
-0.081127793 0.0291954 -0.14399165
-0.012022485 0.029195398 -0.14364888
0.19358101 0.0291954 -0.14095865
0.23806754 0.0291954 -0.1499685
0.28273374 0.0291954 -0.14889501
0.36790267 0.029195398 -0.14935167
0.29207906 -0.032209575 -0.139908
-0.3252483 -0.022198111 -0.13799803
-0.29120576 -0.028005386 -0.13387668
-0.33017179 0.0011015499 -0.13702011
-0.3272478 0.0011015499 -0.13762726
-0.25570518 0.0011015499 -0.13888709
-0.16505446 0.0011015499 -0.13892329
-0.076379076 0.0011015499 -0.13362274
-0.058976322 0.0011015499 -0.13331909
0.053762294 0.0011015499 -0.13610083
0.090188526 0.0011015499 -0.13536441
0.12638852 0.0011015499 -0.13886122
0.15178716 0.0011015499 -0.1383512
0.19189695 0.0011015499 -0.13989086
0.20858727 0.0011015499 -0.13425654
0.23145534 0.0011015499 -0.13578235
-0.38671252 0.011894592 -0.13612075
-0.35866919 0.029195402 -0.13366735
-0.31848079 0.0291954 -0.13416585
-0.29732743 0.0291954 -0.13744013
-0.22410001 0.0291954 -0.13681072
-0.1624561 0.029195402 -0.13686863
-0.077771232 0.029195402 -0.13850495
-0.04235895 0.029195398 -0.13168794
0.0086462498 0.029195402 -0.13096605
0.013537347 0.029195402 -0.13259302
0.056776717 0.0291954 -0.1306119
0.28949097 0.029195402 -0.13033117
0.33604631 0.029195398 -0.13449213
0.38582328 0.0291954 -0.13555031
-0.2993322 -0.044181995 -0.12748277
0.32674295 -0.02907775 -0.12855762
-0.21839009 0.0011015499 -0.12494789
-0.087069057 0.0011015499 -0.12280081
0.10064127 0.0011015499 -0.12455524
0.25810137 0.0011015499 -0.12545006
0.27835387 0.0011015499 -0.12522474
0.29504535 0.0011015499 -0.12218326
0.3278788 0.0011015499 -0.1256568
0.35795531 0.0011015499 -0.12779535
0.39669365 0.0085176611 -0.12770694
-0.26828328 0.029195398 -0.12414183
-0.23350698 0.029195402 -0.12422329
-0.21168739 0.0291954 -0.123485
-0.11186402 0.0291954 -0.12579478
-0.10128743 0.0291954 -0.1233566
-0.063764714 0.029195398 -0.12247981
0.26299897 0.0291954 -0.12890264
0.29264033 0.0291954 -0.12323533
0.30130029 0.029195398 -0.12315062
-0.37869817 0.0011015499 -0.11898635
-0.33999178 0.0011015499 -0.11949276
-0.23293674 0.0011015499 -0.11331908
-0.14262582 0.0011015499 -0.11080296
0.058180541 0.0011015499 -0.11141051
0.11211291 0.0011015499 -0.11717092
0.12516461 0.0011015499 -0.11863595
0.3101033 0.0011015499 -0.11317551
0.38267633 0.0011015499 -0.1139387
-0.38630712 0.0291954 -0.11767177
0.053954326 0.029195402 -0.11889743
0.076836511 0.029195398 -0.11751391
0.088261366 0.029195402 -0.1144748
0.13920192 0.0291954 -0.11244606
0.15694219 0.029195402 -0.11438891
0.18434131 0.029195398 -0.1140555
0.2631661 0.029195402 -0.11239558
0.32469541 0.0291954 -0.11402674
0.39866444 0.0291954 -0.11137778
-0.29802656 -0.043180034 -0.10504001
0.31803375 -0.042500287 -0.10456976
-0.31357959 -0.011911163 -0.10335893
-0.31876311 0.0011015499 -0.10776005
-0.25286487 0.0011015499 -0.10886725
-0.24385214 0.0011015499 -0.10569869
-0.21546848 0.0011015499 -0.10472038
-0.053929716 0.0011015499 -0.10044951
0.0051649436 0.0011015499 -0.10355388
0.22695151 0.0011015499 -0.10878249
0.23937258 0.0011015499 -0.10470507
0.41295049 0.0033519994 -0.10784681
0.41742069 0.015605859 -0.1023858
-0.38596636 0.029195402 -0.10770789
-0.36339799 0.029195398 -0.10484498
-0.31648508 0.029195398 -0.10433526
-0.25152424 0.0291954 -0.10134244
-0.24665253 0.029195398 -0.10877454
-0.20828907 0.029195398 -0.10678351
-0.1942537 0.0291954 -0.1038072
-0.16255878 0.0291954 -0.10923121
-0.14028355 0.029195402 -0.10638637
-0.046947017 0.0291954 -0.10817409
0.011613511 0.0291954 -0.10400577
0.09110909 0.0291954 -0.10111268
0.24315527 0.029195398 -0.10983533
0.31879783 0.029195402 -0.10572404
0.33621731 0.0291954 -0.10761333
0.37960529 0.0291954 -0.1052193
-0.29203039 -0.023667563 -0.098901972
-0.42389974 0.0096811391 -0.091162503
-0.34253898 0.0011015499 -0.099490762
-0.30131 0.0011015499 -0.097012162
-0.29415804 0.0011015499 -0.093285322
-0.22729582 0.0011015499 -0.092825159
-0.046480447 0.0011015499 -0.096889749
0.0072612613 0.0011015499 -0.097662389
0.010010011 0.0011015499 -0.09422712
0.026252836 0.0011015499 -0.093074434
0.14133497 0.0011015499 -0.097931534
0.21243961 0.0011015499 -0.092184417
0.24904238 0.0011015499 -0.097192548
0.25643057 0.0011015499 -0.091685228
-0.38403755 0.029195402 -0.094140075
-0.37856463 0.029195402 -0.099541917
-0.36777654 0.0291954 -0.096029334
-0.32344213 0.0291954 -0.093086764
-0.30259264 0.029195398 -0.095486782
-0.22011247 0.0291954 -0.096029796
0.0011023581 0.029195402 -0.099049211
0.073444903 0.029195398 -0.093334511
0.16779475 0.029195402 -0.090855181
0.28006786 0.0291954 -0.094159603
0.31947607 0.0291954 -0.091460831
0.35970855 0.0291954 -0.097921729
0.37266144 0.0291954 -0.090164922
0.3221176 -0.03920044 -0.08643207
0.29259989 -0.020521229 -0.083727047
-0.29116914 0.0011015499 -0.085792437
-0.21350232 0.0011015499 -0.086248778
-0.1851797 0.0011015499 -0.08333683
-0.094180442 0.0011015499 -0.089451939
0.069083393 0.0011015499 -0.088895865
0.26186547 0.0011015499 -0.08015202
0.28894612 0.0011015499 -0.087606929
-0.35966802 0.0291954 -0.089190893
-0.22805853 0.0291954 -0.086740799
-0.17780295 0.029195398 -0.084743172
-0.14220481 0.029195398 -0.088846147
-0.13119282 0.029195402 -0.084579043
-0.090589426 0.029195398 -0.086383045
-0.0052531064 0.0291954 -0.088151067
0.0032296404 0.0291954 -0.084520325
0.066001058 0.029195398 -0.086723745
0.088796221 0.0291954 -0.081081778
0.23271325 0.029195402 -0.08333949
0.24240838 0.029195398 -0.083186015
0.27197838 0.029195398 -0.085856937
0.32694122 0.0291954 -0.089269221
0.37391615 0.0291954 -0.083002411
0.40496987 0.0291954 -0.081694447
-0.32200676 -0.041316628 -0.077799283
-0.31453639 -0.046083599 -0.078468375
0.3199631 -0.012948267 -0.070984937
-0.15418625 0.0011015499 -0.072139353
-0.026935758 0.0011015499 -0.07501927
0.035364356 0.0011015499 -0.071212471
0.057384387 0.0011015499 -0.075816303
0.075092047 0.0011015499 -0.07040371
0.1057772 0.0011015499 -0.072316885
0.12281569 0.0011015499 -0.078875892
0.14461236 0.0011015499 -0.074938081
0.16546878 0.0011015499 -0.075375743
0.2118836 0.0011015499 -0.071586363
0.24217117 0.0011015499 -0.075976916
0.28652138 0.0011015499 -0.072192743
0.32182807 0.0011015499 -0.070706122
0.33166516 0.0011015499 -0.078554526
-0.37647891 0.0291954 -0.074583098
-0.36155468 0.029195402 -0.078760698
-0.24710836 0.029195402 -0.070288263
-0.22010708 0.029195402 -0.075463019
-0.16136046 0.0291954 -0.078083061
-0.13973534 0.0291954 -0.071303904
-0.12218793 0.029195398 -0.077135101
-0.060093727 0.029195402 -0.07699205
-0.00016375631 0.029195398 -0.077129908
0.11440453 0.029195398 -0.07728681
0.13246135 0.029195402 -0.078961127
0.16899151 0.0291954 -0.071180195
0.17790267 0.0291954 -0.074446991
0.19592384 0.0291954 -0.073666103
0.33418611 0.029195402 -0.078818738
0.37399155 0.029195402 -0.073288634
0.39857817 0.0291954 -0.072155975
0.40065664 0.0291954 -0.071524635
0.41391054 0.0291954 -0.070959531
0.30367649 -0.010044008 -0.069193803
-0.36044466 0.0011015499 -0.067793988
-0.17796981 0.0011015499 -0.06615065
-0.072243422 0.0011015499 -0.069652818
0.074916415 0.0011015499 -0.061457992
0.091212302 0.0011015499 -0.068293989
0.11404693 0.0011015499 -0.062718622
0.15340453 0.0011015499 -0.060556158
0.18432461 0.0011015499 -0.064359993
0.19620796 0.0011015499 -0.068008699
0.20660993 0.0011015499 -0.063974068
0.30816364 0.0011015499 -0.061455045
0.40881628 0.0011015499 -0.061321899
0.41454962 0.0011015499 -0.069979876
-0.43638325 0.012669159 -0.066712663
-0.41516289 0.029195398 -0.066031702
-0.40904096 0.029195398 -0.06235953
-0.35074776 0.0291954 -0.062042359
-0.11132251 0.0291954 -0.063464746
-0.098638617 0.0291954 -0.06536188
-0.060329992 0.029195398 -0.064111769
-0.025504936 0.0291954 -0.062293395
0.014296681 0.0291954 -0.064022303
0.22389697 0.029195402 -0.063539393
0.27283227 0.029195398 -0.066118084
0.33593041 0.029195402 -0.060823541
0.36927006 0.029195398 -0.066527858
0.32038552 -0.0407109 -0.054245681
-0.29322839 -0.037614234 -0.051667612
0.29436046 -0.036894005 -0.058239695
-0.41688526 0.0011015499 -0.052789401
-0.37427372 0.0011015499 -0.057897203
-0.13726434 0.0011015499 -0.050692715
-0.046377752 0.0011015499 -0.051693883
0.084764361 0.0011015499 -0.058526151
0.14748782 0.0011015499 -0.05685899
0.25966656 0.0011015499 -0.05933756
0.26118773 0.0011015499 -0.056985803
0.33470485 0.0011015499 -0.059072778
-0.43415472 0.0291954 -0.057447102
-0.14183627 0.029195402 -0.057599008
0.04615942 0.0291954 -0.051800549
0.16501728 0.029195398 -0.05844117
0.1900239 0.0291954 -0.059440162
0.351192 0.0291954 -0.056624927
0.3693352 0.029195398 -0.053291492
0.31763601 -0.011315322 -0.049063396
-0.26624683 0.0011015499 -0.04133122
-0.23443857 0.0011015499 -0.046529952
-0.22330487 0.0011015499 -0.046762072
-0.15457389 0.0011015499 -0.049667712
-0.076011851 0.0011015499 -0.0428917
0.09612982 0.0011015499 -0.047418877
0.26594761 0.0011015499 -0.043948486
0.28635669 0.0011015499 -0.042196959
0.29775503 0.0011015499 -0.045650553
0.35231966 0.0011015499 -0.040701453
-0.41312519 0.029195402 -0.043877151
-0.39237887 0.029195398 -0.042135276
-0.2482931 0.029195398 -0.0491076
-0.10918214 0.0291954 -0.043033201
-0.053466737 0.0291954 -0.042694353
0.059383605 0.029195398 -0.044893529
0.065592684 0.0291954 -0.048760258
0.23350213 0.0291954 -0.04754347
0.35998678 0.029195398 -0.044391625
-0.44413286 0.0011015499 -0.038304172
-0.14971922 0.0011015499 -0.03141788
-0.11440386 0.0011015499 -0.030147498
-0.087468997 0.0011015499 -0.039215624
-0.07020025 0.0011015499 -0.034391802
-0.062731475 0.0011015499 -0.031497195
0.052797336 0.0011015499 -0.039974481
0.082783818 0.0011015499 -0.038616382
0.21299765 0.0011015499 -0.033927962
0.28122768 0.0011015499 -0.036718279
0.32301873 0.0011015499 -0.037077732
-0.445696 0.014418988 -0.035957411
-0.44105083 0.0291954 -0.03926729
-0.20008171 0.029195402 -0.039766688
-0.13895783 0.0291954 -0.032492317
0.066034362 0.0291954 -0.030172264
0.22696012 0.029195402 -0.033400491
0.26969358 0.0291954 -0.035164762
0.27922583 0.029195402 -0.039495267
0.30533582 0.029195398 -0.034042727
0.34110039 0.0291954 -0.03834559
0.4194904 0.0291954 -0.03506558
0.42750549 0.029195398 -0.03213957
0.2974706 -0.040413249 -0.022915734
0.32425171 -0.036418218 -0.024437346
-0.41521165 0.0011015499 -0.029891003
-0.38190073 0.0011015499 -0.020275854
-0.36919445 0.0011015499 -0.025484014
-0.25882536 0.0011015499 -0.029898331
-0.16421188 0.0011015499 -0.02397234
0.055291101 0.0011015499 -0.02190694
0.22603846 0.0011015499 -0.028369781
0.24354511 0.0011015499 -0.02251751
-0.41491848 0.0291954 -0.026732869
-0.39012802 0.029195402 -0.021648608
-0.33120495 0.029195402 -0.02955169
-0.32256925 0.029195398 -0.020461001
-0.18048319 0.029195398 -0.027599052
-0.11475158 0.029195398 -0.027104013
-0.0037263148 0.0291954 -0.025826523
0.030801287 0.0291954 -0.02564285
0.17432049 0.0291954 -0.027123474
0.19566731 0.0291954 -0.025547216
0.23497204 0.029195402 -0.020221889
0.37098247 0.0291954 -0.020824265
-0.059529636 0.039722394 -0.021635948
0.059675701 0.036871433 -0.023702722
-0.31636539 -0.045325793 -0.011115057
-0.30689615 -0.046819277 -0.019803654
-0.2975527 -0.042816378 -0.014884595
0.32352987 -0.037199777 -0.017420333
0.29600251 -0.015295008 -0.015947677
0.31366327 -0.009695014 -0.019603811
-0.40056491 0.0011015499 -0.013243098
-0.38917965 0.0011015499 -0.0171545
-0.29622802 0.0011015499 -0.014644936
-0.1179554 0.0011015499 -0.013432748
-0.10459365 0.0011015499 -0.017758394
-0.068432249 0.0037296733 -0.017171508
-0.0032524781 0.0011015499 -0.017643584
0.048621401 0.0077566495 -0.01628327
0.21801272 0.0011015499 -0.013843533
0.35539198 0.0011015499 -0.017589569
0.091776162 0.019135233 -0.014129022
-0.41381592 0.0291954 -0.0195443
-0.29893056 0.029195398 -0.011213715
-0.20766219 0.029195398 -0.017183248
-0.16555357 0.029195402 -0.012272567
-0.12420539 0.0291954 -0.013894476
0.14152312 0.0291954 -0.016462892
0.24452901 0.0291954 -0.016719893
0.36071509 0.029195402 -0.013799433
0.41302922 0.029195402 -0.010912986
0.42178223 0.029195398 -0.013625816
0.051342968 0.035381168 -0.018846473
-0.069210112 0.047670111 -0.016575124
0.048217326 0.047089949 -0.015756696
0.089783594 0.040885974 -0.01672589
-0.31852946 -0.04420387 -0.0097234175
-0.29721987 -0.04624135 -0.00063474098
0.3007558 -0.042726345 -0.0020404398
-0.2920872 -0.034861054 -0.0049164956
0.29245716 -0.033119731 -0.0079989117
0.29318786 -0.019105932 -0.0042941337
-0.15472427 0.0011015499 -0.0027808864
-0.025459444 0.0019655442 -0.0028030155
0.010062482 0.0011015499 -0.008784513
0.11257391 0.0011015499 -0.0077523245
0.12758563 0.0011015499 -0.0072053988
0.20396526 0.0011015499 -0.0047026444
0.22448531 0.0011015499 -0.0043051429
0.23240194 0.0011015499 -0.0031614602
0.29832375 0.0011015499 -0.00028900802
0.31385288 0.0011015499 -0.0031312406
0.43378332 0.0011015499 -0.0018525235
0.44886896 0.017229771 -0.0058248169
-0.40423188 0.0291954 -0.0013224315
-0.35500595 0.029195398 -0.0016870946
-0.32209405 0.0291954 -0.0079877451
-0.23122816 0.0291954 -0.0079482757
-0.17318371 0.0291954 -0.00092457794
0.096034385 0.029195402 -0.0064675286
0.11059155 0.0291954 -0.0064400369
0.31795686 0.029195398 -0.0081770718
0.34883243 0.0291954 -0.0080752
0.43834484 0.029195402 -0.005093486
0.097019859 0.048783291 -0.00096688402
-0.026198035 0.054618374 -0.004587722
0.063124321 0.0572896 -0.00209748
0.32774445 -0.043437 0.00063474098
0.29246062 -0.020856457 0.0027708884
0.325591 -0.020390294 0.0063687842
0.30649489 -0.0094427411 0.0014140458
0.3112222 -0.0093732998 0.0060296059
-0.44867504 0.0011015499 0.00017529307
-0.079767466 0.0020656832 0.0016161068
0.025401207 0.0011015499 0.0039593112
0.038845018 0.0011015499 0.0079943482
0.041891288 0.0055120955 0.0070934803
0.15975474 0.0011015499 0.0053856354
0.37549436 0.0011015499 0.0012047067
0.4359104 0.0011015499 0.0062051732
-0.44945213 0.016631959 0.00010724529
0.041461825 0.011592777 0.0038238852
-0.44894585 0.027011067 0.0063119465
-0.40405503 0.029195398 0.0017707571
-0.22277644 0.029195398 0.0040691653
-0.175198 0.0291954 0.00056796893
-0.14823058 0.0291954 0.00038832054
-0.12447578 0.0291954 0.003873188
0.0054738726 0.029195398 0.009605932
-0.02444759 0.043001845 0.0053656218
0.096643031 0.056148186 0.008691377
-0.32130715 -0.042072799 0.019237103
-0.32640111 -0.032527599 0.010536288
0.29147157 -0.028838692 0.016515218
-0.42539325 0.0011015499 0.014078449
-0.39514068 0.0011015499 0.019868985
-0.38153887 0.0011015499 0.014516722
-0.3699683 0.0011015499 0.013240462
-0.21881361 0.0011015499 0.018726997
-0.20280461 0.0011015499 0.015583504
-0.12723632 0.0011015499 0.017397143
-0.090647869 0.0011015499 0.013017204
-0.0070484672 0.0011015499 0.016385613
0.093203835 0.0074980231 0.017121641
0.14912169 0.0011015499 0.015331171
0.15045358 0.0011015499 0.012883826
0.18203235 0.0011015499 0.017280819
0.23260742 0.0011015499 0.013890609
0.29734594 0.0011015499 0.015227184
0.32356995 0.0011015499 0.017432407
0.36644185 0.0011015499 0.01604829
-0.026279844 0.019105826 0.015720097
0.04605893 0.012029491 0.017797276
-0.27615154 0.0291954 0.01050814
-0.00155064 0.0291954 0.010981632
0.04679995 0.020976648 0.018763028
0.11972202 0.0291954 0.010428377
0.12383252 0.0291954 0.018956423
0.40877479 0.0291954 0.01531725
0.41416007 0.029195398 0.012673605
0.44857386 0.021859013 0.010096488
-0.027127823 0.04179351 0.017767895
-0.04544061 0.0572896 0.011254385
-0.02624182 0.056559727 0.015628271
0.065672711 0.0572896 0.018211899
0.30326468 -0.010214623 0.028479956
-0.44295391 0.0011015499 0.023054918
-0.38815337 0.0011015499 0.021284014
-0.378346 0.0011015499 0.023536425
-0.36359781 0.0011015499 0.020053815
-0.34842578 0.0011015499 0.025358282
-0.32359886 0.0011015499 0.020760823
-0.14354892 0.0011015499 0.021106023
0.10627578 0.0011015499 0.021965809
0.1405165 0.0011015499 0.023570431
0.24243072 0.0011015499 0.024166163
0.28563207 0.0011015499 0.022170879
0.3181082 0.0011015499 0.02438353
0.40829316 0.0011015499 0.027666349
0.44697678 0.0065723658 0.026342664
0.08826074 0.016605258 0.023041628
0.44682947 0.019170299 0.027840825
-0.41471171 0.029195402 0.021183185
-0.40396607 0.029195398 0.026746407
-0.1526242 0.0291954 0.0287637
-0.0064689815 0.0291954 0.023570463
0.031917412 0.029195402 0.027120482
0.040669326 0.029195398 0.024950445
0.080711648 0.026579633 0.027881216
0.090285704 0.028229227 0.02092509
0.26167458 0.0291954 0.020662241
0.31457284 0.029195398 0.023131885
0.4163869 0.029195402 0.028280584
0.057695724 0.032117501 0.027741123
0.074552797 0.032287948 0.029840034
-0.066813789 0.047262006 0.029349308
-0.034347583 0.049785301 0.026895262
0.054309625 0.043278605 0.025980067
-0.060766466 0.0572896 0.028359797
0.080370143 0.050080039 0.028022628
-0.29731673 -0.042371657 0.038496986
0.30938107 -0.044849757 0.038074173
-0.44490799 0.0011015499 0.036537655
-0.31890279 0.0011015499 0.03642999
-0.1216395 0.0011015499 0.031462103
0.14756715 0.0011015499 0.035412759
0.19222841 0.0011015499 0.039777555
0.22716922 0.0011015499 0.032658912
0.37616339 0.0011015499 0.036744643
0.44498807 0.0096419025 0.039565291
-0.06152153 0.01614669 0.031748068
0.44554454 0.016365902 0.037727557
-0.42273921 0.0291954 0.033848777
-0.31106427 0.029195402 0.031306431
-0.29379359 0.0291954 0.038937006
-0.21405573 0.0291954 0.037667636
-0.17794558 0.0291954 0.03663465
0.18096034 0.0291954 0.03226405
0.21211222 0.029195398 0.038691275
0.26192224 0.029195402 0.039733242
0.35651904 0.029195398 0.0358449
-0.3242608 -0.038374223 0.044328392
-0.3267678 -0.029724745 0.045258515
-0.31619173 -0.012993395 0.048674963
-0.32743815 0.0011015499 0.04682567
-0.30422437 0.0011015499 0.042282537
-0.19200568 0.0011015499 0.044558965
-0.12082405 0.0011015499 0.042826124
0.031129546 0.0011015499 0.042973552
0.076010972 0.0011015499 0.046827398
0.15270342 0.0011015499 0.040138513
0.19541159 0.0011015499 0.047371607
0.22684763 0.0011015499 0.044647306
0.24648899 0.0011015499 0.048251398
0.30638334 0.0011015499 0.04468764
0.37005699 0.0011015499 0.049165033
0.42931336 0.0011015499 0.043050621
-0.42393935 0.029195402 0.04469046
-0.37952763 0.029195398 0.049521767
-0.36736467 0.029195398 0.045895707
-0.34133619 0.0291954 0.04211783
-0.2611407 0.029195398 0.040148951
-0.2406089 0.029195402 0.045629799
-0.13815638 0.029195402 0.044626556
0.012004422 0.029195398 0.044464186
0.21429253 0.0291954 0.045900349
0.24868365 0.029195402 0.043345138
-0.299752 0.0011015499 0.0586969
-0.23635741 0.0011015499 0.058728546
-0.17155904 0.0011015499 0.056747112
0.24738377 0.0011015499 0.055538893
0.31435284 0.0011015499 0.053986732
0.38402832 0.0011015499 0.05891823
0.40944737 0.0011015499 0.051811971
-0.28891701 0.029195402 0.055959869
-0.25128686 0.0291954 0.05261232
-0.24579737 0.029195402 0.050608683
-0.23769301 0.0291954 0.055415526
-0.11046901 0.0291954 0.050274074
-0.041620672 0.029195398 0.051048882
0.019423371 0.0291954 0.053019203
0.25392216 0.0291954 0.055927854
0.297589 0.029195398 0.052120805
0.40930295 0.0291954 0.055479959
0.3020083 -0.043245267 0.068714328
-0.40229851 0.0011015499 0.060573645
-0.35056961 0.0011015499 0.062468518
-0.14350951 0.0011015499 0.062229544
0.051985145 0.0011015499 0.064264879
0.15325662 0.0011015499 0.063058898
0.38339657 0.0011015499 0.068402752
-0.26415581 0.0291954 0.060849492
-0.20489392 0.029195398 0.065865412
-0.16174667 0.029195402 0.06318631
-0.084820762 0.0291954 0.062815733
-0.060215257 0.029195398 0.067738131
0.13456669 0.0291954 0.063609898
0.20984221 0.029195398 0.065200873
0.28956199 0.029195398 0.068079226
0.31420404 0.0291954 0.069383711
0.39534828 0.029195402 0.065624222
0.40261471 0.0291954 0.06556505
-0.31212801 -0.011720528 0.075423792
-0.27204672 0.0011015499 0.077475779
-0.25874421 0.0011015499 0.074460201
-0.24519187 0.0011015499 0.075883172
-0.22436403 0.0011015499 0.070808738
-0.20508941 0.0011015499 0.07767114
-0.12420402 0.0011015499 0.070753895
-0.1019401 0.0011015499 0.076511852
-0.054033082 0.0011015499 0.075412072
0.0054618139 0.0011015499 0.071387582
0.027046639 0.0011015499 0.079020433
0.038096074 0.0011015499 0.073676802
0.065038547 0.0011015499 0.072932921
0.32882795 0.0011015499 0.070730224
-0.35884202 0.0291954 0.073511504
-0.2232407 0.0291954 0.075747184
-0.21408765 0.029195402 0.072377995
-0.18975526 0.029195398 0.075813949
-0.10716751 0.029195398 0.079455733
-0.040991563 0.0291954 0.078127168
-0.012315437 0.0291954 0.072149187
0.003295131 0.0291954 0.070089929
0.017911687 0.0291954 0.072979897
0.02939656 0.029195398 0.078036606
0.11540402 0.029195402 0.071681835
0.14383973 0.0291954 0.077736884
0.23913503 0.029195398 0.079790883
0.2453755 0.0291954 0.07215476
0.32359719 0.0291954 0.079300761
0.39511013 0.0291954 0.079023764
0.42398205 0.029195398 0.076685682
-0.31812856 -0.044511452 0.084058583
-0.3022044 -0.045607448 0.083176985
-0.3250207 -0.036741316 0.088968806
0.32578287 -0.020853395 0.085936248
0.30574569 -0.0095414808 0.081764631
0.31262285 -0.0095578935 0.087702051
-0.42639363 0.004934479 0.087756947
-0.16423543 0.0011015499 0.085026488
0.093005396 0.0011015499 0.089483544
0.15482867 0.0011015499 0.085069738
0.27364254 0.0011015499 0.081650324
0.30550593 0.0011015499 0.080742635
0.35034409 0.0011015499 0.081724256
0.41897985 0.0011015499 0.088676974
0.42845711 0.0066835457 0.083888233
-0.40775043 0.0291954 0.083558224
-0.35200492 0.029195398 0.082474098
-0.34794489 0.029195398 0.081620768
-0.17071776 0.0291954 0.080478214
-0.14092585 0.0291954 0.08048784
-0.078070804 0.0291954 0.086254448
-0.063133344 0.0291954 0.081995636
0.036419488 0.0291954 0.080310568
0.13169286 0.0291954 0.089825928
0.19592704 0.029195398 0.080410033
0.29431951 0.0291954 0.089399911
0.31713772 0.0291954 0.083921798
0.37145337 0.0291954 0.082809068
0.30704641 -0.044610381 0.095752381
-0.3265453 -0.031425551 0.091638982
0.3237409 -0.016900448 0.09348464
-0.3695111 0.0011015499 0.098094702
-0.3560631 0.0011015499 0.091989659
-0.32428104 0.0011015499 0.097376488
-0.23367503 0.0011015499 0.093633093
-0.12416857 0.0011015499 0.094973296
0.10980613 0.0011015499 0.090049341
0.14629216 0.0011015499 0.098907553
0.22525316 0.0011015499 0.09648294
0.39174831 0.0011015499 0.099469289
0.42442632 0.01568911 0.091445252
-0.37652233 0.029195398 0.096973687
-0.34711286 0.0291954 0.094847113
-0.33424711 0.0291954 0.09049952
-0.22308375 0.0291954 0.097742759
-0.18563899 0.0291954 0.097846583
-0.17275169 0.029195398 0.096464038
-0.093765207 0.029195402 0.091888063
-0.013635729 0.029195402 0.093333431
0.019298706 0.0291954 0.097406685
0.055292577 0.029195402 0.095430285
0.11811129 0.0291954 0.098088466
0.16983317 0.0291954 0.091260232
0.18709621 0.029195402 0.096976645
0.30739155 0.0291954 0.097763047
0.3051081 -0.044354953 0.10435066
-0.29470795 -0.039784737 0.10141318
-0.24885806 0.0011015499 0.10260212
-0.2150408 0.0011015499 0.10194888
-0.1743778 0.0011015499 0.10250615
-0.023437452 0.0011015499 0.1018063
0.067692719 0.0011015499 0.10789706
0.10802905 0.0011015499 0.10245178
0.16339006 0.0011015499 0.10379974
0.21864165 0.0011015499 0.10903072
0.25427863 0.0011015499 0.10434203
-0.33166939 0.029195398 0.10354532
-0.2423787 0.0291954 0.10358498
-0.19788645 0.0291954 0.10542495
-0.15594119 0.029195398 0.10840749
-0.093529463 0.0291954 0.10966095
0.33244029 0.0291954 0.10330803
0.31285179 -0.044392388 0.11013345
0.32005268 -0.040965833 0.11445668
-0.39401776 0.0011015499 0.11290496
-0.28447446 0.0011015499 0.1143198
-0.24002355 0.0011015499 0.11329791
-0.23869124 0.0011015499 0.11953906
-0.045419842 0.0011015499 0.11923333
0.012618802 0.0011015499 0.11795655
0.10133095 0.0011015499 0.11305404
0.14530563 0.0011015499 0.11680693
0.1604068 0.0011015499 0.1194443
0.18621919 0.0011015499 0.11736449
0.21461107 0.0011015499 0.1153573
0.25575197 0.0011015499 0.11457672
0.3401514 0.0011015499 0.11472975
0.36087906 0.0011015499 0.11434849
-0.39068013 0.0291954 0.11365657
-0.32583928 0.0291954 0.11323335
-0.31482586 0.0291954 0.11957076
-0.25699925 0.029195402 0.11384375
-0.21216898 0.029195402 0.11135302
-0.0787239 0.0291954 0.11634909
-0.040995143 0.0291954 0.11204146
-0.014621389 0.029195402 0.1127932
0.0081458809 0.029195398 0.11366405
0.043645162 0.029195398 0.1162053
0.21889174 0.029195398 0.11081715
0.22734675 0.0291954 0.11587193
0.27608922 0.029195398 0.11680406
0.31305838 0.0291954 0.11746982
0.37522635 0.029195398 0.11113729
0.32694769 -0.026459228 0.12865388
-0.29615149 -0.016725425 0.12543383
-0.38701344 0.0011015499 0.12893118
-0.26628041 0.0011015499 0.1203891
-0.18531677 0.0011015499 0.12542526
0.027057894 0.0011015499 0.12580182
0.034500368 0.0011015499 0.12066296
0.072314195 0.0011015499 0.12177146
0.13467366 0.0011015499 0.12449195
0.20292398 0.0011015499 0.12787455
0.2307158 0.0011015499 0.12985858
0.32904011 0.0011015499 0.12100237
0.34795767 0.0011015499 0.12354979
-0.39439151 0.029195402 0.12269187
-0.2098134 0.0291954 0.12181489
-0.18812956 0.029195402 0.12675548
-0.15136343 0.0291954 0.12945636
0.093714282 0.029195398 0.12053557
0.15591446 0.029195398 0.12693974
0.21782589 0.0291954 0.1242698
0.25362289 0.0291954 0.12963124
0.32529354 0.029195398 0.12519823
0.33401522 0.0291954 0.12371053
0.3842645 0.029195402 0.12578629
0.32546914 -0.033655189 0.13276865
-0.38169414 0.0011015499 0.13531663
-0.34570289 0.0011015499 0.13255502
-0.31242695 0.0011015499 0.1329917
-0.27562416 0.0011015499 0.13855103
-0.24188302 0.0011015499 0.13188688
-0.21374564 0.0011015499 0.13696578
-0.13849233 0.0011015499 0.13619906
-0.092550144 0.0011015499 0.13754891
-0.07999859 0.0011015499 0.13000962
0.044683233 0.0011015499 0.13979289
0.084254391 0.0011015499 0.13150297
0.28891134 0.0011015499 0.13534793
0.29817531 0.0011015499 0.13770296
0.31745738 0.0011015499 0.13352339
-0.39321876 0.012923416 0.13203347
-0.30325612 0.0291954 0.13444133
-0.24640456 0.029195402 0.13926427
-0.15232025 0.029195398 0.13238931
-0.062543571 0.029195402 0.13285366
-0.022532195 0.029195402 0.13256867
-0.0007017469 0.0291954 0.13618353
0.13498804 0.0291954 0.13229269
0.38591135 0.02420304 0.1361544
-0.31792429 -0.044668149 0.14301787
0.29877016 -0.041408949 0.14831555
-0.32665694 -0.027819319 0.14600211
-0.37467548 0.0071468945 0.14730026
-0.31618077 0.0011015499 0.14668831
-0.22713144 0.0011015499 0.14039755
-0.17872879 0.0011015499 0.1476734
-0.08443258 0.0011015499 0.14559543
-0.066931285 0.0011015499 0.14360452
-0.058178879 0.0011015499 0.14547724
-0.042743467 0.0011015499 0.14361441
0.09826991 0.0011015499 0.14775752
0.19982924 0.0011015499 0.14626722
0.21574453 0.0011015499 0.14224778
0.24459139 0.0011015499 0.14517389
-0.35116631 0.029195398 0.14509384
-0.24912222 0.0291954 0.14310534
-0.2109919 0.029195402 0.14666425
-0.1410217 0.0291954 0.14211118
0.20200372 0.029195402 0.1490798
0.21803136 0.0291954 0.14896515
0.24096233 0.029195402 0.14223439
0.28040168 0.0291954 0.14580281
0.36213684 0.0291954 0.14958639
0.37326512 0.023009229 0.1484614
-0.32089317 -0.042390428 0.1585758
0.31794873 -0.011444896 0.15268853
-0.35014436 0.0011015499 0.15891394
-0.33672574 0.0011015499 0.15402465
-0.15263569 0.0011015499 0.15400252
0.0058477521 0.0011015499 0.15396792
0.036799416 0.0011015499 0.15088406
0.051527768 0.0011015499 0.15164074
0.12175751 0.0011015499 0.15955772
0.23742163 0.0011015499 0.15347014
0.26170683 0.0011015499 0.15061833
-0.29929021 0.0291954 0.15780425
-0.032983646 0.0291954 0.15556058
0.023845242 0.029195398 0.15843937
0.030651823 0.0291954 0.15004134
0.082756296 0.029195402 0.15376888
0.18989319 0.029195398 0.15647835
0.21090166 0.0291954 0.15661387
0.22342318 0.0291954 0.15526456
0.24431118 0.0291954 0.15334994
0.25111392 0.0291954 0.153357
-0.31435931 -0.046156965 0.16166228
0.29974753 -0.042157833 0.16108556
0.30027935 -0.042528931 0.16883661
0.32637596 -0.022285163 0.16126677
-0.30018303 -0.013621157 0.16471519
-0.28017774 0.0084189363 0.169199
-0.25654447 0.0015519339 0.16903019
-0.19913468 0.0048698667 0.169199
-0.074790627 0.0011015499 0.16006768
-0.06776531 0.0011015499 0.16101506
-0.048491389 0.0011015499 0.16070348
-0.018638566 0.0011015499 0.16574036
0.00055760145 0.0054348866 0.169199
0.012168527 0.0094272848 0.169199
0.1028458 0.0011015499 0.16188872
0.1259706 0.0011015499 0.16533403
0.15500243 0.0011015499 0.16767015
0.28939441 0.0011015499 0.16423486
0.30141342 0.0011015499 0.16493301
0.31558996 0.0096138371 0.169199
-0.34338158 0.01061501 0.16584057
-0.31206039 0.016990224 0.169199
-0.29625407 0.018811818 0.169199
-0.20737873 0.010342028 0.169199
-0.13045213 0.011617293 0.169199
-0.031166136 0.010365199 0.16919899
-0.012156531 0.011879858 0.169199
0.047296479 0.017728038 0.169199
-0.34311906 0.0291954 0.16578245
-0.32623124 0.027431302 0.169199
-0.31018329 0.029195398 0.16869158
-0.2847012 0.020984475 0.169199
-0.24588984 0.0291954 0.16531713
-0.20054606 0.025528857 0.169199
-0.12129215 0.029195402 0.16147828
-0.11822154 0.025088565 0.169199
-0.095742673 0.0291954 0.16288893
-0.066280603 0.029195398 0.16903675
-0.051889721 0.025543004 0.16899081
-0.028005628 0.028043954 0.169199
-0.016324047 0.025496408 0.169199
0.068944901 0.028714836 0.169199
0.10630941 0.020603471 0.169199
0.13921976 0.029195402 0.16044602
0.25402877 0.0291954 0.16789432
0.26116863 0.026515206 0.169199
0.31469992 0.0291954 0.16864294
-0.29147595 -0.025953772 0.1711164
-0.32313552 -0.018548295 0.17743728
-0.31462696 -0.012345096 0.17779544
0.32660943 -0.030089712 0.18392323
-0.29788774 -0.015317662 0.18719272
0.31280106 -0.05063688 0.197293
0.3161642 -0.046251372 0.19788098
0.33028108 -0.042840078 0.19729298
0.32594544 -0.021245796 0.19490494
-0.3164947 -0.013118912 0.19575511
0.28898573 -0.01403307 0.197293
0.30431649 -0.0097788516 0.19111477
-0.29389274 -0.052753203 0.20249812
0.30760419 -0.044683885 0.20273051
-0.28178743 -0.036320165 0.20559168
0.29441535 -0.036965672 0.20324621
-0.33699191 -0.029554363 0.20266581
-0.29381692 -0.019767875 0.20863336
0.29594731 -0.015019949 0.20610325
-0.3060542 -0.0014814734 0.20478907
-0.30801716 -0.055592518 0.21007
0.31945664 -0.047677696 0.21133998
-0.3092922 -0.0078728935 0.21007
0.31977123 -0.008763561 0.21134
