# .PCD v0.7 - Point Cloud Data file format
VERSION 0.7
FIELDS x y z
SIZE 4 4 4
TYPE F F F
COUNT 1 1 1
WIDTH 908
HEIGHT 1
VIEWPOINT 0 0 0 1 0 0 0
POINTS 908
DATA ascii
-0.31235701 -0.070910372 -0.124483
-0.30699852 -0.070145279 -0.124483
0.30386767 -0.077586263 -0.12386854
0.32301527 -0.076042034 -0.12035897
-0.32255763 -0.06926173 -0.12448299
-0.28238541 -0.056827843 -0.124483
0.32286137 -0.05437329 -0.124648
0.33575726 -0.053983383 -0.12464799
-0.33515 -0.04274106 -0.124483
-0.30890259 -0.044069089 -0.124483
0.28023663 -0.045117162 -0.12223783
0.34187955 -0.046948522 -0.12042978
-0.33147371 -0.035350092 -0.124483
0.33705536 -0.035903752 -0.124648
-0.28907737 -0.027222091 -0.124483
-0.29727715 -0.01972387 -0.12264176
0.31597412 -0.016851859 -0.12339726
-0.32901925 -0.072611131 -0.11975842
-0.34148884 -0.052506872 -0.11523043
-0.2806747 -0.053816747 -0.11177273
0.2801159 -0.050762828 -0.11760855
-0.29372883 -0.021956345 -0.11333537
0.29030135 -0.02466315 -0.11135387
0.32975215 -0.022886859 -0.11711214
0.33241433 -0.025262583 -0.11883558
-0.31733969 -0.017337931 -0.11278942
-0.31943363 -0.077185079 -0.10085452
-0.28974903 -0.069861747 -0.10238166
0.34195441 -0.044989683 -0.10432853
0.28521055 -0.030609548 -0.10680533
0.28624982 -0.028957523 -0.10459113
-0.3664968 0.0027216098 -0.1000412
-0.34277874 0.0037033556 -0.10057561
-0.28496993 0.0056398972 -0.10116614
0.022621676 0.0047258097 -0.10097401
0.052861214 0.005058141 -0.10110246
0.1922445 0.0047218222 -0.10097246
0.23895046 0.0098745525 -0.1006753
0.37012056 0.0066582644 -0.10129333
-0.38434535 0.017953001 -0.10085063
0.043052003 0.010756614 -0.10027863
0.39474738 0.017619926 -0.101476
-0.31506151 -0.078219794 -0.098659232
0.29627961 -0.074685186 -0.096662626
-0.30117875 -0.069279745 -0.093383193
-0.32935718 -0.054445315 -0.0933832
-0.28644106 -0.058941193 -0.093383193
0.29094511 -0.045484301 -0.093548402
-0.30053079 -0.031383194 -0.093383208
0.32789081 -0.035264149 -0.093548402
-0.2917282 -0.023246955 -0.095444456
-0.37126943 -0.00047907335 -0.09590663
-0.34808278 -0.000867964 -0.091618218
-0.31911665 -0.00074227294 -0.094534986
-0.27363503 -0.00081703207 -0.094046175
-0.22304389 -0.00015742963 -0.096638575
-0.057117194 -0.00043345062 -0.095696867
-0.02169285 -0.00063516921 -0.095234066
0.023062065 -0.00056836708 -0.095670566
0.043318652 -0.00042385561 -0.096031964
0.2798886 -0.00085070002 -0.093825988
0.31238213 -0.00050959713 -0.093446083
-0.38375062 0.0089326128 -0.093828164
-0.37320101 0.0042350907 -0.092244953
-0.34979939 0.0024451602 -0.099838346
-0.3253836 0.0022308263 -0.099681057
0.098087132 0.0025376379 -0.099909581
0.18749307 0.0024334337 -0.099843204
0.23111893 0.0015259212 -0.099163778
0.37320203 0.0012902943 -0.094633199
-0.39927316 0.018820377 -0.094483137
-0.21458499 0.014062945 -0.096420795
-0.069997802 0.013488914 -0.097612031
-0.034062423 0.012948466 -0.098348722
0.095019028 0.0130645 -0.097125664
0.2367913 0.012264643 -0.09913601
0.28392518 0.013847098 -0.096972898
0.30388731 0.014682 -0.091307901
0.33342469 0.014209324 -0.096060961
0.36815214 0.014681999 -0.090654753
-0.41410759 0.027460331 -0.092314735
-0.40684104 0.030313028 -0.092117384
0.30989856 -0.043802928 -0.089883968
-0.35404307 -0.000867964 -0.08035098
-0.33571893 -0.00086796406 -0.084375411
-0.29407144 -0.000867964 -0.089251339
-0.26562279 -0.000867964 -0.083998471
-0.21935138 -0.00086796406 -0.086755395
-0.19785547 -0.000867964 -0.087689325
-0.08471144 -0.000867964 -0.082524672
-0.070761025 -0.000867964 -0.084739208
-0.018633813 -0.000867964 -0.088156894
0.069205016 -0.000867964 -0.081074312
0.14923087 -0.000867964 -0.08615116
0.15774831 -0.000867964 -0.089594498
0.18523303 -0.000867964 -0.085448176
0.19486116 -0.000867964 -0.089851901
0.21401596 -0.000867964 -0.085870668
0.22890916 -0.000867964 -0.087272286
0.24507788 -0.000867964 -0.08300323
0.29024225 -0.000867964 -0.084017739
0.32808211 -0.000867964 -0.083061203
-0.38533467 0.0072210557 -0.08508119
-0.3285813 0.014682 -0.08694993
-0.30690023 0.014682001 -0.08341942
-0.28958252 0.014682 -0.0839509
-0.26576132 0.014681999 -0.086261369
-0.068013795 0.014682001 -0.087500513
-0.043383405 0.014682 -0.088196561
0.009355966 0.014682 -0.082897373
0.016146276 0.014682 -0.081319347
0.02579008 0.014681999 -0.084391087
0.039038077 0.014681999 -0.082031205
0.11316604 0.014682 -0.085547365
0.28951433 0.014682 -0.086156361
0.36351067 0.014682001 -0.080179952
0.373202 0.012378988 -0.088163517
0.40199673 0.018328717 -0.083994791
-0.38750014 0.0242148 -0.085568614
0.42026663 0.046059113 -0.082995936
0.31295013 -0.050880492 -0.076008081
-0.33478093 -0.000867964 -0.074547604
-0.28270811 -0.000867964 -0.079778254
-0.26945838 -0.000867964 -0.079343885
-0.24322057 -0.000867964 -0.079504721
-0.12836775 -0.000867964 -0.077763669
-0.11201207 -0.000867964 -0.070727542
-0.070146397 -0.000867964 -0.074692041
-0.034318518 -0.000867964 -0.070752673
0.064849541 -0.000867964 -0.076144591
0.095690906 -0.000867964 -0.070056356
0.11641651 -0.000867964 -0.078889027
0.1538064 -0.000867964 -0.074539699
0.2593441 -0.000867964 -0.07990817
0.26825452 -0.000867964 -0.074403733
0.28879786 -0.000867964 -0.074177727
0.3454676 -0.000867964 -0.073099621
0.36525783 -0.000867964 -0.070363767
0.38331056 0.005871139 -0.073701046
-0.3586047 0.014681999 -0.076019719
-0.33106366 0.014682001 -0.071069971
-0.31094617 0.014681999 -0.07359729
-0.30180952 0.014682 -0.07013271
-0.28059271 0.014682001 -0.079314902
-0.27737695 0.014682 -0.078558132
-0.26960987 0.014682 -0.07043203
-0.17540801 0.014682 -0.078912631
-0.11406706 0.014682001 -0.078031942
-0.098836899 0.014682001 -0.077413231
0.014774956 0.014682001 -0.078432396
0.13829836 0.014682001 -0.078692958
0.15705696 0.014682 -0.072013535
0.23598969 0.014682 -0.079646617
0.33634782 0.014681999 -0.078869939
0.37019199 0.014682001 -0.077895917
-0.41758904 0.028723864 -0.074597731
-0.40069464 0.033011191 -0.073892094
0.4208279 0.030882899 -0.071650222
-0.45198381 0.056077495 -0.072120711
-0.44101647 0.057024874 -0.070798844
-0.42678314 0.050403625 -0.070306309
0.45053244 0.057449482 -0.073731363
0.31277177 -0.050956704 -0.06486626
-0.37100586 -0.000867964 -0.063054539
-0.3017821 -0.000867964 -0.068110071
-0.23161824 -0.000867964 -0.061727542
-0.2295946 -0.000867964 -0.065701619
-0.19686106 -0.000867964 -0.063595079
-0.10586843 -0.000867964 -0.06908308
-0.097768128 -0.000867964 -0.065188825
0.0069657732 -0.000867964 -0.066953808
0.012199933 -0.000867964 -0.066651627
0.0519595 -0.000867964 -0.062896326
0.15369213 -0.000867964 -0.061655752
0.16016971 -0.000867964 -0.063658193
0.19347724 -0.000867964 -0.069274403
0.33713007 -0.000867964 -0.067777507
0.3515147 -0.000867964 -0.064278916
-0.37633878 0.0012238576 -0.069444314
-0.39406222 0.013039341 -0.068638094
-0.035308465 0.014681999 -0.067166559
-0.019118026 0.014682001 -0.063526675
0.018867407 0.014682001 -0.063178703
0.1211597 0.014682 -0.065737695
0.18310536 0.014681999 -0.066833481
0.23988184 0.014682001 -0.062848181
0.26862168 0.014682 -0.068393618
0.35607156 0.014682 -0.065413617
0.40269628 0.018795092 -0.06434568
-0.40897897 0.022983823 -0.062362969
-0.38165888 0.020320596 -0.067241706
0.38186911 0.020460233 -0.0624841
0.42988345 0.036919907 -0.064990401
-0.43599042 0.040991757 -0.066195711
-0.45069641 0.056478031 -0.062340587
-0.4374128 0.057489865 -0.065899611
-0.45976678 0.061437979 -0.061656192
-0.44955522 0.065302134 -0.060909517
-0.35223556 -0.000867964 -0.055237379
-0.34879875 -0.000867964 -0.052994054
-0.31130737 -0.000867964 -0.05976766
-0.2669557 -0.000867964 -0.055372387
-0.25103611 -0.000867964 -0.053457879
-0.2081134 -0.000867964 -0.050499849
-0.18679953 -0.000867964 -0.0564695
-0.14665905 -0.000867964 -0.053194437
-0.093945287 -0.000867964 -0.055933807
0.0047026277 -0.000867964 -0.053418688
0.019439742 -0.000867964 -0.057351984
0.036565285 -0.000867964 -0.057408717
0.055152565 -0.000867964 -0.056179777
0.13153468 -0.000867964 -0.053113148
0.18482721 -0.000867964 -0.050023958
0.2007678 -0.000867964 -0.056804322
0.27222079 -0.000867964 -0.05282671
0.36630982 -0.000867964 -0.05751092
-0.36970332 0.014681999 -0.055752631
-0.30889392 0.014682 -0.056083713
-0.28887212 0.014682001 -0.054112524
-0.19013426 0.014682001 -0.056846201
-0.11689086 0.014682 -0.050921403
-0.030096158 0.014681999 -0.058468096
-0.026858222 0.014682 -0.054477952
0.027019981 0.014682 -0.051261272
0.084938377 0.014681999 -0.058374673
0.11789031 0.014682 -0.051644824
0.22506505 0.014682 -0.056008499
0.25006443 0.014682001 -0.0531766
0.30249405 0.014682001 -0.053525921
0.35758471 0.014682001 -0.05112499
-0.38848275 0.024869874 -0.052028019
0.39007229 0.025929173 -0.054800183
0.42708081 0.035051301 -0.05655377
0.43002754 0.037015662 -0.054781102
-0.43487364 0.040246807 -0.05187723
0.42377871 0.048399772 -0.050675742
-0.43285474 0.054451056 -0.057416387
0.42856565 0.051590987 -0.053260945
0.43187606 0.0537978 -0.052603174
0.44292176 0.061161347 -0.055607997
-0.30769068 -0.049533986 -0.042987857
-0.33257887 -0.000867964 -0.044320762
-0.28401506 -0.000867964 -0.0481827
-0.26525706 -0.000867964 -0.047795348
-0.18293774 -0.000867964 -0.04668843
-0.14764397 -0.000867964 -0.043504361
-0.095124386 -0.000867964 -0.04896906
-0.059042253 -0.000867964 -0.042365592
0.049763158 -0.000867964 -0.040734604
0.31722823 -0.000867964 -0.047491431
0.33267018 -0.000867964 -0.042339012
0.35696545 -0.000867964 -0.047567319
-0.38676816 0.0081767067 -0.047911409
0.38218859 0.0051231659 -0.049098976
-0.40196028 0.018304806 -0.045442577
-0.31220502 0.014682 -0.047002912
-0.25406262 0.014682 -0.047127176
-0.16699214 0.014681999 -0.041246556
-0.12503666 0.014682001 -0.0443694
-0.071704 0.014682 -0.042537309
-0.03506355 0.014682 -0.048696402
0.087704375 0.014682001 -0.046461545
0.29346731 0.014682001 -0.048577674
0.3065151 0.014682001 -0.048845295
-0.39217806 0.027333437 -0.047098607
0.39318067 0.028001476 -0.044533454
-0.40919966 0.038681202 -0.0415514
0.43672383 0.041479215 -0.043155558
0.43789399 0.057809412 -0.047315598
-0.45944732 0.062966108 -0.048121497
0.46723366 0.068051144 -0.046701588
0.3087464 -0.05064594 -0.032241423
-0.32463759 -0.000867964 -0.03518543
-0.31015125 -0.000867964 -0.033296958
-0.30992019 -0.000867964 -0.038533743
-0.29399425 -0.000867964 -0.031146176
-0.26175252 -0.000867964 -0.03972324
-0.15438055 -0.000867964 -0.038452994
-0.13154858 -0.000867964 -0.039398734
-0.11697736 -0.000867964 -0.035430331
-0.039258704 -0.000867964 -0.030220721
-0.026461611 -0.000867964 -0.034041606
-0.018827582 -0.000867964 -0.031113299
0.0041644275 -0.000867964 -0.036357321
0.041513994 -0.000867964 -0.031917322
0.081884086 -0.000867964 -0.036073439
0.15426996 -0.000867964 -0.038451586
0.20166011 -0.000867964 -0.035283737
0.24379717 -0.000867964 -0.032058474
0.29716408 -0.000867964 -0.034845497
0.31230068 -0.000867964 -0.033414464
0.38239881 0.0052633248 -0.03626243
-0.2751787 0.014682001 -0.032071307
-0.26182333 0.014681999 -0.037514798
-0.17391647 0.014682 -0.036851376
-0.15510887 0.014681999 -0.031773366
-0.092141695 0.014682001 -0.035969034
-0.023215055 0.014682 -0.039474521
0.03940035 0.014681999 -0.034254838
0.099407494 0.014682 -0.033543181
0.13821219 0.014682 -0.037380602
0.27419123 0.014681999 -0.030860098
0.31564543 0.014681999 -0.032226514
0.39055231 0.026249195 -0.039105453
0.41452134 0.026678028 -0.034222152
0.40390053 0.035147764 -0.033701044
-0.41808662 0.044605449 -0.03613032
-0.45925939 0.056503501 -0.036866203
0.42960438 0.052283026 -0.034508534
-0.4705984 0.072679602 -0.035164792
0.45681262 0.070422053 -0.033649877
-0.30760008 -0.013908384 -0.022349292
-0.37320101 -0.00014076257 -0.02860985
-0.36411941 -0.000867964 -0.026041418
-0.33845276 -0.0058948123 -0.026383528
-0.32699379 -0.000867964 -0.029437786
-0.22434177 -0.000867964 -0.023183264
-0.15825546 -0.000867964 -0.021572143
-0.057060491 -0.000867964 -0.020107653
-0.025328487 -0.000867964 -0.029507289
0.002995953 -0.000867964 -0.026593693
0.05475533 -0.000867964 -0.029390659
0.079921246 -0.000867964 -0.023518961
0.097505793 -0.000867964 -0.028463416
0.13611896 -0.000867964 -0.027409483
0.2039347 -0.000867964 -0.029193399
0.21358249 -0.000867964 -0.028345501
0.25946781 -0.000867964 -0.020427704
0.29768533 -0.000867964 -0.023858957
0.32471567 -0.0090975203 -0.025531288
0.33741438 -0.0078979461 -0.020565841
0.38351804 0.006009453 -0.027459646
-0.40400279 0.019666253 -0.021545714
-0.36947429 0.014682 -0.029842468
-0.31611648 0.014682001 -0.020699488
-0.30580011 0.014682 -0.028210552
-0.26749656 0.014682 -0.026595293
-0.23465121 0.014682001 -0.020891028
-0.19430608 0.014682 -0.021327239
-0.17651258 0.014681999 -0.026581697
-0.015394017 0.014681999 -0.025128713
0.026624009 0.014682001 -0.02362372
0.055049531 0.014682001 -0.020794583
0.084813833 0.014682 -0.023650393
0.13898352 0.014682 -0.021377675
0.16318671 0.014682001 -0.023513481
0.17718643 0.014681999 -0.029454632
0.19287398 0.014681999 -0.024196759
0.23076645 0.014682 -0.026430851
0.36404282 0.014682001 -0.024163613
0.39695597 0.014968115 -0.028803846
-0.42507517 0.033714313 -0.022340644
-0.39700827 0.030553393 -0.020370912
0.44464326 0.062309183 -0.029690824
0.47071403 0.064139441 -0.024715217
0.46101323 0.073222734 -0.023275353
-0.30755925 -0.049278837 -0.010534545
0.29479298 -0.023150604 -0.016162664
-0.33076638 -0.017870052 -0.013829734
-0.29189211 -0.018854801 -0.016258724
-0.28941435 -0.015138122 -0.019845629
0.28962988 -0.015461407 -0.016690241
0.33581179 -0.010301874 -0.015029046
-0.26523435 -0.000867964 -0.013405954
-0.25188947 -0.000867964 -0.017423976
-0.097077213 -0.000867964 -0.019315328
-0.045265257 -0.000867964 -0.016524248
-0.0386663 -0.000867964 -0.013284162
-0.016320523 -0.000867964 -0.010126237
-0.0003078701 -0.000867964 -0.014265339
0.0019595386 -0.000867964 -0.014891407
0.039079245 -0.000867964 -0.01325334
0.047317043 -0.000867964 -0.018820828
0.091967955 -0.000867964 -0.013023621
0.14636964 -0.000867964 -0.01471117
0.15088966 -0.000867964 -0.019137189
0.26776838 -0.000867964 -0.017720193
0.28191218 -0.000867964 -0.016986765
0.31694314 -0.000867964 -0.011516951
0.33868834 -0.0042070597 -0.014237047
0.36260009 -0.000867964 -0.010687556
-0.37320101 0.0042311894 -0.014968254
-0.37320101 0.010905109 -0.017906081
-0.28753677 0.014682 -0.010045474
-0.27997354 0.014682 -0.019036151
-0.26162195 0.014681999 -0.019243807
-0.22484288 0.014682001 -0.019531352
-0.21902399 0.014682 -0.017344242
-0.067361474 0.014682 -0.011561698
-0.044582225 0.014681999 -0.016594289
0.036946192 0.014682001 -0.01982215
0.050471663 0.014682 -0.012943152
0.063932642 0.014682 -0.010040102
0.17893061 0.014682001 -0.015616497
0.23587787 0.014682001 -0.012643052
0.31822965 0.014682001 -0.017761009
0.33448485 0.014682 -0.012546229
0.34147927 0.014682 -0.019841231
0.373202 0.010243773 -0.019108564
-0.4155975 0.027395971 -0.015646987
-0.38704634 0.023912156 -0.01294883
0.42509818 0.049279384 -0.015552031
0.43856856 0.058259681 -0.015440157
-0.45947969 0.072200879 -0.014243672
0.45775306 0.071049504 -0.011523735
0.30891091 -0.044383224 -0.00058864267
0.32110938 -0.0323557 -0.0099412668
-0.36760816 -0.000867964 -0.0048309709
-0.34331775 -0.000867964 -0.003869317
-0.33679453 -0.000867964 -0.0047620772
-0.30524677 -0.000867964 -0.006559121
-0.28155017 -0.000867964 -0.0070154993
-0.25398895 -0.000867964 -0.0048030904
-0.24444276 -0.000867964 -0.0055672396
-0.23570305 -0.000867964 -0.00058276625
-0.18124029 -0.000867964 -0.0065460363
-0.093444109 -0.000867964 -0.0063491943
-0.072762236 -0.000867964 -0.0024881621
-0.06551256 -0.000867964 -0.0074945586
-0.039061375 -0.000867964 -0.0019581174
-0.015887275 -0.000867964 -0.0012329241
0.011779159 -0.000867964 -0.0081503727
0.077745765 -0.000867964 -8.1349688e-05
0.13429755 -0.000867964 -0.0082065016
0.17840478 -0.000867964 -0.0036636654
0.18137608 -0.000867964 -0.0026956983
0.20349793 -0.000867964 -0.0060357112
0.24195546 -0.000867964 -0.0095651001
0.28673735 -0.000867964 -0.0011718207
0.29032004 -0.000867964 -0.0045073214
-0.3708927 0.014682 -0.0083434843
-0.36983532 0.014682 -0.0093961833
-0.33232233 0.014682 -5.4906406e-05
-0.29463238 0.014682001 -0.0093490686
-0.23105192 0.014682001 -0.0038366965
-0.13384433 0.014682 -0.0069114091
-0.074819043 0.014682001 -0.0046493411
-0.030703902 0.014682 -0.00352816
0.017740726 0.014682 -0.0096485261
0.020557223 0.014682 -0.0066201291
0.039991364 0.014681999 -0.0092823943
0.073012263 0.014681999 -0.0066338913
0.082216114 0.014682 -0.004326208
0.1428574 0.014682 -0.00085122808
0.19549644 0.014682 -0.0092346054
0.22413722 0.014681999 -0.0061900448
0.25637609 0.014682001 -0.00069128408
-0.40537888 0.036133789 -0.006021041
0.43241319 0.038606089 -0.00061274471
-0.42483532 0.049104795 -0.0072944844
0.44224927 0.060713798 -2.7942275e-05
0.45492259 0.069162555 -0.0085840002
0.47143868 0.064623103 -0.0014461906
-0.47373438 0.076318443 -0.0056160251
0.3081938 -0.050190028 0.0042251498
0.3074221 -0.040706616 0.0046235714
-0.32228404 -0.030593721 0.0055468115
0.32715249 -0.023290947 0.0016006387
-0.33413604 -0.012815516 0.0092368415
-0.28280839 -0.000867964 0.0025971644
-0.2217171 -0.000867964 0.0032136843
-0.21488498 -0.000867964 0.006652778
-0.16880944 -0.000867964 0.005236126
-0.15803754 -0.000867964 0.0061061499
-0.12308489 -0.000867964 0.0018885856
-0.10482617 -0.000867964 0.0034268131
-0.035806574 -0.000867964 0.0011366277
0.063824087 -0.000867964 0.00042442678
0.098176897 -0.000867964 0.0047537996
0.21827927 -0.000867964 0.0090277167
0.2247735 -0.000867964 0.0095341373
0.30554366 -0.000867964 0.0018737415
-0.40199533 0.018328216 0.0072317887
-0.38070509 0.019684646 0.004398013
-0.37634361 0.016777035 0.009519089
-0.20671114 0.014682 0.0060348217
-0.16127627 0.014682 0.0066456422
-0.05982627 0.014681999 0.00057307491
0.040757626 0.014682001 0.0086659985
0.053959839 0.014682001 0.0064744204
0.076403975 0.014682 0.002026062
0.16661166 0.014682001 0.0021989357
0.2256728 0.014682 0.0080226092
0.26476526 0.014682 0.0018357637
0.27167022 0.014682 0.0029163819
0.28725362 0.014682001 0.0074271401
0.39004737 0.010362268 0.0068846457
-0.39374027 0.028374644 0.0065286988
0.40315658 0.034651831 0.0092909429
-0.41694617 0.043845348 0.0065183491
0.42195925 0.047187027 0.0019457813
-0.44239974 0.06081453 0.00635682
0.46954739 0.063362256 0.0094225025
-0.47708938 0.073321648 0.0053916904
0.30877975 -0.044364858 0.012357108
0.30635577 -0.019410197 0.018821253
-0.34156901 -0.000867964 0.01878693
-0.27899903 -0.000867964 0.010740402
-0.21983182 -0.000867964 0.019343769
-0.17275667 -0.000867964 0.017109575
-0.127664 -0.000867964 0.010759234
-0.11748813 -0.000867964 0.014847281
-0.096262269 -0.000867964 0.015592984
-0.049682707 -0.000867964 0.014419688
-0.021256447 -0.000867964 0.017260838
-0.004026562 -0.000867964 0.018738799
0.070886582 -0.000867964 0.011708424
0.13624406 -0.000867964 0.01717734
0.14836258 -0.000867964 0.011174234
0.18951744 -0.000867964 0.012175607
0.25485089 -0.000867964 0.016979132
0.28767979 -0.0053393799 0.016420601
-0.39995265 0.01696641 0.017996216
-0.37320101 0.013207314 0.017871471
-0.26283136 0.014682 0.012226786
-0.19532937 0.014681999 0.012764193
-0.13928497 0.014682 0.01650776
-0.1049301 0.014682 0.018863445
0.013012573 0.014681999 0.017656771
0.078820176 0.014682 0.017008549
0.16956887 0.014681999 0.019432304
0.24480079 0.014681999 0.016728071
-0.40548366 0.020653764 0.010463396
0.42272687 0.032148585 0.018922806
-0.44204858 0.045030303 0.018204641
0.44814551 0.049094297 0.015878167
-0.46543124 0.060618397 0.014514467
0.44225296 0.060716275 0.013012686
0.45375139 0.068381906 0.014514415
-0.47345483 0.076475345 0.013687085
-0.46160832 0.073619924 0.015141926
0.3089906 -0.044202786 0.022909304
-0.33120978 -0.000867964 0.023987513
-0.28352544 -0.0063046841 0.024879161
-0.20855713 -0.000867964 0.02613494
-0.18401718 -0.000867964 0.024450218
-0.025882781 -0.000867964 0.020291107
-0.0021860972 -0.000867964 0.025298905
0.0033286512 -0.000867964 0.028212894
0.010962076 -0.000867964 0.024743086
0.05961252 -0.000867964 0.022074249
0.063581705 -0.000867964 0.025374774
0.094119906 -0.000867964 0.026653642
0.12477931 -0.000867964 0.025119295
0.15102279 -0.000867964 0.029459156
0.38369238 0.0061256187 0.024823023
-0.3590309 0.014682 0.026183246
-0.26665905 0.014682 0.020723578
-0.25311041 0.014682 0.023688583
-0.17278621 0.014682 0.028142052
-0.13203932 0.014681999 0.029123034
-0.086838692 0.014682001 0.023381682
0.10798287 0.014682001 0.022392306
0.17370105 0.014682 0.023283342
0.19927476 0.014682 0.028491337
0.26244542 0.014681999 0.020666733
0.28039449 0.014682 0.02591631
0.32295641 0.014682 0.023148503
0.3520824 0.014682001 0.0276371
-0.4183706 0.029245021 0.026739772
-0.42537177 0.033912465 0.027670048
0.40091214 0.033155534 0.020262498
-0.44264388 0.045427028 0.029877923
-0.43582627 0.040882114 0.027848294
-0.41475001 0.042380974 0.027837137
0.42665693 0.050318841 0.026301859
-0.46714884 0.061762899 0.026693571
-0.45795527 0.071184084 0.025607809
-0.30713272 -0.047667507 0.034460079
-0.35085106 -0.000867964 0.032515161
-0.34781933 -0.000867964 0.037304267
-0.33433598 -0.000867964 0.037109498
-0.32393736 -0.000867964 0.03524733
-0.27228957 -0.000867964 0.03234509
-0.22173466 -0.000867964 0.036816146
-0.16644098 -0.000867964 0.039037291
-0.017965421 -0.000867964 0.036829781
0.00887895 -0.000867964 0.036764011
0.04960601 -0.000867964 0.036914904
0.095959909 -0.000867964 0.037017092
0.10584991 -0.00086796394 0.037062269
0.18667322 -0.000867964 0.035306666
0.19660321 -0.000867964 0.038100395
0.2765609 -0.000867964 0.034321938
-0.38527781 0.0071832282 0.035449814
-0.37320101 0.0017675813 0.036082983
0.38458404 0.0067200642 0.035316084
-0.39761841 0.015410266 0.031013397
-0.3591637 0.014682001 0.038999222
-0.1413728 0.014681999 0.036987722
-0.12926783 0.014681999 0.030337088
-0.086748198 0.014682001 0.035642009
0.056353956 0.014682001 0.033287928
0.27725703 0.014682001 0.032461952
0.28276137 0.014682 0.037185639
0.37421563 0.015357761 0.037547339
-0.40836418 0.022574091 0.032042723
0.38830808 0.024752792 0.03874708
0.3938238 0.02842997 0.0371661
-0.41952294 0.030013248 0.033805441
-0.39713645 0.030638736 0.035181243
0.41470668 0.042351954 0.036924593
0.4392007 0.043131113 0.038636241
0.43811035 0.057954401 0.033759404
-0.47378904 0.071442075 0.030387104
0.45656776 0.070258945 0.034115933
0.46480066 0.074229226 0.032951616
0.31208175 -0.051078353 0.044202402
0.30958015 -0.043934781 0.04785867
0.31407347 -0.04518991 0.048779629
-0.36755273 -0.000867964 0.045381926
-0.28222087 -0.000867964 0.046315897
-0.089568079 -0.000867964 0.04946347
-0.064168736 -0.000867964 0.04628665
-0.034285091 -0.000867964 0.048681922
-0.024768535 -0.000867964 0.04416845
0.025611922 -0.000867964 0.049369078
0.069904335 -0.000867964 0.042425886
0.095635243 -0.000867964 0.042983077
0.12241641 -0.000867964 0.045335747
0.20401929 -0.000867964 0.043507002
0.26253808 -0.000867964 0.041637845
0.27426332 -0.000867964 0.04664069
0.31684104 -0.000867964 0.040947843
0.3266663 -0.000867964 0.041137565
0.35828567 -0.000867964 0.041155186
-0.38636109 0.0079054032 0.045356441
-0.30448934 0.014681999 0.04274353
-0.26715043 0.014681999 0.04450731
-0.2195119 0.014682 0.047060702
-0.18820761 0.014682001 0.049578033
-0.17760269 0.014682 0.047391001
-0.16167237 0.014681999 0.046883926
-0.021314161 0.014682 0.04783529
0.047507249 0.014682 0.040708706
0.070103511 0.014682001 0.047636472
0.10989013 0.014682 0.045746572
0.11756085 0.014682 0.043775208
0.15700886 0.014682 0.04120858
0.20025401 0.014682 0.046779815
0.23649852 0.014682 0.04563392
0.24866383 0.014681999 0.044612616
-0.39425147 0.028715461 0.041580535
-0.38581741 0.023092814 0.049501915
0.38583645 0.023105036 0.041845772
0.39324898 0.028046731 0.042472765
0.40585995 0.020903988 0.042416293
-0.43252316 0.038679771 0.045341894
-0.41034737 0.039445907 0.04018819
-0.44811177 0.049071826 0.044690996
-0.46128917 0.05785659 0.047614358
-0.46903658 0.069563136 0.041772805
0.30756372 -0.045743741 0.054657049
0.31381822 -0.044858217 0.057598665
-0.35812575 -0.000867964 0.057078887
-0.26773497 -0.000867964 0.057307772
-0.17966686 -0.000867964 0.054192517
-0.072962821 -0.000867964 0.050961811
-0.0021153295 -0.000867964 0.058287829
0.022459328 -0.000867964 0.053861789
0.093886212 -0.000867964 0.058548991
0.12943012 -0.000867964 0.059117518
0.18506858 -0.000867964 0.054340564
0.27134565 -0.000867964 0.052896455
0.33624417 -0.000867964 0.0534577
0.38408697 0.0063886801 0.050693542
-0.37274218 0.014681999 0.058080029
-0.35329673 0.014681999 0.056933068
-0.33748314 0.014682001 0.05949536
-0.29262421 0.014682 0.055112835
-0.27196115 0.014682001 0.051579542
-0.11030995 0.014681999 0.059300713
-0.10174476 0.014682001 0.054515392
-0.09693028 0.014682001 0.056556411
0.10532902 0.014681999 0.051881779
0.19287795 0.014681999 0.052606754
0.21656464 0.014682001 0.055827852
0.27790192 0.014681999 0.055882081
0.32848188 0.014681999 0.052760039
0.36999673 0.014682 0.058230937
0.38991168 0.010271815 0.058382783
-0.41859388 0.029393688 0.056022957
-0.40532857 0.020550374 0.052657008
-0.448212 0.049138505 0.054729141
0.43106174 0.053254936 0.053861357
-0.31245032 -0.051090147 0.068603098
-0.37308529 -0.000867964 0.061782066
-0.34328115 -0.000867964 0.065939456
-0.3361935 -0.000867964 0.067218028
-0.32399982 -0.000867964 0.061799146
-0.22405137 -0.000867964 0.068958759
-0.13695326 -0.000867964 0.064993858
-0.051515788 -0.000867964 0.067857765
-0.034178749 -0.000867964 0.060155261
-0.010069266 -0.000867964 0.067576572
-0.0072079003 -0.000867964 0.060741231
0.068366125 -0.000867964 0.069709092
0.076577239 -0.000867964 0.061140954
0.096198812 -0.000867964 0.065551519
0.20812626 -0.000867964 0.063854486
0.23299269 -0.000867964 0.06343586
0.27839446 -0.000867964 0.061280664
0.3763895 0.0012570426 0.067949221
-0.40087783 0.017583199 0.060034528
-0.39242941 0.011950949 0.065103248
-0.37320101 0.011473185 0.064549446
-0.3574549 0.014682 0.065268271
-0.33139348 0.014682 0.062068149
-0.29277319 0.014682 0.062939368
-0.25468293 0.014682 0.063313171
-0.24708214 0.014682001 0.06390474
-0.23248456 0.014682 0.061064508
-0.18959896 0.014682001 0.064266473
-0.16943198 0.014681999 0.063808352
-0.026825055 0.014682 0.067479394
0.0027977005 0.014681999 0.06737677
0.0644577 0.014682 0.063498929
0.13417166 0.014682 0.061047465
0.14784463 0.014682001 0.067901894
0.15733814 0.014681999 0.062918738
0.18635271 0.014682 0.06210072
0.21582007 0.014682001 0.066578709
0.23164813 0.014681999 0.061963927
0.25537261 0.014681999 0.062249105
0.35016078 0.014682 0.067069925
0.39699435 0.014993597 0.064120814
-0.39611781 0.029959667 0.065409571
-0.38549489 0.022877797 0.06572251
0.38305718 0.021252153 0.067923307
-0.40103108 0.033235133 0.06498187
0.42603755 0.034355387 0.060888555
-0.44923851 0.059263684 0.062024768
0.45004386 0.050360035 0.063403875
-0.44143009 0.060167655 0.063607998
-0.31300014 -0.050842863 0.073927842
-0.29470593 -0.000867964 0.071524799
-0.27426806 -0.000867964 0.074976653
-0.24357626 -0.000867964 0.075403228
-0.23681587 -0.000867964 0.077665351
-0.13268484 -0.000867964 0.073437996
-0.053352483 -0.000867964 0.078837983
-0.019440815 -0.000867964 0.075896427
0.054371029 -0.000867964 0.071713269
0.11990333 -0.000867964 0.074437559
0.17286706 -0.000867964 0.074406564
0.18302095 -0.000867964 0.073192209
0.23894985 -0.000867964 0.073247507
0.26881051 -0.000867964 0.079239674
0.27931499 -0.000867964 0.071058027
0.34969455 -0.000867964 0.073759176
0.38536367 0.0072397967 0.079351202
-0.37193534 0.014682 0.071601912
-0.32545155 0.014681999 0.075096197
-0.30915347 0.014682 0.071478337
-0.29491466 0.014681999 0.077839784
-0.20506515 0.014682001 0.075204954
-0.17418493 0.014682001 0.075268425
-0.14397585 0.014682 0.073376238
-0.060669854 0.014681999 0.077946819
-0.034911491 0.014682001 0.075967029
-0.011837289 0.014682 0.077236563
0.017605618 0.014682 0.077310935
0.20693399 0.014682 0.07854493
0.21669944 0.014682 0.076978423
0.30339164 0.014682 0.071583159
0.34371793 0.014682 0.071049869
0.373202 0.012724311 0.071968637
-0.38260841 0.020953503 0.075745344
0.39197233 0.027195636 0.074496455
0.42562842 0.034082942 0.073760107
-0.44632462 0.049479421 0.077657565
-0.29411051 -0.000867964 0.086554773
-0.072426945 -0.000867964 0.081119068
-0.036704876 -0.000867964 0.082503513
0.070905894 -0.000867964 0.083007604
0.08218506 -0.000867964 0.088487551
0.12680739 -0.000867964 0.084948733
0.17168249 -0.000867964 0.088443607
0.3048248 -0.000867964 0.088560566
-0.37320101 0.009959016 0.089851364
0.38731435 0.0085403454 0.089599811
-0.30678552 0.014681999 0.083828107
-0.26383629 0.014682001 0.085230112
-0.18202589 0.014681999 0.087539628
-0.13734573 0.014682001 0.08849407
-0.099601172 0.014681999 0.080955669
-0.072797731 0.014682001 0.087668777
-0.055425875 0.014682001 0.083056062
0.040973254 0.014682 0.084233642
0.053445935 0.014682001 0.087205783
0.082280487 0.014682 0.084565833
0.12012732 0.014682 0.083040871
0.15501574 0.014681999 0.081190586
0.19309211 0.014682001 0.089272022
-0.41184533 0.024894815 0.085237943
0.3959589 0.029853493 0.088233247
-0.40310249 0.034616426 0.085507363
0.40902621 0.038565088 0.084069848
0.42513976 0.033757485 0.083823033
0.41793528 0.044406421 0.088428453
0.42615268 0.048697591 0.087225482
-0.33748046 -0.062373806 0.093548402
-0.28922451 -0.067308381 0.093548402
0.30872878 -0.069879308 0.093548402
0.31022143 -0.061319001 0.093548402
0.29655254 -0.059161708 0.093548402
-0.32208622 -0.045673169 0.093548402
-0.31337565 -0.044481929 0.092064902
-0.33011582 -0.036319491 0.093548402
0.28822297 -0.039608479 0.093548402
-0.3312321 -0.02398574 0.09786243
-0.32951006 -0.023338962 0.095613584
0.29239392 -0.027070424 0.093548402
0.31980923 -0.017900093 0.096779071
-0.33825123 -0.00044234202 0.095949218
-0.29395449 -0.000867964 0.0900319
-0.24312612 -0.000867964 0.090991698
-0.17542103 -0.000867964 0.091364786
-0.10941806 -0.000867964 0.091347963
-0.098273121 -0.00085614109 0.09369617
-0.010179698 -0.000867964 0.092914596
0.071846962 -0.000867964 0.091833428
0.099975571 -0.000602265 0.095563412
0.14919847 -0.0004846041 0.095847286
0.31671536 -0.00047750489 0.095913395
-0.22612739 0.0012848217 0.098884746
-0.16366272 0.0010052165 0.098519199
0.013914526 0.00021245229 0.097486377
0.021662731 0.0009418102 0.098447613
0.35908249 0.0021785367 0.099652365
-0.39343283 0.012729686 0.095454134
-0.38885492 0.011333168 0.099204831
-0.34737685 0.014682001 0.090623632
-0.33631557 0.014682 0.090143479
-0.32102552 0.014001912 0.096562475
-0.29452303 0.014494064 0.094976418
-0.28194833 0.01461331 0.094070338
-0.18138561 0.014366406 0.095682561
-0.13090265 0.013368581 0.09778969
-0.12051851 0.011201377 0.099969611
-0.090867929 0.014486382 0.095030405
0.009517327 0.014681999 0.091097079
0.039564997 0.012263434 0.099156812
0.068260036 0.014014508 0.09653262
0.16814858 0.014682 0.092382446
0.17171894 0.012170136 0.099230155
0.18276495 0.013800045 0.097077921
0.19444737 0.01462437 0.093986295
0.22973275 0.014554037 0.09451367
0.2394928 0.013206248 0.098001048
0.24330276 0.011488855 0.09976577
0.25376761 0.014682001 0.090255812
0.28505105 0.013631159 0.096008793
0.33870721 0.014663 0.093689203
0.35791832 0.012711078 0.098670885
-0.41063485 0.029830083 0.091584571
-0.39150724 0.026661206 0.09634351
0.40818661 0.025647331 0.09919332
-0.40415093 0.03196523 0.092560306
0.42423293 0.036937509 0.094477698
-0.41398686 0.040107992 0.094365828
-0.32506269 -0.074961402 0.10511683
-0.30574077 -0.078126058 0.10530305
0.29552871 -0.074216448 0.10703801
-0.33470607 -0.067543276 0.10382658
0.28711563 -0.067421392 0.10184154
0.33472598 -0.067279339 0.10172869
-0.34052941 -0.056400366 0.10100935
-0.28032178 -0.042875446 0.10785104
0.34174204 -0.044489574 0.1063783
-0.31160414 -0.016684759 0.10922769
0.3177563 -0.017432682 0.10487439
0.32312155 -0.01905025 0.10017151
-0.3277432 0.0055058082 0.10113922
-0.2363833 0.0036657029 0.10054982
-0.15467519 0.008491613 0.10111516
-0.099850506 0.0038836673 0.10064016
0.23391843 0.0041054701 0.10073578
0.28154588 0.0093590301 0.10089532
-0.39600691 0.019647237 0.10199059
-0.38869771 0.015484262 0.10193122
-0.28497961 0.010968646 0.10014829
-0.24938032 0.010895521 0.10020445
0.26882383 0.010024742 0.10060264
-0.40875801 0.029443117 0.10008606
-0.32101449 -0.076861545 0.11913106
-0.29003268 -0.07025402 0.11977018
0.32564679 -0.074732766 0.11804254
-0.3408249 -0.039614938 0.11117317
0.33279663 -0.025678271 0.11380795
-0.32432917 -0.019474881 0.11004391
-0.32155696 -0.07394141 0.124648
-0.31279451 -0.072816618 0.124648
0.32126737 -0.072668143 0.124648
-0.34041962 -0.056755498 0.12036329
-0.3340925 -0.056285508 0.124648
0.31531188 -0.055968799 0.124648
0.34094596 -0.054892797 0.12452476
-0.28030398 -0.043344185 0.12168421
-0.33668974 -0.035423923 0.124648
-0.32069349 -0.034454543 0.124648
-0.31263092 -0.032093599 0.124648
0.28315979 -0.034211755 0.12106915
0.32951474 -0.031025613 0.12464799
-0.31011692 -0.027990166 0.12464799
0.2966381 -0.020125942 0.12410844
0.30773801 -0.0281188 0.124648
0.33240244 -0.025312958 0.12024454
