# .PCD v0.7 - Point Cloud Data file format
VERSION 0.7
FIELDS x y z
SIZE 4 4 4
TYPE F F F
COUNT 1 1 1
WIDTH 839
HEIGHT 1
VIEWPOINT 0 0 0 1 0 0 0
POINTS 839
DATA ascii
-0.29934362 0.0062842993 -0.12013296
-0.24582905 0.0070257429 -0.123062
-0.19740686 0.0062843002 -0.12054455
-0.14112315 0.0062843002 -0.12204017
0.042840976 0.0079297954 -0.123062
0.074570671 0.0068925326 -0.123062
0.17536408 0.0073748594 -0.123062
0.18049183 0.0062842998 -0.12238951
0.19125111 0.0062842993 -0.12131762
0.21293682 0.0062880586 -0.12205357
0.22396873 0.0062842998 -0.12010029
0.28824237 0.0062842998 -0.12192331
0.29531315 0.0071600582 -0.123062
0.37468597 0.0094678188 -0.12223393
-0.37365955 0.011491328 -0.12105878
-0.34344235 0.0062842993 -0.11233209
-0.27285129 0.0062842998 -0.11687268
-0.21753705 0.0062842998 -0.11985637
-0.16547285 0.0062843002 -0.11150053
-0.10063732 0.0062842998 -0.11116409
0.0011495538 0.0062843002 -0.11201233
0.018234435 0.0062842998 -0.11190215
0.021000743 0.0062842998 -0.11839217
0.10276492 0.0062843002 -0.11585045
0.17644536 0.0062843002 -0.11153968
0.18393794 0.0062842998 -0.11157778
0.22712947 0.0062843002 -0.11683115
0.25869095 0.0062842998 -0.1140276
0.28485915 0.0062842998 -0.1197347
0.29482007 0.0062842993 -0.1113705
0.36038354 0.0062842998 -0.11862444
-0.38397694 0.013469505 -0.11221471
-0.40598738 0.02457515 -0.11463135
-0.39649203 0.021820944 -0.1154633
0.31382918 -0.059749357 -0.10944091
0.31847814 -0.047042824 -0.109568
0.32345039 -0.04065584 -0.10753558
0.33172911 -0.045289181 -0.10492992
0.33367014 -0.039280664 -0.109568
0.27784967 -0.026942138 -0.1078459
0.29053319 -0.024639636 -0.10515304
0.28404251 -0.017371278 -0.109568
0.30404282 -0.011922321 -0.10031693
0.32385886 -0.0067896768 -0.10054775
-0.34557685 0.0062842998 -0.10508812
-0.27597529 0.0062842993 -0.10794052
-0.25241914 0.0062842998 -0.10143648
-0.23695843 0.0062842998 -0.10132677
-0.21347982 0.0062842993 -0.10676138
-0.17033195 0.0062842998 -0.10251039
-0.15263203 0.0062843002 -0.1033254
-0.13826373 0.0062842998 -0.10718208
-0.10454603 0.0062842998 -0.1068664
-0.049631707 0.0062843002 -0.10415612
-0.0067810277 0.0062842998 -0.10482181
0.017169673 0.0062842998 -0.10591888
0.04214184 0.0062843002 -0.10859723
0.056429822 0.0062842998 -0.10473341
0.08833456 0.0062842998 -0.10526633
0.1616182 0.0062842998 -0.10035475
0.18631107 0.0062842998 -0.10610883
0.19326182 0.0062843002 -0.10669305
0.21266621 0.0062843002 -0.10938416
0.29851019 0.0062842998 -0.10132764
0.31631774 0.0062842998 -0.10699202
0.3375068 0.0062842998 -0.10924968
0.34981832 0.0062842998 -0.10634155
0.35449356 0.0062842998 -0.104425
0.36462945 0.0062842998 -0.10508133
-0.38347375 0.016161684 -0.10445683
-0.41846448 0.028462572 -0.10445145
0.31151596 -0.052541304 -0.093553603
0.29622936 -0.040621005 -0.098892301
0.30010957 -0.042667907 -0.093553603
0.31250533 -0.047403343 -0.093553603
0.33042723 -0.049476501 -0.097691365
0.29927349 -0.035576783 -0.093553603
0.30460879 -0.031684995 -0.096051425
0.31231165 -0.034469549 -0.098892301
0.29943877 -0.025469113 -0.098892301
0.31249025 -0.0019717938 -0.097160228
0.32008758 -0.0044860318 -0.096429117
-0.37226319 0.0083772065 -0.094906412
-0.34435898 0.0062842998 -0.098338701
-0.30613184 0.0062842993 -0.092260391
-0.29954728 0.0062842993 -0.090167597
-0.27209127 0.0062842998 -0.093622014
-0.14726046 0.0062842998 -0.094199136
-0.11078648 0.0062842993 -0.09181422
-0.10926559 0.0062842993 -0.099256828
-0.097132601 0.0062842993 -0.097818434
-0.070229948 0.0062843002 -0.091380358
-0.0033194572 0.0062842998 -0.096328899
0.018802665 0.0062842998 -0.096698977
0.045327425 0.0062842993 -0.092287414
0.052555036 0.0062843002 -0.094388835
0.081356972 0.0062842998 -0.097647302
0.14962973 0.0062842993 -0.09340553
0.1820004 0.0062842998 -0.092235759
0.22398478 0.0062843002 -0.097344533
0.27365112 0.0062842998 -0.094382748
0.29848549 0.0062842998 -0.097262114
0.30082309 0.0062842998 -0.093816087
0.31979761 0.0062842998 -0.095413789
0.35900223 0.0062842998 -0.090677008
0.36799401 0.0071304054 -0.093714416
-0.39368162 0.017688408 -0.090978436
-0.38560653 0.017088842 -0.096601054
-0.39948416 0.020210929 -0.09209948
0.40651309 0.023821004 -0.099099696
-0.4260014 0.033194009 -0.093486525
-0.41931516 0.031742658 -0.099356763
0.42455363 0.032161474 -0.092738047
0.43478909 0.036893491 -0.093272991
-0.27565902 -0.046669774 -0.086826697
-0.31802189 -0.036818855 -0.08091832
0.30849674 -0.0310835 -0.088365182
0.31785801 -0.020442422 -0.086122982
-0.30485559 -0.013580818 -0.08030194
-0.30008101 -0.0021708952 -0.083097413
-0.295829 -0.0032366272 -0.086826697
-0.27529338 -0.0080921296 -0.083018735
-0.37132218 0.0079681361 -0.089393169
-0.27380496 0.0062843002 -0.083129942
-0.26938543 0.0062842998 -0.082869858
-0.23820148 0.0062842998 -0.083141796
-0.22087087 0.0062843002 -0.087176204
-0.2045669 0.0062843002 -0.08514718
-0.17863077 0.0062842998 -0.086487807
-0.1536984 0.0062843002 -0.084850632
-0.14889036 0.0062842998 -0.089321986
-0.13705266 0.0062843002 -0.087240681
-0.12484089 0.0062842993 -0.083814189
-0.10253439 0.0062842993 -0.080361217
-0.08642666 0.0062842998 -0.083212286
-0.046595067 0.0062842998 -0.083466813
0.015642237 0.0062842998 -0.084439114
0.08686237 0.0062843002 -0.084401719
0.098445207 0.0062842993 -0.088414423
0.10731964 0.0062842998 -0.083700806
0.11729386 0.0062842998 -0.081011057
0.12589584 0.0062842998 -0.082459643
0.21686386 0.0062843002 -0.083294861
0.33793727 0.0062842998 -0.087780476
0.41095707 0.02587555 -0.080700032
-0.44293243 0.039099101 -0.080722317
-0.43183452 0.034274518 -0.085738823
0.44390455 0.041107748 -0.081565619
-0.28283322 -0.043381069 -0.07613948
-0.31494781 -0.036799092 -0.0734815
-0.30588505 -0.036598198 -0.07369113
-0.29238135 -0.038644519 -0.076150298
-0.2748743 -0.031709902 -0.079489604
-0.31664973 -0.02860963 -0.076077089
-0.292487 -0.026365163 -0.076150298
-0.28535044 -0.02683609 -0.076150298
-0.27319384 -0.022877753 -0.075923108
-0.31371748 -0.012349941 -0.073641784
-0.29390329 -0.012501834 -0.0734815
-0.27817786 -0.015448146 -0.0734815
-0.30647156 -0.0023612662 -0.075908713
-0.28160691 -0.0039386284 -0.074087627
-0.27434227 -0.0088926423 -0.078107379
0.30852735 -0.0015266207 -0.07253705
-0.31830361 0.0062842998 -0.072546616
-0.28934491 0.00099535426 -0.075514741
-0.27391511 0.0062842998 -0.072088033
-0.2666845 0.0062842998 -0.07011544
-0.24355356 0.0062842998 -0.077754989
-0.22656128 0.0062842998 -0.070095077
-0.18918315 0.0062842998 -0.075789809
-0.14856744 0.0062842993 -0.077313058
-0.13587993 0.0062842998 -0.077767618
-0.12371175 0.0062843002 -0.070654042
-0.083540209 0.0062842998 -0.079162419
-0.041345917 0.0062842998 -0.070868291
-0.030878365 0.0062843002 -0.07499101
0.034821901 0.0062842998 -0.076986596
0.073769093 0.0062842993 -0.077229708
0.092542544 0.0062842998 -0.077328257
0.13163435 0.0062842998 -0.076095805
0.19358416 0.0062842993 -0.077351689
0.30618063 0.0046618883 -0.074671872
0.3126812 0.0030000918 -0.073575512
0.33089209 0.0062842998 -0.073612824
0.34503132 0.0062842998 -0.076521978
-0.38187569 0.012556034 -0.07772509
-0.37217093 0.011248074 -0.079670019
0.38850635 0.015496159 -0.074275352
-0.41222483 0.025749676 -0.075675175
-0.39560324 0.021434633 -0.074474521
0.39949241 0.020575281 -0.077582821
0.41892356 0.029558688 -0.079052635
-0.43397182 0.035203647 -0.075461149
0.42436701 0.032075301 -0.077976003
-0.4585191 0.046947058 -0.071172327
-0.29866287 -0.031083498 -0.061960943
0.30458194 -0.031083502 -0.067932129
-0.30357349 -0.024557102 -0.067560099
-0.29303157 -0.013372259 -0.067360625
0.296505 -0.0057162028 -0.065304622
-0.37473708 0.0094526839 -0.067860581
-0.36323684 0.0062842998 -0.068265051
-0.35980898 0.0062842998 -0.068700545
-0.2349101 0.0062843002 -0.063097522
-0.21943703 0.0062842998 -0.066800088
-0.17226878 0.0062842998 -0.06673415
-0.152879 0.0062843002 -0.063606456
-0.14990123 0.0062842998 -0.064211465
-0.12339114 0.0062842998 -0.066195026
-0.089560986 0.0062842993 -0.066310942
-0.071778066 0.0062842993 -0.061709046
0.029260904 0.0062843002 -0.068377733
0.083884463 0.0062842993 -0.063379653
0.090424992 0.0062842998 -0.063747585
0.1152345 0.0062842993 -0.065839924
0.12468767 0.0062842998 -0.067680523
0.14785244 0.0062842998 -0.06912452
0.18272674 0.0062842998 -0.061756842
0.25610709 0.0062842998 -0.06306275
0.29792869 0.0062842998 -0.06524086
0.38929302 0.015859833 -0.06046503
0.39794216 0.019858509 -0.062394183
-0.42584398 0.03312565 -0.061769038
-0.45384395 0.046753623 -0.060276795
-0.44854474 0.044449918 -0.065988883
-0.29122233 -0.0310835 -0.053793304
-0.29896814 -0.012579969 -0.054204222
0.296505 -0.015686279 -0.053330235
-0.29354772 -0.0043654223 -0.054545417
-0.24184099 0.0062843002 -0.054030407
-0.22775871 0.0062843002 -0.052465107
-0.21357307 0.0062842998 -0.055804253
-0.11067986 0.0062842998 -0.053596936
-0.071472019 0.0062842998 -0.054536194
-0.042597733 0.0062842998 -0.058895543
-0.037875615 0.0062842993 -0.053505737
0.025433525 0.0062842993 -0.052186295
0.05833222 0.0062842993 -0.055635225
0.061414741 0.0062842998 -0.055434633
0.089381956 0.0062842998 -0.050114937
0.09002959 0.0062842998 -0.057533968
0.10420564 0.0062843002 -0.057512626
0.13433383 0.0062842998 -0.056834221
0.17944908 0.0062842993 -0.055731233
0.24315591 0.0062842993 -0.055817112
0.26579773 0.0062842998 -0.053272475
0.28493193 0.0062842998 -0.054698884
0.31387341 0.0062842993 -0.050162718
0.34880552 0.0062842998 -0.054552458
0.36884278 0.0071174894 -0.058091097
-0.38406006 0.015446253 -0.056418374
0.39084679 0.016578164 -0.057273135
-0.40472996 0.025402233 -0.055378988
-0.45772162 0.045528352 -0.054707799
-0.44636178 0.042045463 -0.057205278
0.45390028 0.045729071 -0.059928615
-0.29803771 -0.0310835 -0.044112228
0.30044249 -0.031083498 -0.045755304
0.296505 -0.019390466 -0.048696246
0.31785801 -0.014608193 -0.045530509
-0.29703262 -0.00324971 -0.044120699
-0.28954053 -0.0073370086 -0.044120699
-0.33662808 0.0062842993 -0.046950795
-0.29141411 0.0062842998 -0.045568053
-0.25994739 0.0062842998 -0.046332099
-0.24356352 0.0062842998 -0.041800238
-0.15654939 0.0062842998 -0.049742296
-0.14511381 0.0062842998 -0.044268738
-0.032180525 0.0062842998 -0.040098622
0.0036812648 0.0062843002 -0.048125956
0.023681916 0.0062842998 -0.044180013
0.054395299 0.0062843002 -0.044133227
0.12904258 0.0062842998 -0.041407693
0.14521444 0.0062842998 -0.043898396
0.16554326 0.0062842998 -0.044309124
0.17659122 0.0062842998 -0.045378983
0.22214046 0.0062842993 -0.046387658
0.24047266 0.0062842998 -0.042049512
0.25942004 0.0062842993 -0.042319495
0.31687117 0.0062842998 -0.048390631
0.32344311 0.0062842998 -0.047539972
0.34240022 0.0062843002 -0.044912606
0.36799401 0.007401282 -0.045611694
-0.39163327 0.019708803 -0.04384527
0.39186341 0.017048132 -0.043501027
-0.42174163 0.029886881 -0.04581137
-0.40885246 0.024283603 -0.044022772
0.40182889 0.021655425 -0.049232632
-0.43453699 0.038360026 -0.044566363
-0.42467183 0.034071412 -0.040354565
-0.46059799 0.046778828 -0.045674466
-0.4508276 0.042531364 -0.041252755
-0.44262242 0.041875061 -0.045751534
-0.4676905 0.051317625 -0.046503782
-0.28858158 -0.0310835 -0.033196975
-0.30057901 -0.01970591 -0.032749239
0.31785801 -0.011338272 -0.038903058
-0.37565148 0.0098502068 -0.036447488
-0.36917716 0.0070356233 -0.03278695
-0.33822009 0.0062842998 -0.036133729
-0.32446665 0.0062842993 -0.03588191
-0.30356097 0.0062842998 -0.034569826
-0.22029056 0.0062842998 -0.033895392
-0.21384057 0.0062842993 -0.034434199
-0.15839794 0.0062842998 -0.032951124
-0.14822894 0.0062842998 -0.032436572
-0.12950236 0.0062842998 -0.039652776
-0.1117973 0.0062842993 -0.033105806
-0.10264619 0.0062842998 -0.03609293
-0.026978198 0.0062842998 -0.038444601
-0.012947186 0.0062842998 -0.038559031
0.041997835 0.0062842998 -0.031719416
0.0546619 0.0062842998 -0.031333666
0.094806477 0.0062842993 -0.037045434
0.11498518 0.0062842998 -0.039207347
0.16884579 0.0062842993 -0.039394133
0.19815066 0.0062842998 -0.037080929
0.21971451 0.0062842998 -0.03922214
0.23156625 0.0062842993 -0.038455069
0.25286278 0.0062842993 -0.039234012
0.32842097 0.0062842998 -0.036843278
0.3595348 0.0062843002 -0.035965703
-0.3983849 0.019733055 -0.03561075
0.39610243 0.019007934 -0.038187556
0.40709135 0.024088345 -0.03981135
0.42276412 0.031334214 -0.031970907
-0.45815644 0.048628129 -0.032717369
0.31069979 -0.031083502 -0.020414639
-0.30057901 -0.02885218 -0.028559301
-0.287233 -0.026462656 -0.027152196
0.296505 -0.023849795 -0.026329938
-0.30057901 -0.0142023 -0.02560633
-0.36304179 0.0062842998 -0.02726412
-0.3511048 0.0062843002 -0.022627279
-0.30822372 0.0062842993 -0.025197079
-0.29875606 0.0062842993 -0.028832382
-0.2372181 0.0062842993 -0.023231123
-0.20662957 0.0062842998 -0.027424455
-0.17999606 0.0062842998 -0.029681768
-0.1680885 0.0062842993 -0.026015632
-0.15408979 0.0062842993 -0.025337856
-0.12957194 0.0062842998 -0.026288822
-0.10302882 0.0062842998 -0.025555668
-0.091267459 0.0062842998 -0.02628772
-0.08172898 0.0062842998 -0.027227351
-0.025067493 0.0062842998 -0.027648337
0.01640361 0.0062843002 -0.027036175
0.048023928 0.0062842998 -0.026169684
0.11667563 0.0062842998 -0.025104541
0.17816776 0.0062843002 -0.026763648
0.2284465 0.0062842993 -0.026589468
0.23470971 0.0062842998 -0.025361385
0.25542462 0.0062842998 -0.028804062
0.27524316 0.0062842998 -0.022653054
0.29519722 0.0062843002 -0.025876561
0.30430964 0.0062842998 -0.025316108
0.33452821 0.0062842993 -0.023577766
0.35697192 0.0062842998 -0.027231807
0.36257657 0.0062842998 -0.025018029
-0.384707 0.01669779 -0.024806283
-0.41511631 0.027006675 -0.020277685
-0.40951353 0.02748174 -0.027699314
0.4013764 0.021446187 -0.029756861
-0.44419119 0.039646327 -0.026233705
0.47150159 0.05386642 -0.021203395
-0.287233 -0.027850034 -0.017442353
-0.35398164 0.0062842998 -0.017677005
-0.32590988 0.0062842998 -0.019444233
-0.30467382 0.0032430836 -0.015877524
-0.26595753 0.0062842998 -0.013381978
-0.1772131 0.0062842998 -0.013187779
-0.16525187 0.0062842998 -0.011240893
-0.13979177 0.0062842998 -0.019321188
-0.12990531 0.0062843002 -0.010751626
-0.11277939 0.0062842998 -0.017183937
-0.033504531 0.0062842998 -0.014354554
-0.029993221 0.0062842998 -0.019418163
0.032506056 0.0062842998 -0.012136452
0.042384744 0.0062842998 -0.013096856
0.079848163 0.0062842998 -0.010618016
0.10471227 0.0062842998 -0.015806716
0.11186552 0.0062842998 -0.010870643
0.12229301 0.0062842993 -0.019337373
0.14113893 0.0062842998 -0.014296304
0.23930568 0.0062842998 -0.015356949
0.24733788 0.0062843002 -0.016143294
0.28512371 0.0062843002 -0.011299403
0.30386853 0.0062843002 -0.015223417
0.33077544 0.0062843002 -0.01560119
0.36399731 0.0062842998 -0.014008291
0.37317789 0.0084095905 -0.018288519
-0.3796652 0.014506008 -0.010130729
-0.4143388 0.029579403 -0.012720768
0.41758567 0.028940054 -0.010549883
-0.4219822 0.032902166 -0.012881716
-0.44665498 0.04362797 -0.016147368
-0.4740231 0.053585302 -0.016954461
0.296505 -0.011863798 -0.0050612241
0.31785798 -0.012725453 -0.0070203324
-0.287233 -0.0038666967 -0.0014836509
0.31785801 -0.0036329322 -0.0084224455
-0.35651362 0.0062842998 -0.0077423062
-0.34581086 0.0062842998 -0.0051937057
-0.28605327 0.0050028791 -0.0055707726
-0.27670667 0.0062842998 -0.0038155306
-0.24491435 0.0062842998 -0.0057903752
-0.19650289 0.0062842993 -0.00065826345
-0.18151928 0.0062842993 -0.009685006
-0.062449053 0.0062842998 -0.0047003012
-0.041848548 0.0062842993 -0.0074090483
-0.022407502 0.0062842998 -0.0041780649
-0.017200179 0.0062842993 -0.0073646642
0.026264433 0.0062842998 -0.0090747932
0.10997671 0.0062842998 -0.0037077088
0.1760212 0.0062843002 -0.0085157305
0.26330972 0.0062843002 -0.0034208596
0.27151763 0.0062842998 -0.0022442769
0.28293356 0.0062842998 -0.006067628
0.32099068 0.0062842998 -0.0094875144
0.3662734 0.0062842998 -0.0090509318
-0.38663241 0.016564524 -0.0067084408
0.39432424 0.018185819 -0.0050391387
-0.39274281 0.020191148 -0.0013082492
0.40358573 0.022467546 -0.0029194206
0.41099405 0.025892619 -0.0080432855
-0.43272409 0.036116563 -0.0014179279
-0.46673632 0.049447283 -0.0052545881
-0.45234001 0.046099368 -0.0062166047
-0.46912318 0.050484933 -0.0098968595
0.47967812 0.058507364 -0.0067764884
-0.28972107 -0.031083502 0.0095123053
-0.30057901 -0.024107454 0.007807109
0.296505 -0.010810786 0.00092186756
0.31785801 -0.01461661 0.0023007262
-0.30186144 0.0062842998 0.0012320101
-0.29215762 0.0062842998 0.003880268
-0.25192204 0.0062842998 0.0017302367
-0.18024415 0.0062842993 0.001712251
-0.15301338 0.0062842998 0.0027874755
-0.14624891 0.0062842998 0.0082358457
-0.13381615 0.0062842998 0.0053968178
-0.12056725 0.0062843002 0.0099861491
-0.11211652 0.0062842993 0.0015922589
-0.049530961 0.0062843002 0.0019411696
-0.03874436 0.0062843002 0.0087451059
0.018989455 0.0062842998 0.0007740166
0.039637104 0.0062842998 0.0049655586
0.059580307 0.0062842993 0.0014932603
0.12349668 0.0062842998 0.0074080639
0.13271469 0.0062842998 0.009938959
0.14557549 0.0062843002 0.0079023074
0.15234794 0.0062842998 0.0041400958
0.19987097 0.0062842993 0.009251805
0.20183098 0.0062843002 0.0013494957
0.25629014 0.0062842998 0.0046405271
0.29801548 0.0062842998 0.0091222944
0.37236619 0.0080343317 0.0011303239
-0.38998872 0.016083002 0.006407829
-0.37904102 0.012779214 0.0067183198
-0.3694416 0.010061588 0.0049078129
0.39291197 0.017532986 0.006366739
0.41938701 0.029772829 0.0055309497
-0.43205935 0.034372263 0.0041250223
-0.42856303 0.032852307 0.0061884318
0.42466357 0.032212295 0.0048214011
-0.45960379 0.049257234 0.0061912849
0.45193574 0.044820845 0.0096439999
-0.47181278 0.051654182 0.008679579
0.31785801 -0.021375213 0.011452304
-0.287233 -0.00060235336 0.018434431
-0.36464253 0.0063668815 0.015071929
-0.34286392 0.0062842998 0.019132057
-0.24772605 0.0062842998 0.012432862
-0.22820939 0.0062842998 0.011235625
-0.20576613 0.0062842998 0.016502272
-0.14847474 0.0062842998 0.011587014
-0.10116719 0.0062842998 0.013583371
-0.063669197 0.0062843002 0.010701684
0.014063088 0.0062842998 0.012890277
0.074098095 0.0062843002 0.017877439
0.081124097 0.0062842998 0.018012201
0.10967971 0.0062842998 0.016733862
0.14825708 0.0062842998 0.017053735
0.18098733 0.0062842998 0.016954815
0.23066406 0.0062842998 0.016803522
0.24492329 0.0062842998 0.013223412
0.27700883 0.0062842998 0.014667375
0.31498039 0.0051052682 0.019207139
0.35075355 0.0062843002 0.010924475
0.38490745 0.013832513 0.011047799
-0.42078808 0.029472345 0.016270813
-0.41390404 0.026479663 0.015628867
-0.43711275 0.039480112 0.017687993
0.46181259 0.049387194 0.01252706
-0.46813256 0.050054278 0.010002211
0.30821455 -0.0310835 0.022036407
0.31560719 -0.031083502 0.023940973
0.29650503 -0.017503263 0.026963182
0.31785801 -0.017787188 0.026652059
-0.287233 -0.0043272874 0.023787064
0.296505 -0.0086863898 0.029225454
0.31785801 -0.0085580423 0.029256014
-0.36628315 0.006896886 0.02214662
-0.32967365 0.0062843002 0.02736255
-0.30610827 0.0062843002 0.025172507
-0.29414296 0.0062842993 0.025445919
-0.27336043 0.0062843002 0.026719632
-0.23624098 0.0062842998 0.027631184
-0.1876514 0.0062842998 0.026414428
-0.13280746 0.0062842998 0.021227259
-0.070591688 0.0062842998 0.026691817
-0.021065356 0.0062842998 0.024713483
-0.018459469 0.0062842998 0.029471228
-0.0061051347 0.0062843002 0.023070684
0.00052712485 0.0062842998 0.025940295
0.011329874 0.0062842993 0.027140521
0.023097977 0.0062842998 0.027477752
0.039812841 0.0062842998 0.029816803
0.042000294 0.0062842998 0.028105937
0.090998776 0.0062843002 0.024453811
0.1375607 0.0062842998 0.022886161
0.16212314 0.0062842998 0.026437886
0.17713732 0.0062842998 0.023420718
0.20139889 0.0062842998 0.022468643
0.21447504 0.0062842998 0.028266432
0.25126621 0.0062842993 0.025811121
0.26284021 0.0062842998 0.026089214
0.30465814 0.0062842993 0.025943061
0.31785801 0.00081755593 0.026635088
0.33690727 0.0062843002 0.024254303
0.37396595 0.0087739369 0.027840499
-0.39186224 0.016897496 0.026044238
0.3870039 0.014801724 0.02068831
-0.40619892 0.026040938 0.028519124
0.40783709 0.02443298 0.024224464
0.43586612 0.037391435 0.020107651
-0.4665215 0.052264892 0.024521792
-0.30057901 -0.030375896 0.033157624
0.31097019 -0.0310835 0.032952033
0.31785801 -0.021977741 0.032699853
0.31785801 -0.0042862208 0.036538575
-0.3731969 0.0087832417 0.032424409
-0.36446315 0.0062843002 0.039400712
-0.32294732 0.0062843002 0.037252035
-0.29797325 0.0062843002 0.035125297
-0.24294916 0.0062842998 0.034963258
-0.21116163 0.0062842993 0.034940757
-0.1706183 0.0062843002 0.038566537
-0.13238595 0.0062842993 0.039761152
-0.089304581 0.0062842998 0.030914851
-0.011475801 0.0062842998 0.030216653
-0.0087556615 0.0062842993 0.036183182
0.0069033876 0.0062842998 0.035739589
0.013402164 0.0062843002 0.030011252
0.042858578 0.0062842993 0.036285523
0.10354523 0.0062843002 0.032974739
0.34051239 0.0062843002 0.030929996
0.3644622 0.0062842993 0.030641427
-0.41582757 0.027315862 0.037615087
-0.40488797 0.025470907 0.038180754
0.41588873 0.028155427 0.0332557
-0.43025041 0.033585846 0.030498138
-0.42927867 0.033163387 0.038762547
-0.46490309 0.048650365 0.036579661
0.45714924 0.047231063 0.033142027
0.47579452 0.056290481 0.034064498
0.3164686 -0.030684993 0.047650412
-0.32297179 0.0062842998 0.045121353
-0.29427427 0.0062842998 0.049502529
-0.27513736 0.0062842998 0.044744961
-0.23460162 0.0062842998 0.046507388
-0.22469597 0.0062842998 0.04194304
-0.18364109 0.0062842998 0.047467291
-0.16779149 0.0062842993 0.040299021
-0.11813635 0.0062842998 0.047213528
-0.08551608 0.0062842998 0.047228456
0.0084764063 0.0062842998 0.046585143
0.019768119 0.0062842998 0.042942539
0.067175187 0.0062842998 0.046666902
0.099475622 0.0062843002 0.041500628
0.15307096 0.0062843002 0.04949268
0.16015361 0.0062842998 0.049791187
0.18868418 0.0062842998 0.044837222
0.25793812 0.0062842993 0.049094886
0.28578466 0.0062842998 0.044678017
0.30893272 0.0062842998 0.046872318
0.33650097 0.0062842998 0.042135097
-0.39561379 0.018528648 0.045564808
-0.38836443 0.018287752 0.042966735
0.38205573 0.012514082 0.04524472
-0.4101038 0.0248276 0.042083289
-0.39496389 0.021156684 0.044861238
0.41127372 0.026021753 0.049704883
-0.43912098 0.040353108 0.04467053
0.44430166 0.041291334 0.041685537
-0.47049412 0.051080935 0.040518437
0.296505 -0.022651149 0.052138608
-0.30057901 -0.0067923623 0.055155132
0.30432498 -0.0052258954 0.053261641
0.31512517 -0.0046816291 0.053280201
-0.36728585 0.0080495793 0.05473721
-0.28660676 0.0062842998 0.052996065
-0.23587976 0.0062842998 0.052583322
-0.18058155 0.0062842998 0.059230924
-0.17031564 0.0062842998 0.056115456
-0.16108382 0.0062842998 0.051667161
-0.1548695 0.0062843002 0.057400189
-0.014115393 0.0062842998 0.050545022
0.097312741 0.0062842998 0.051249176
0.12077577 0.0062843002 0.050474416
0.14770164 0.0062842998 0.05582558
0.1888756 0.0062842993 0.050441995
0.20897572 0.0062843002 0.058758814
0.21679263 0.0062843002 0.052499942
0.22993574 0.0062843002 0.054623824
0.24205817 0.0062842998 0.050096616
0.25897813 0.0062842998 0.058124475
0.27891564 0.0062843002 0.0555248
0.30652177 0.0062842998 0.053287521
0.31507042 0.0062842998 0.05356859
0.3561978 0.0062842998 0.056233432
-0.38412869 0.0164463 0.055202983
0.39096323 0.016632268 0.053353306
-0.40175885 0.024110604 0.054773618
-0.4420886 0.03873226 0.056912936
-0.43599916 0.038995836 0.054136101
0.4267545 0.033178899 0.052995075
0.43696165 0.037897911 0.057475664
-0.457131 0.045271568 0.051220153
-0.44794226 0.041276988 0.057328984
0.4460707 0.042109191 0.052472617
0.45923078 0.04819335 0.059462294
-0.29624662 -0.0310835 0.064173929
-0.30057901 -0.021888003 0.067231864
-0.287233 -0.024017289 0.061852183
0.296505 -0.021235185 0.06377434
0.3168034 -0.012399601 0.066148758
-0.32712334 0.0062843002 0.061995115
-0.287233 0.0019828731 0.069355987
-0.19977766 0.0062842998 0.067154422
-0.10549508 0.0062842998 0.065264665
-0.073950216 0.0062842998 0.068250768
-0.068178542 0.0062843002 0.06367635
-0.044958379 0.0062842998 0.065667391
0.015554195 0.0062842998 0.069363602
0.079015903 0.0062842998 0.063628271
0.10654287 0.0062843002 0.062005084
0.11574741 0.0062842998 0.060198482
0.17018434 0.0062842998 0.061010581
0.18267573 0.0062842998 0.069361381
0.19263035 0.0062842998 0.065219089
0.20826264 0.0062842993 0.060642943
0.25745231 0.0062843002 0.061001822
0.28414968 0.0062842998 0.060865872
0.31631076 0.0062842998 0.064236894
0.32777497 0.0062843002 0.06446965
0.37231135 0.0080089681 0.062175449
-0.3866716 0.014641292 0.064553723
-0.42073679 0.029450215 0.066146679
-0.41898251 0.028687671 0.068808697
0.40273115 0.022072596 0.067523576
0.41788465 0.029078094 0.068095624
-0.46175429 0.047281433 0.060198031
-0.45448604 0.044121761 0.06787008
-0.44513631 0.041512538 0.065366149
0.32633072 -0.05329112 0.07443653
0.28767294 -0.047387812 0.071932599
0.29741806 -0.048363566 0.071932599
0.31021124 -0.044178948 0.077270798
0.28693295 -0.030913338 0.079539478
0.3057256 -0.039800473 0.077270798
0.27650398 -0.025108512 0.07812611
0.31100839 -0.023560254 0.071932599
0.28044453 -0.012796875 0.074488699
0.30733153 -0.013928516 0.071081549
0.32561001 -0.01754743 0.077270798
0.2838718 -0.0078169126 0.075947925
0.29162776 -0.0033783901 0.071932599
0.30184031 -0.0086716777 0.077270798
-0.36461249 0.0062842993 0.073515482
-0.32496449 0.0062842998 0.073951401
-0.31191021 0.0062842993 0.071356028
-0.24753268 0.0062842998 0.074955337
-0.21367863 0.0062842998 0.073798127
-0.14622 0.0062843002 0.07749147
-0.10842736 0.0062842998 0.070989139
-0.068184122 0.0062843002 0.076967806
-0.026954565 0.0062842998 0.074526273
0.0078075938 0.0062842998 0.078627497
0.069644451 0.0062842993 0.079648875
0.072740979 0.0062843002 0.070765108
0.12696649 0.0062843002 0.076269038
0.14519322 0.0062842998 0.075655699
0.16392434 0.0062842998 0.070566669
0.1770048 0.0062842993 0.074279591
0.21109501 0.0062842998 0.07403335
0.24811049 0.0062842998 0.073040977
0.2759285 0.0062842998 0.071845099
0.30103767 0.0022327784 0.073881358
0.32731798 0.0062842998 0.071901679
0.3604506 0.0062842998 0.072503433
-0.3918528 0.016893787 0.078591786
-0.42919999 0.033129394 0.073622018
0.42915958 0.034290753 0.0767055
0.31049058 -0.050789278 0.087946601
0.31278563 -0.04841654 0.087105662
0.2871736 -0.032742854 0.080848485
0.33838916 -0.035136223 0.085724056
0.280781 -0.020674735 0.087946601
-0.287233 -0.01565779 0.085066669
0.29001209 -0.012578706 0.087946601
-0.36096635 0.0062842993 0.084175237
-0.30233753 0.0062843002 0.082438305
-0.14658558 0.0062842998 0.088543698
-0.13602936 0.0062842998 0.083751217
-0.1135267 0.0062843002 0.089913368
-0.044567663 0.0062842998 0.086662382
0.038704377 0.0062842998 0.089488313
0.091818959 0.0062842998 0.087755114
0.16519594 0.0062842998 0.087975673
0.21619356 0.0062842998 0.081387386
0.23375967 0.0062842998 0.081029564
0.25296813 0.0062842998 0.085679635
0.30187932 0.0030775133 0.082763419
0.32501897 0.0062842998 0.082211524
0.36243519 0.0062842998 0.087941177
-0.38360476 0.013308043 0.081916414
-0.37337938 0.011773361 0.089932166
0.38285103 0.012881774 0.081255212
-0.40219361 0.024299547 0.082636565
-0.43998104 0.040726554 0.080852211
-0.27631536 -0.051040016 0.094673499
-0.26991951 -0.045243211 0.096823543
-0.32203776 -0.03156545 0.097806305
-0.30967951 -0.030220753 0.094673499
-0.32191855 -0.023011144 0.096237585
-0.27357036 -0.023342187 0.094673499
-0.30782798 -0.015735622 0.094673499
-0.29624969 -0.013816785 0.094673499
-0.287233 -0.016530195 0.090863727
-0.30484256 -0.001064177 0.094724029
-0.36518845 0.0071704723 0.093755543
-0.33941928 0.0062842993 0.093683153
-0.32332399 0.0062842998 0.09472993
-0.29178894 0.00041693886 0.094673499
-0.24931836 0.0062842998 0.091203421
-0.22996211 0.0062842993 0.092095986
-0.21418154 0.0062842998 0.094906025
-0.18729913 0.0062842993 0.099587247
-0.17886266 0.0062842993 0.091892518
-0.15945622 0.0062842998 0.095650606
0.045015268 0.0062842993 0.098738357
0.13135931 0.0062842998 0.094547473
0.14500132 0.0062842993 0.09640722
0.1940999 0.0062843002 0.097113907
0.265082 0.0062842998 0.098209344
0.2957828 0.0062842998 0.095952615
0.36873654 0.007347309 0.094477527
0.37077922 0.0073006172 0.093808055
-0.41165632 0.028413203 0.099303484
-0.40843663 0.024103407 0.093332633
-0.39651045 0.021828821 0.09965007
-0.43182281 0.03426997 0.099962763
-0.41707885 0.030770555 0.090465531
-0.27369863 -0.049483195 0.10177575
-0.29216617 -0.038665988 0.10535
-0.28609866 -0.036895487 0.10535
-0.3117764 -0.02727548 0.10682327
-0.30667156 -0.028168004 0.10535
-0.28485817 -0.025146782 0.10535
-0.29214746 -0.016494865 0.10535
-0.26681155 -0.015385963 0.10404558
-0.3573761 0.0062843002 0.10020027
-0.34164926 0.0062842993 0.10661168
-0.32366461 0.0062842998 0.10994312
-0.30546361 0.0062843002 0.10404068
-0.24022722 0.0062843002 0.10251661
-0.19793653 0.0062842998 0.10284967
-0.18871367 0.0062842993 0.10448282
-0.11481068 0.0062843002 0.10660359
-0.096303597 0.0062843002 0.10463849
-0.079643697 0.0062842998 0.10779293
0.032102738 0.0062842998 0.10632557
0.054095574 0.0062842998 0.10518367
0.062691569 0.0062842998 0.10802532
0.078747541 0.0062842998 0.10188435
0.083620973 0.0062842998 0.1088914
0.10259332 0.0062842998 0.10480119
0.12824868 0.0062842993 0.1077605
0.14358525 0.0062843002 0.10724322
0.15196891 0.0062842998 0.10052323
0.20778675 0.0062843002 0.10326909
0.24648973 0.0062842998 0.10022443
0.27844667 0.0062842998 0.10153635
0.32128042 0.0062842998 0.10752958
0.35109851 0.0062842993 0.10372335
0.36517465 0.0062842998 0.10616603
0.37136182 0.0075699608 0.1025809
-0.39140379 0.019608809 0.10832307
-0.38711828 0.014835535 0.10415019
0.39032507 0.016337262 0.10352774
-0.41193914 0.028536132 0.10476432
0.41405833 0.027309276 0.10660943
0.42010093 0.03010273 0.10094859
-0.29075667 -0.053039931 0.11335699
-0.27365205 -0.043904308 0.113357
-0.31588537 -0.03462106 0.113357
-0.27553654 -0.039858244 0.113357
-0.32228929 -0.02582827 0.11141613
-0.30084252 -0.0020464701 0.113357
-0.36902222 0.0069682975 0.11448018
-0.33780077 0.0062842993 0.11459159
-0.31237334 0.0062842998 0.11064291
-0.29684183 0.0062842993 0.113685
-0.26726374 0.0062842998 0.11595106
-0.17455652 0.0062842998 0.11670493
-0.16863254 0.0062842993 0.11588269
-0.15185049 0.0062842998 0.11623298
-0.13696708 0.0062842998 0.11433647
-0.10514684 0.0062843002 0.11481112
-0.049779564 0.0062842993 0.11274491
0.027083173 0.0062842993 0.11793432
0.068537891 0.0062842998 0.110645
0.14867344 0.0062843002 0.11477783
0.17960174 0.0062842998 0.11957994
0.23092222 0.0062842998 0.11568885
0.26248622 0.0062842998 0.11124017
-0.38665083 0.01754263 0.11308461
-0.4017553 0.023972584 0.11633854
-0.21670733 0.0062842998 0.12198129
-0.15907758 0.0087007778 0.123062
-0.079155497 0.0082790563 0.123062
0.009604916 0.0065730298 0.123062
0.072983354 0.0070231464 0.12169577
0.093111917 0.0062842998 0.12289288
0.12204924 0.0062842993 0.12222942
0.1632871 0.0087952185 0.123062
0.3768473 0.012867405 0.12178789
