# .PCD v0.7 - Point Cloud Data file format
VERSION 0.7
FIELDS x y z
SIZE 4 4 4
TYPE F F F
COUNT 1 1 1
WIDTH 917
HEIGHT 1
VIEWPOINT 0 0 0 1 0 0 0
POINTS 917
DATA ascii
0.10158347 0.044424735 -0.16310014
0.1109341 0.040448289 -0.16342278
0.13662541 0.047901243 -0.16308835
0.17339289 0.045464478 -0.16405299
0.19223812 0.04783367 -0.16321668
0.24669778 0.045556866 -0.16021037
-0.035383515 0.035255898 -0.15003069
0.0079419212 0.038407519 -0.15697947
0.034937501 0.037322603 -0.15822074
0.08249189 0.03553959 -0.15138796
0.11174113 0.035611223 -0.15173069
0.26134834 0.036196928 -0.15399039
0.011535775 0.045826547 -0.15542015
0.022646515 0.045357 -0.15828703
0.16238584 0.045894038 -0.15563668
0.19083171 0.045959748 -0.15587088
0.28749511 0.04553666 -0.15549979
0.30745783 0.044073299 -0.15158933
-0.29019389 0.039101362 -0.14067996
-0.25436708 0.035082523 -0.14801876
-0.19971474 0.039693344 -0.14639562
-0.15617746 0.034192722 -0.14487104
-0.14290237 0.038973399 -0.14512894
-0.12655017 0.035713308 -0.14567465
-0.00062695146 0.035208743 -0.14983232
0.075293288 0.03426794 -0.14556974
0.18383765 0.033489108 -0.14206511
0.24920902 0.03473819 -0.14781043
0.25818083 0.034370907 -0.14613573
0.28892541 0.034444343 -0.14648752
0.32777691 0.03396089 -0.14429842
0.34239489 0.038792118 -0.14145787
-0.27428061 0.040775463 -0.14521874
-0.20870522 0.042671442 -0.14150628
-0.16178539 0.042360291 -0.14010532
-0.049932741 0.042838149 -0.14235093
0.018511426 0.042947881 -0.1428903
0.046434462 0.043490246 -0.14538331
0.077883236 0.043318138 -0.14461163
0.19044435 0.043826528 -0.14699379
-0.314964 0.032562722 -0.13346833
-0.28504154 0.032332383 -0.13653184
-0.1416028 0.031719144 -0.13380335
-0.082902417 0.031684522 -0.13367435
-0.07639198 0.031056488 -0.13080634
0.043933123 0.032468833 -0.13732949
0.092484109 0.032428317 -0.13716882
0.13514736 0.032152876 -0.13593094
0.17312488 0.032444268 -0.13728216
0.18035847 0.032411385 -0.13713555
0.22829646 0.032181896 -0.1361112
0.27906126 0.031234184 -0.13180432
0.31977874 0.031440794 -0.13277021
0.32352594 0.032213282 -0.13630427
0.34996843 0.031515688 -0.133129
0.35512713 0.031636059 -0.13368361
-0.34338269 0.044955753 -0.13502951
-0.17329739 0.040610932 -0.13209951
-0.12643978 0.041415159 -0.13580255
-0.11670132 0.042119242 -0.13902754
-0.090835713 0.04047367 -0.13151655
0.033414643 0.042292733 -0.13990134
0.055096935 0.040816829 -0.13316105
0.087274872 0.041415546 -0.1359169
0.15638527 0.040150266 -0.13016666
0.22619063 0.041110493 -0.13459346
0.29434922 0.041979641 -0.13860206
0.32049477 0.040803637 -0.13323832
0.34286734 0.040163323 -0.1303231
-0.39498699 0.058946118 -0.13761288
-0.3817991 0.057189561 -0.1380773
-0.39452237 0.064876318 -0.13926622
-0.38207093 0.06005488 -0.13810624
-0.41693842 0.073578238 -0.13768278
-0.23680566 0.029402312 -0.12302063
-0.19764787 0.029704947 -0.12456046
-0.16583022 0.029303385 -0.12255622
-0.13550845 0.028901441 -0.12022837
-0.0019213744 0.029897124 -0.12554291
0.13543887 0.028951712 -0.12098891
0.21663645 0.029278217 -0.1226712
0.25558126 0.029161278 -0.12231337
0.31479597 0.029475087 -0.12377996
0.35931706 0.029497782 -0.12390661
-0.31551495 0.039939933 -0.12458598
-0.22541514 0.03872842 -0.12343265
-0.21061397 0.030304495 -0.12729587
-0.060058773 0.030832011 -0.12978825
-0.026247717 0.039647333 -0.12777248
0.022006622 0.039575111 -0.12746415
0.077761471 0.038240671 -0.12106235
0.085332863 0.03867029 -0.12312622
0.0989867 0.039591223 -0.12757914
0.10841076 0.038321562 -0.1215932
0.1734273 0.030438432 -0.1281113
0.25341117 0.038016509 -0.12003268
0.32692078 0.039088968 -0.1254016
0.36456391 0.03027012 -0.12744175
0.10130926 0.040071487 -0.12977622
-0.4007881 0.057743076 -0.12419967
-0.41073924 0.060785003 -0.12298509
-0.40344545 0.067808747 -0.12382353
-0.30747122 0.027389672 -0.11072212
-0.25407663 0.027337894 -0.11077302
-0.24161685 0.027352968 -0.11088327
-0.21883966 0.02883452 -0.11968981
-0.17769161 0.028729364 -0.11913756
-0.14031854 0.028033055 -0.11507933
-0.12608945 0.027997732 -0.11489434
-0.082377091 0.027324148 -0.11098184
-0.066292316 0.028388351 -0.11730899
-0.02743718 0.027932134 -0.11467443
0.070434391 0.027983919 -0.11514822
0.20140421 0.027178302 -0.11060248
0.24533699 0.028488724 -0.11843564
0.3347967 0.027571948 -0.11316088
-0.32291782 0.031017177 -0.11704365
-0.14861256 0.037313685 -0.11518896
-0.069086246 0.037163448 -0.11443564
-0.048958242 0.038067129 -0.11981627
0.024453308 0.036609609 -0.11131471
0.074600495 0.036866456 -0.11291853
0.085155524 0.037847809 -0.1187489
0.11632495 0.037202384 -0.11498038
0.16620447 0.037261751 -0.11541634
0.17520432 0.037671588 -0.11785808
0.23474565 0.037873063 -0.1191518
0.26398554 0.037847541 -0.11905019
0.28886747 0.037799709 -0.11880913
0.33452082 0.036514796 -0.11127903
0.37810802 0.038203713 -0.11973814
0.3953211 0.035024829 -0.11471801
-0.37577224 0.057267241 -0.11557627
-0.45195779 0.081447132 -0.11122431
-0.3143959 0.027177043 -0.10543585
-0.22866695 0.027120389 -0.10952874
0.084966615 0.026842853 -0.10841759
0.1954699 0.026858276 -0.10869768
0.20799831 0.026439212 -0.1062381
0.2434084 0.02540924 -0.10020088
0.27807409 0.025395095 -0.10017634
0.28859031 0.026805617 -0.10854504
0.35126877 0.026807841 -0.10866527
0.3671295 0.026071642 -0.10433385
-0.3501755 0.038434252 -0.10895494
-0.29246688 0.035870433 -0.10640122
-0.24378316 0.035408892 -0.10375076
-0.19907334 0.036119875 -0.10803476
-0.16598897 0.036349911 -0.10945595
-0.14527792 0.035887316 -0.10675251
-0.056078359 0.034955803 -0.10138936
-0.016697315 0.035766963 -0.10625733
0.014201272 0.036085058 -0.10819235
0.043649487 0.03560026 -0.10537218
0.064618036 0.035795022 -0.10656039
0.072878122 0.035083119 -0.10236017
0.14365529 0.03586508 -0.10710819
0.25553322 0.035115208 -0.1028588
0.37143844 0.036027454 -0.10833237
0.40302792 0.03980644 -0.10550824
0.41544515 0.043406337 -0.10434638
-0.45060295 0.07963071 -0.10355613
-0.32711145 0.028682332 -0.096679449
-0.097504176 0.025097499 -0.097778693
-0.018295011 0.024207814 -0.092647292
0.020524606 0.024029709 -0.091344588
0.060918055 0.024273984 -0.093172766
0.070365503 0.023860166 -0.090121657
0.10018014 0.024503727 -0.094598785
0.18561018 0.023849044 -0.090466589
0.22304764 0.024449559 -0.094485871
0.28316969 0.024733396 -0.096128523
0.36463284 0.024339039 -0.094072059
0.37434736 0.024186965 -0.09267164
0.38788998 0.026417095 -0.099013686
-0.30708385 0.034192067 -0.096305475
-0.17768654 0.033891771 -0.094880663
-0.081572503 0.033686914 -0.093833283
0.048775006 0.033912133 -0.095387921
0.10658545 0.033229314 -0.09116336
0.13172291 0.033654064 -0.093999922
0.30104113 0.033440471 -0.0930207
0.35328037 0.033846185 -0.09551096
0.40102595 0.037610706 -0.09579628
0.42131767 0.033971149 -0.092463024
-0.38803673 0.048760362 -0.097343937
-0.37590429 0.043950979 -0.092225119
-0.42067131 0.058593649 -0.091985084
-0.4514173 0.069935195 -0.099647366
-0.44516897 0.067835584 -0.099352688
-0.4245646 0.06998989 -0.097347848
-0.2422011 0.023564631 -0.086471111
-0.2089718 0.02356464 -0.086598113
-0.13187975 0.023485497 -0.086233035
-0.12565802 0.023731116 -0.088302501
0.013017178 0.022923831 -0.082104966
0.069974877 0.023403149 -0.086313561
0.16144922 0.023740694 -0.089472361
0.18098556 0.022752237 -0.081313461
0.2409986 0.023762466 -0.089955747
0.29703456 0.023701519 -0.089660853
0.30254695 0.023263615 -0.086034387
0.36056459 0.023420278 -0.087559544
-0.36352637 0.039154232 -0.086423889
-0.35139018 0.034509048 -0.08118996
-0.33223152 0.037357103 -0.080130488
-0.29605681 0.032294184 -0.081841201
-0.28937295 0.033045344 -0.088124096
-0.10244353 0.032154445 -0.081413023
-0.074266262 0.032892302 -0.087667964
-0.064412192 0.032248475 -0.082342342
-0.04996952 0.032227457 -0.082222663
0.0077208336 0.032934558 -0.088333555
0.13300677 0.033004411 -0.089390106
0.17851837 0.031919438 -0.080525488
0.22197968 0.032214504 -0.083147734
0.24888992 0.032199699 -0.083126351
0.37259111 0.032157078 -0.082931235
0.40309685 0.036526963 -0.084612995
0.43854085 0.038388401 -0.083383568
-0.34796959 0.043578763 -0.088470846
0.41500309 0.040739179 -0.089646384
0.43935964 0.048002586 -0.084096007
-0.40251902 0.051470757 -0.082783803
-0.44484752 0.065664306 -0.08528287
-0.31532156 0.022785576 -0.073086888
-0.27115086 0.021884391 -0.072357401
-0.15654558 0.021610273 -0.070511408
-0.13525935 0.021551285 -0.070101261
-0.10546691 0.022206735 -0.0756777
0.0078863502 0.022496153 -0.078523241
0.11000182 0.021693571 -0.072225451
0.13558094 0.02250319 -0.079066686
0.35149813 0.022427922 -0.079259567
0.37498611 0.022610705 -0.079926655
0.38442814 0.023202538 -0.079113632
-0.31315142 0.031840876 -0.073792852
-0.23168792 0.031009439 -0.071382388
-0.2141259 0.031027995 -0.071603462
-0.11604469 0.031750288 -0.077994071
-0.079344563 0.031204857 -0.073591053
-0.054413579 0.031930923 -0.079735331
-0.022564724 0.031919725 -0.079764262
0.093231298 0.030889794 -0.07162448
0.11460327 0.0318648 -0.079828084
0.2340631 0.031244824 -0.075116828
0.24204853 0.031024743 -0.073313959
0.25517029 0.031460878 -0.076996326
0.26713035 0.031712715 -0.079139218
0.31671584 0.031574167 -0.078172997
0.38008332 0.031607136 -0.075368538
0.44374764 0.03917896 -0.076107375
-0.39516997 0.047583327 -0.071182676
-0.35343647 0.043497272 -0.073771104
0.44429675 0.049011316 -0.079270504
-0.40376711 0.050807506 -0.074368261
-0.37353837 0.050775304 -0.079176702
-0.46196324 0.069382057 -0.070437871
-0.42075914 0.065794788 -0.075584292
-0.41701865 0.064245641 -0.073046692
-0.46306297 0.070462503 -0.076087728
-0.30474606 0.02058351 -0.06027611
-0.24253729 0.021576066 -0.069897316
-0.22181293 0.029965607 -0.062704936
-0.14388673 0.020536561 -0.061027002
-0.0030556768 0.029910604 -0.06310121
0.015036674 0.025161462 -0.061869219
0.047047593 0.02091809 -0.065521806
0.074506849 0.020670496 -0.063563451
0.10677821 0.020651231 -0.063526377
0.11529295 0.020478193 -0.062116861
0.1679845 0.020501738 -0.0625147
0.1779445 0.026715556 -0.062887736
0.20171629 0.029843364 -0.06331943
0.23739684 0.029559067 -0.061040767
0.26087475 0.020620015 -0.063855834
0.27988037 0.021240298 -0.069095634
0.31785175 0.020179627 -0.060087126
0.33866248 0.020380503 -0.062157366
0.36117485 0.029844457 -0.0639342
0.40944552 0.026371177 -0.062998049
-0.3443495 0.030673537 -0.069206879
-0.33835632 0.036963865 -0.060058847
-0.2192537 0.030297462 -0.065498345
0.080290139 0.030279692 -0.066492766
0.14452326 0.030056968 -0.064881481
0.38136876 0.03060204 -0.066098459
0.43453145 0.034559041 -0.063249089
-0.39007902 0.044752654 -0.061226167
-0.38090527 0.04191637 -0.063407116
-0.37573034 0.040495832 -0.065568671
-0.359254 0.044246208 -0.064687788
0.42442304 0.040482797 -0.063004971
-0.38838077 0.053803992 -0.06477198
-0.46428442 0.07835494 -0.067585334
-0.013738036 0.019721095 -0.050801061
-0.0019330159 0.019879522 -0.053111773
0.062417418 0.01964118 -0.050352804
0.3752839 0.019725293 -0.052489877
-0.32573915 0.023132142 -0.053675797
-0.30962226 0.020231843 -0.05323502
-0.26803648 0.029284535 -0.052813862
-0.24887295 0.029117249 -0.05064898
-0.22000968 0.020075863 -0.053942762
-0.21105328 0.020071466 -0.053959709
-0.20113677 0.029075179 -0.050476898
-0.15335418 0.029675288 -0.059255108
-0.13739532 0.029598236 -0.058320761
-0.12478562 0.026121138 -0.05299063
-0.091456376 0.029378733 -0.055660143
-0.083394706 0.029241031 -0.053813532
-0.06528268 0.029409904 -0.05633029
-0.033014767 0.024944942 -0.058907859
0.0042972174 0.020352235 -0.05975309
0.050273761 0.029578064 -0.059677109
0.079069331 0.029400431 -0.057451941
0.10298669 0.029121678 -0.053774998
0.14371413 0.028965043 -0.05194632
0.27584156 0.020123744 -0.058941435
0.32200819 0.024699394 -0.058581606
0.38912314 0.020822976 -0.050228365
-0.40617973 0.059124865 -0.058991026
-0.46405798 0.068443134 -0.053775035
-0.45264211 0.064989567 -0.05756174
-0.44949269 0.063914672 -0.057013471
-0.41386503 0.061599091 -0.058388609
-0.31040376 0.019902274 -0.047904238
-0.23047641 0.019440338 -0.04499618
0.055870559 0.019256482 -0.044935137
0.15579712 0.019198889 -0.045005556
0.20734754 0.019296013 -0.046809256
0.27643996 0.019208778 -0.04619731
0.38107607 0.019775791 -0.048315339
-0.34663397 0.029112533 -0.043064442
-0.28085172 0.028583374 -0.042933721
-0.23169437 0.028722517 -0.045297809
-0.10656072 0.02890002 -0.048859999
0.016661189 0.02863789 -0.04628446
0.12502833 0.028250398 -0.041825641
0.17244427 0.028703358 -0.048549142
0.1823518 0.028444625 -0.045029379
0.26947278 0.028070273 -0.040569954
0.30568406 0.028258709 -0.043511387
0.35161942 0.028131098 -0.04213253
0.36270678 0.028347757 -0.045248698
0.37026536 0.028362131 -0.045403395
0.38027686 0.028419582 -0.040655952
-0.36481744 0.035258956 -0.045453075
0.46133468 0.050122291 -0.043546673
-0.42466509 0.0638064 -0.040983051
-0.44814703 0.07148955 -0.040749151
-0.27609885 0.018542381 -0.03173729
-0.24873054 0.018497201 -0.0307761
-0.2224647 0.018683659 -0.034522936
-0.12869123 0.018474028 -0.032420948
-0.059244327 0.018697605 -0.036142658
-0.046852652 0.018327063 -0.030352117
0.0069794208 0.01857077 -0.034953758
0.04843276 0.018604506 -0.03578582
0.066711754 0.018522205 -0.034798719
0.26350781 0.018525999 -0.036570296
0.29374343 0.018132409 -0.031350177
0.38712567 0.01934131 -0.033429943
-0.34159485 0.026701864 -0.033174984
-0.30218777 0.027906287 -0.033315226
-0.1855686 0.027741345 -0.032026365
-0.10494784 0.027694611 -0.031620976
0.07947965 0.028082019 -0.039084323
0.16530626 0.02800313 -0.038729876
0.17144603 0.027408574 -0.030079331
0.21944845 0.027909214 -0.03789106
0.25489238 0.02752636 -0.032864109
0.3211472 0.027627679 -0.034851015
0.40578616 0.023468753 -0.039054655
0.42096579 0.028216312 -0.039419524
-0.32883012 0.03217024 -0.038290661
0.4143669 0.034912009 -0.033955455
-0.40237075 0.046989612 -0.037821189
0.45901501 0.04059197 -0.038763266
0.46308511 0.047404006 -0.034748632
-0.23885527 0.018352462 -0.025021384
-0.16958742 0.018265642 -0.02370717
-0.15623994 0.018288318 -0.02507236
-0.1463338 0.018168341 -0.020409727
-0.091698982 0.018266747 -0.026313012
-0.066334873 0.018188711 -0.023885582
0.094594665 0.018045072 -0.023213148
0.13335332 0.018151851 -0.028981868
0.14161073 0.018050166 -0.024995489
0.30336401 0.017900914 -0.024093973
-0.32955438 0.022554729 -0.027008973
-0.28212601 0.027707279 -0.027570982
-0.2751531 0.027531825 -0.020452224
-0.25817004 0.027726194 -0.02915157
-0.234676 0.027618915 -0.025439207
-0.19767484 0.027698079 -0.029969662
-0.16880825 0.027581833 -0.02605922
0.014852828 0.027477456 -0.027789144
0.072678268 0.02725164 -0.020247679
0.33286729 0.027137607 -0.024075611
0.35677987 0.027132303 -0.024643345
0.3624624 0.027212158 -0.028170774
0.38850969 0.028503072 -0.028704226
-0.37169656 0.036344733 -0.025562758
-0.35933805 0.041434325 -0.02108686
0.43321306 0.04061652 -0.023929406
0.45533681 0.047777332 -0.021432308
-0.43800202 0.057968911 -0.020521458
-0.43998724 0.068087362 -0.028290054
-0.29330534 0.018244643 -0.018730899
-0.28657925 0.018256599 -0.019454852
-0.23468712 0.017999347 -0.01039648
-0.088112116 0.018076889 -0.018505355
-0.038571611 0.01802239 -0.017861592
-0.018525153 0.017851371 -0.011363683
0.13888982 0.017742587 -0.012010443
0.22566189 0.017831309 -0.018610463
0.24812563 0.017807852 -0.018373925
0.29598123 0.017666724 -0.01405031
0.31731629 0.017563263 -0.010424027
0.34015208 0.017752688 -0.019121269
0.38564873 0.018465038 -0.010823348
-0.31068632 0.027547756 -0.011060392
-0.2285684 0.027307637 -0.012617225
-0.21745493 0.027354568 -0.014950806
-0.20704895 0.027451158 -0.019333519
-0.1846322 0.027262464 -0.012180508
-0.015882108 0.027295232 -0.01912866
0.096022427 0.027222296 -0.019794226
0.14173912 0.027038299 -0.013602721
0.17504509 0.027086101 -0.016711034
0.27189952 0.027043262 -0.018117046
0.325542 0.026980961 -0.017282333
0.36123803 0.026828207 -0.012072074
0.40679711 0.022581628 -0.010643054
0.41467962 0.02507755 -0.014199084
-0.35133353 0.038542822 -0.011004692
-0.41254056 0.049418516 -0.013069955
-0.39288151 0.043016817 -0.014932806
0.43332851 0.040449101 -0.015371284
0.45236695 0.046671078 -0.015717465
-0.44255444 0.059438519 -0.019602019
-0.39169154 0.051875003 -0.014404244
-0.44718128 0.06093438 -0.018752785
-0.31010541 0.018055875 -0.0032324078
-0.21692142 0.017855622 -0.0049634501
-0.20766906 0.017762553 -0.0013705994
-0.019223258 0.017736927 -0.0065452354
0.01884827 0.017768025 -0.0091106109
0.084795669 0.017546063 -0.0019970248
0.11232721 0.017480791 -0.00014713654
0.20253751 0.017619897 -0.0089841001
0.24856082 0.017587705 -0.0091641098
0.25057092 0.017547529 -0.0075475788
0.28351837 0.017551824 -0.0088220676
0.34454417 0.017441178 -0.0062145325
-0.34486991 0.027004171 -0.0050848359
-0.21071137 0.027046526 -0.00030281898
-0.18814924 0.027191712 -0.0091055632
-0.16902889 0.026986441 -0.0011299414
-0.042873234 0.02688751 -0.0006358446
-0.033289917 0.0269848 -0.0055640442
0.06763725 0.02700419 -0.00970791
0.087437049 0.02691716 -0.0067186891
0.18997739 0.026746908 -0.0029936985
0.28903356 0.026822776 -0.0094611337
0.35694075 0.026613571 -0.0029532767
0.41222829 0.024179459 -0.0097074322
0.42577806 0.028584184 -0.0093767643
0.42657071 0.037995346 -0.0050230273
0.44192174 0.033704903 -0.0031977342
-0.41139835 0.04879418 -0.0035727462
0.46034959 0.049061947 -0.0067932429
-0.4583351 0.064243659 -0.0054099644
-0.46502206 0.074034818 -0.0068859411
-0.29204255 0.017974582 0.0043063043
-0.28304452 0.017971143 0.0045227217
-0.13939741 0.017842058 0.0048768376
-0.059062392 0.017725537 0.0032221945
-0.027851701 0.017750436 0.0055119218
0.058537319 0.017744809 0.0087340288
0.076056257 0.017570356 0.0021444021
0.12218179 0.017642464 0.0070039448
0.22791509 0.017397637 0.0010036029
0.25413641 0.017454907 0.0044459817
0.28529698 0.01749507 0.0073862779
-0.29303905 0.027314834 0.0075902115
-0.27254087 0.027114965 6.0539576e-05
-0.21270362 0.027197268 0.0059102424
-0.19376099 0.027117241 0.0033331944
0.044490639 0.026959058 0.0062388913
0.099104598 0.026875691 0.0049440917
0.12871164 0.026734892 0.00024274728
0.1985032 0.026690641 0.0011939747
0.2043107 0.02668409 0.0011531627
0.28509194 0.026751108 0.0072007771
0.35568538 0.026608409 0.0040656179
0.3930068 0.028607275 0.0051390049
0.4081493 0.032071956 0.0056027579
-0.38798904 0.041171376 0.0023598089
-0.42149755 0.052248947 0.0055549797
-0.38890505 0.050804049 0.0052337991
-0.46505901 0.068226017 0.001217435
-0.42610243 0.062944986 0.0022648333
-0.2432612 0.018157585 0.01390664
-0.15589759 0.017986991 0.010273525
-0.12261253 0.018077506 0.015388413
-0.097213849 0.017946392 0.010925372
-0.052334383 0.018118789 0.019957587
-0.0037061744 0.017927414 0.013874508
0.076935828 0.017890578 0.015588414
0.20791806 0.017718345 0.013634198
0.27855325 0.017676245 0.014708717
0.34572923 0.017610235 0.014627177
0.37148452 0.017650362 0.016198093
0.38638872 0.018720744 0.018872486
-0.34375083 0.026933067 0.01424164
-0.28968912 0.027397921 0.011199832
-0.27416402 0.027466875 0.014704824
-0.23677184 0.027381336 0.012624221
-0.13618954 0.027306745 0.013542546
-0.089628354 0.027321182 0.016037179
-0.024549603 0.02727744 0.016802482
0.016674196 0.02719273 0.01489943
0.052353814 0.027125677 0.013526304
0.091062874 0.027145276 0.015900474
0.11873293 0.027189933 0.018879948
0.13856058 0.027113819 0.016491268
0.22448756 0.027080411 0.018543497
0.26281786 0.026861813 0.010937595
0.30275372 0.0269324 0.015494364
0.40503594 0.022280775 0.018409986
-0.3615517 0.032881491 0.018591212
-0.33854693 0.034395278 0.010406709
0.41663802 0.035093062 0.019211451
-0.37591946 0.046711005 0.012315108
0.45806527 0.04846698 0.013898964
-0.40047392 0.054937277 0.019185631
-0.39689079 0.053609446 0.012869361
-0.29846823 0.018493731 0.025763044
-0.22922368 0.018449895 0.026709326
-0.10256889 0.018248735 0.023384903
0.082777105 0.017999075 0.020370604
0.092460118 0.018041926 0.022542536
0.11308856 0.018055856 0.023941239
0.26166257 0.018042715 0.029350284
0.330975 0.017927768 0.02732382
0.37327522 0.01799383 0.029383244
-0.33922178 0.025606539 0.020924229
-0.12766838 0.027511988 0.022483729
-0.069123596 0.027581204 0.027733382
0.055078384 0.02740393 0.025278319
0.063607469 0.027394688 0.025234032
0.24210633 0.027251668 0.026416529
0.31943139 0.027175719 0.026343379
0.4168112 0.026164033 0.029545955
0.45418835 0.038232666 0.024881192
-0.40690425 0.047975712 0.02690848
-0.36984718 0.045162685 0.029541794
-0.44164509 0.059287772 0.023201745
-0.44491187 0.060327388 0.021833127
-0.43617675 0.06678956 0.024655201
-0.46292442 0.075459972 0.020037133
-0.44951114 0.071055621 0.020002984
-0.16871512 0.019039448 0.03766641
-0.095180161 0.018698961 0.034075432
-0.086122371 0.019103274 0.039848648
-0.047590811 0.018505538 0.032126568
0.17523769 0.018740227 0.038884595
0.21258079 0.018716637 0.039140772
0.25305375 0.018520627 0.037044436
0.26274103 0.018458508 0.036330935
-0.3421672 0.027088836 0.033324331
-0.3148264 0.028728787 0.032423705
-0.21575813 0.028201099 0.035544503
-0.19518724 0.027868733 0.031236682
-0.15980268 0.028419958 0.039476033
-0.076588839 0.02828354 0.038881771
-0.047333054 0.028098982 0.036771804
0.16840175 0.027446449 0.031060325
0.24661006 0.02765879 0.035244595
0.37109536 0.02766012 0.036900923
-0.34432492 0.03699984 0.032505322
-0.39466095 0.044429023 0.034623295
-0.38204938 0.049500167 0.033969074
0.45414668 0.04767419 0.031989031
-0.43092358 0.056665208 0.038981579
-0.42138281 0.053559691 0.03936433
-0.42793038 0.064691707 0.035594571
-0.29306704 0.019567467 0.043074001
-0.24313338 0.019466847 0.042454328
-0.032621071 0.019354627 0.044187389
0.058857709 0.019537555 0.048167679
0.12650138 0.019426249 0.047676574
0.17150523 0.019116662 0.04406926
-0.32276046 0.021936737 0.046042096
-0.25054124 0.028646084 0.041198827
-0.24154429 0.028768662 0.04304675
-0.011570596 0.028741054 0.046268523
0.0016905069 0.028638318 0.045045678
0.040618405 0.028694751 0.04644236
0.078225434 0.028493501 0.044229358
0.10757419 0.028538987 0.045323268
0.15470165 0.028603837 0.046965815
0.21896696 0.028152071 0.041681595
0.24577814 0.028346349 0.044808067
0.25006682 0.028590472 0.048275549
0.3192873 0.028355736 0.046091806
0.33762631 0.028069505 0.042392723
0.37943926 0.028285395 0.040809404
0.39311126 0.020992972 0.044766042
0.40483662 0.023702763 0.046748608
0.4052619 0.033101086 0.046833444
0.46091649 0.05067832 0.042381931
-0.46450812 0.068357468 0.047853962
-0.41813034 0.061994124 0.042599462
0.07142815 0.019876013 0.053078786
0.23556836 0.019684667 0.052983712
0.24043182 0.019978279 0.057149444
0.26652077 0.019534322 0.051374335
0.27098978 0.019914621 0.056741279
0.30772564 0.019740326 0.054888863
0.32375523 0.01953768 0.052317351
-0.29117805 0.029565003 0.053362336
-0.26851895 0.029882919 0.058144566
-0.20136365 0.020677248 0.059967674
-0.17552954 0.020507013 0.058001034
-0.15988365 0.029313046 0.051906984
-0.12960599 0.02980997 0.059311811
-0.10304092 0.029512322 0.055581193
-0.026934221 0.020303052 0.057486787
-0.0041329949 0.020154554 0.055775408
0.0054956973 0.020019293 0.054042134
0.020841924 0.029257141 0.053964954
0.044970192 0.020014323 0.05459103
0.057438731 0.029116726 0.052583374
0.079088546 0.029531118 0.058694538
0.098822504 0.020319622 0.059686646
0.20153579 0.029162617 0.055483092
0.21919543 0.029464681 0.059967156
0.34771383 0.02870358 0.051382512
0.35401201 0.028943401 0.054821614
0.36157346 0.029241335 0.059089933
0.38389689 0.020597721 0.05712634
-0.36094075 0.034907658 0.05551808
-0.43645763 0.059560373 0.053457677
-0.43921649 0.06056973 0.054843105
-0.41711062 0.062799111 0.057909157
-0.32033035 0.023069428 0.065356791
-0.23580807 0.021720594 0.068370134
-0.17379533 0.021625523 0.068246722
-0.1151787 0.020875994 0.062634639
-0.089799464 0.020848824 0.062681481
-0.077400409 0.021566629 0.06879428
0.13418654 0.02960203 0.060546562
0.26368222 0.029470004 0.060739204
0.28308097 0.029629346 0.062699422
0.29135215 0.020555077 0.064336702
0.32347032 0.029606059 0.062940851
0.33715001 0.029766319 0.064422883
0.38118875 0.020608656 0.060768522
-0.2737945 0.030983698 0.067980967
-0.2571654 0.031183053 0.069820575
-0.24396932 0.03085256 0.067209102
-0.22154111 0.030263068 0.06253916
-0.11272032 0.030670471 0.067109905
-0.053825352 0.030231066 0.064087696
-0.036146209 0.030068317 0.062923945
0.020267725 0.030813351 0.069728509
0.16856112 0.030215692 0.06634783
0.19664794 0.030460158 0.068686396
0.40799543 0.035592131 0.06685926
0.44770187 0.039473154 0.068895593
0.43473664 0.044152651 0.066120908
-0.37853706 0.051185224 0.067018703
-0.41660306 0.063845031 0.068209961
-0.44521338 0.07336814 0.06916815
-0.31484175 0.023418281 0.076156758
-0.29991314 0.022967923 0.078065954
-0.16164353 0.022571879 0.076258063
-0.15775804 0.022858329 0.078685254
-0.10262137 0.021791687 0.070397377
-0.0063620023 0.022735162 0.07929109
0.038624309 0.022164091 0.075019933
0.087482989 0.022646874 0.079567209
0.10970886 0.022463083 0.078275606
0.1288261 0.021886833 0.073681153
0.18463105 0.022255858 0.077355787
0.20575194 0.022400199 0.078785449
0.23960112 0.021475799 0.071449436
0.2452976 0.022092655 0.076649219
0.28225762 0.021544337 0.072479457
0.32865843 0.022299923 0.079272941
0.35008326 0.021296544 0.071145296
0.37512723 0.022054771 0.076292828
0.38375494 0.022222951 0.072699487
-0.33951932 0.03038791 0.077311657
-0.24755153 0.031585958 0.073280543
-0.23575863 0.032138504 0.078010455
0.01447705 0.030920168 0.070556119
0.040403489 0.031166755 0.072889142
0.069233812 0.031023858 0.072008684
0.17033191 0.031092498 0.073668607
0.2685841 0.031191165 0.075549319
0.32342529 0.031297695 0.077027604
0.38658971 0.032634705 0.079449713
0.39741844 0.033501189 0.071534276
-0.44995347 0.066478953 0.075677618
-0.33108449 0.028177559 0.081798077
-0.19371071 0.023966089 0.087522238
-0.085352674 0.02389309 0.088082045
-0.059836455 0.022942306 0.080439754
0.080272809 0.023075823 0.083061382
0.22652693 0.022929952 0.083421946
0.27713242 0.023322742 0.087238565
0.32142964 0.022622259 0.081880227
-0.18656981 0.032879379 0.084711529
-0.16348736 0.033365704 0.089011319
-0.11418024 0.032363761 0.081195042
-0.07475251 0.032617446 0.083732866
-0.067728072 0.032989465 0.08690846
0.085706279 0.03265233 0.085752256
0.10515987 0.032709233 0.086435497
0.13136259 0.032254137 0.082925893
0.37759155 0.032070398 0.081781521
0.38645208 0.033340357 0.085230768
0.40301126 0.036331464 0.08367984
0.41705543 0.03090369 0.080012627
0.42434871 0.033878446 0.084707566
-0.38093758 0.045135088 0.086373568
-0.36860609 0.04066015 0.083002776
-0.34493488 0.041861974 0.080755554
-0.38991493 0.056672085 0.080973335
-0.37713954 0.052717309 0.082920685
-0.45011923 0.067639254 0.084510647
-0.28639406 0.024610491 0.091458954
-0.2751025 0.024776801 0.092541203
-0.23380063 0.025463531 0.096963905
-0.19384903 0.025482383 0.097421683
-0.14300877 0.02528359 0.096685573
-0.0051792338 0.024981994 0.096094921
0.047985271 0.024550628 0.09400247
0.055104516 0.024595022 0.094326928
0.11049187 0.02501417 0.097287819
0.12635785 0.025306895 0.099157937
0.1933088 0.024009287 0.092052557
0.27915108 0.02440769 0.095159777
0.2895714 0.02397598 0.092694841
0.35117516 0.024883261 0.09859883
-0.35636169 0.037905425 0.092271335
-0.33823127 0.032934088 0.097879067
-0.29380044 0.035253342 0.099582404
-0.22242019 0.034494162 0.095706657
-0.2158497 0.03422391 0.094163999
-0.13783474 0.03357577 0.091003343
0.048614606 0.034230139 0.09649156
0.075825512 0.034639318 0.099148981
0.12002623 0.033264831 0.091223866
0.19212005 0.03388489 0.09568885
0.27580971 0.034197092 0.098260611
0.36868912 0.033838779 0.09694279
0.37227538 0.033824731 0.096644044
0.42309666 0.034997489 0.095591292
-0.35846809 0.047525514 0.090371303
-0.33397049 0.041157939 0.099926338
0.41148314 0.041086417 0.099020556
0.43777612 0.043910958 0.090337627
-0.39558256 0.050853007 0.092556402
-0.38485852 0.057494875 0.097679913
-0.42681 0.062161878 0.098442771
-0.4127422 0.066846371 0.098713838
-0.45931542 0.076390222 0.095128663
-0.28514642 0.026730241 0.10401681
-0.21199228 0.026469987 0.1031102
-0.17235379 0.027394151 0.10892392
-0.1597472 0.026171019 0.10179328
-0.14872134 0.027221153 0.10810469
0.096872352 0.027159933 0.10987039
0.15622836 0.026185116 0.10461492
0.20377409 0.026107255 0.10456613
0.22283363 0.026110029 0.10474771
0.23410138 0.026421968 0.10669169
0.2593542 0.025550961 0.10175514
0.26663595 0.025770187 0.10311583
0.30118865 0.026680389 0.10880268
0.35647625 0.026226291 0.10659406
0.39988258 0.028814483 0.10074668
0.40420958 0.029961789 0.1009318
-0.30464649 0.03601367 0.10386238
-0.15024741 0.036634304 0.10899945
-0.13223568 0.036151249 0.1062961
-0.071141787 0.035593569 0.10352442
-0.0036897305 0.03504695 0.10087349
0.0030046841 0.035788327 0.10531951
0.072614051 0.035317503 0.10313524
0.22978799 0.035564806 0.10595871
0.2328454 0.035627794 0.106358
0.25565052 0.035075027 0.10328317
-0.35227838 0.048062757 0.10493229
-0.40949395 0.058143772 0.10793231
-0.44525197 0.078070588 0.1017359
-0.26276344 0.028269049 0.11331914
-0.24388787 0.028768949 0.11644168
-0.2041802 0.028940532 0.11780135
-0.19320978 0.028624743 0.11602722
-0.1381267 0.028245011 0.11425683
-0.05319741 0.027522042 0.11071341
0.030309819 0.027497794 0.11129346
0.062131897 0.028608698 0.11814476
0.18472198 0.027380848 0.1119393
0.19411628 0.02711793 0.11046453
0.32585365 0.027310364 0.11274521
-0.29000333 0.037458327 0.11266556
-0.25644547 0.038163271 0.11712809
-0.23974173 0.038281325 0.11797129
-0.063644975 0.037626803 0.11562391
-0.046562985 0.037672184 0.11604041
0.21704812 0.036289264 0.1101369
0.29223537 0.036740717 0.11345942
0.37749738 0.037285425 0.11573603
0.39669964 0.031047985 0.11609846
-0.33674747 0.044131022 0.11158619
-0.37553465 0.057486411 0.11498503
-0.45241213 0.080441266 0.1101227
-0.2684218 0.029914152 0.12249425
-0.18981066 0.029788723 0.12250916
-0.086102687 0.029252898 0.12067342
0.13004382 0.028894663 0.12042589
0.19084108 0.028903926 0.12100754
-0.30319139 0.039122049 0.12199555
-0.27310765 0.039433353 0.12364282
-0.26112849 0.030873936 0.12693679
-0.20950803 0.031049136 0.12812412
-0.080927908 0.039459504 0.1252028
-0.039722644 0.030606739 0.12737229
0.0067684082 0.039527029 0.12616767
0.071597144 0.030121459 0.12598683
0.11496434 0.039996665 0.12912394
0.13886127 0.030199822 0.1268485
0.19652821 0.039582089 0.12783748
0.2154485 0.039115846 0.12584765
0.23160508 0.03951994 0.12781577
0.25491798 0.03034729 0.12839155
-0.2701388 0.040417328 0.12816393
-0.20835896 0.04037229 0.12842137
-0.39807683 0.057931863 0.12622681
-0.39288741 0.066022284 0.12856083
-0.40968999 0.071724497 0.12931755
-0.28627503 0.036415875 0.13893136
-0.25983346 0.032692846 0.13526556
-0.23156567 0.032382376 0.13405441
-0.16155589 0.032556903 0.13537867
-0.14828715 0.032998465 0.13749723
-0.11467946 0.033218794 0.13875595
-0.10684449 0.031568225 0.13126768
0.0085369945 0.03210685 0.13459431
0.051292092 0.032349076 0.13602072
0.10967782 0.032223843 0.13588536
0.15863705 0.031114707 0.13118039
0.16938707 0.032330837 0.13681979
0.22069126 0.030974617 0.1310046
0.27189311 0.030958455 0.13131267
0.2949515 0.031102998 0.13214645
0.33169627 0.039834842 0.13000505
-0.13502961 0.041186854 0.13269624
-0.083729103 0.042233471 0.13786434
0.04395166 0.040721111 0.13190408
0.05640924 0.042274378 0.13910082
0.066853188 0.040909167 0.13293476
0.095107287 0.042047709 0.13835295
0.19833864 0.041075896 0.13468094
0.21137239 0.041320931 0.13589901
0.26837692 0.040288381 0.13160408
0.32806382 0.040117089 0.13126853
0.35752544 0.040049415 0.13670512
-0.39731801 0.059090454 0.13237055
-0.37577602 0.05170181 0.13105892
-0.40531495 0.061464395 0.13125096
-0.26945135 0.034371413 0.14286794
-0.2419771 0.034943081 0.14568767
-0.22492033 0.037989467 0.14581236
-0.21435799 0.038060371 0.14492795
-0.17837279 0.038288791 0.1428201
-0.10698643 0.038955275 0.14555815
-0.051384676 0.035053812 0.14761911
0.10237931 0.034855284 0.14786015
0.1474437 0.0341211 0.14484091
0.28228003 0.033410061 0.14260049
0.32651311 0.038310774 0.14746177
-0.26748797 0.040421184 0.14405814
-0.19253986 0.04344647 0.14259736
-0.11408608 0.042876065 0.14497358
-0.07672295 0.043753114 0.14486504
-0.051544879 0.044363461 0.14784285
-0.043294717 0.04406666 0.14654587
0.097838886 0.043404885 0.14457852
0.21112108 0.043489113 0.14581186
0.25380102 0.043804642 0.14757484
0.34092826 0.04252293 0.14236216
0.00060691487 0.038746614 0.15530887
0.063368626 0.036926594 0.15606731
0.11909825 0.036019657 0.15307924
0.23827565 0.035889514 0.15339835
0.30028424 0.039041735 0.15390527
0.0093502756 0.044800237 0.1502963
0.020622818 0.046433743 0.15669268
0.17015624 0.04461953 0.15067409
0.20815864 0.045686863 0.15518419
0.26047862 0.04572019 0.15566182
0.28143799 0.044496194 0.15093955
0.29013032 0.045679923 0.15578713
0.069580965 0.0455628 0.16104653
0.1063541 0.04367099 0.16294405
0.14295809 0.041334778 0.16402547
0.16432737 0.043225966 0.16420467
0.1840508 0.045404412 0.16397074
0.24473675 0.044966832 0.16088563
