# .PCD v0.7 - Point Cloud Data file format
VERSION 0.7
FIELDS x y z
SIZE 4 4 4
TYPE F F F
COUNT 1 1 1
WIDTH 881
HEIGHT 1
VIEWPOINT 0 0 0 1 0 0 0
POINTS 881
DATA ascii
-0.22740678 0.016159292 -0.14301753
-0.2196648 0.0152645 -0.14301962
-0.12308656 0.0152645 -0.1424768
-0.082749754 0.0152645 -0.14245319
-0.042512096 0.017418604 -0.14299574
0.15688041 0.016390577 -0.14301352
0.162738 0.0152645 -0.14106342
0.24602258 0.015469883 -0.1422841
0.30539361 0.016099265 -0.14302146
0.33079201 0.018942611 -0.14302766
0.34552628 0.017420854 -0.14303115
0.36525214 0.017279383 -0.14096791
-0.12191647 0.021297894 -0.14292881
-0.087695003 0.025057601 -0.14195909
-0.036212839 0.022689544 -0.14293984
-0.0051391125 0.023006376 -0.14294729
0.014893144 0.025057601 -0.14096484
0.026448436 0.02293936 -0.14295486
0.23027551 0.024524771 -0.14300381
0.33580059 0.024801677 -0.14225206
0.34395972 0.02064045 -0.14303091
-0.36586428 0.018310415 -0.13089973
-0.2624222 0.0152645 -0.13694587
-0.21964537 0.0152645 -0.13389616
-0.13266344 0.0152645 -0.13222347
-0.07143303 0.0152645 -0.1320675
-0.029582605 0.0152645 -0.13472554
0.034991495 0.0152645 -0.13397449
0.066171855 0.0152645 -0.13124925
0.13702932 0.0152645 -0.13277826
0.15480675 0.0152645 -0.13057692
0.20862797 0.0152645 -0.13036224
0.25849468 0.0152645 -0.13285188
-0.39771324 0.026844025 -0.13126303
-0.377276 0.021368233 -0.13311598
-0.31551644 0.025057601 -0.1308682
-0.30576375 0.025057603 -0.13314293
-0.26258269 0.025057601 -0.13905351
-0.22932887 0.025057601 -0.13025878
-0.18447345 0.025057603 -0.13423082
-0.17914933 0.025057601 -0.13375521
-0.15319669 0.025057601 -0.13401382
-0.11407111 0.025057603 -0.13005221
-0.073854789 0.025057601 -0.13587877
-0.033012792 0.025057601 -0.13582206
-0.013133794 0.025057603 -0.13915078
0.12278347 0.025057599 -0.13318393
0.21375129 0.025057601 -0.13320886
0.26360679 0.025057601 -0.13555364
0.31253237 0.025057601 -0.13063169
0.36109176 0.026498904 -0.13642816
0.39675686 0.023102378 -0.13368453
0.39762938 0.032810263 -0.13246705
-0.35694396 0.016115768 -0.12308884
-0.3133322 0.0152645 -0.12839605
-0.30024019 0.0152645 -0.12060083
-0.13517101 0.0152645 -0.12178542
-0.12688836 0.0152645 -0.12782276
-0.049550578 0.0152645 -0.12898509
-0.011982493 0.0152645 -0.12933156
0.016375035 0.0152645 -0.12036628
0.037483357 0.0152645 -0.12123836
0.051815882 0.0152645 -0.12438618
0.070317104 0.0152645 -0.12068897
0.099377207 0.0152645 -0.12475938
0.1716198 0.0152645 -0.12867382
0.20428561 0.0152645 -0.12630147
0.21572357 0.0152645 -0.12684172
0.28203756 0.0152645 -0.12577468
0.29853344 0.0152645 -0.12507616
0.31125897 0.0152645 -0.12793986
-0.30335301 0.025057601 -0.12252886
-0.29179242 0.025057601 -0.12816666
-0.24973215 0.025057601 -0.12525579
-0.21708447 0.025057601 -0.12012748
-0.20828094 0.025057601 -0.12067334
-0.18661365 0.025057603 -0.12263837
-0.17526007 0.025057601 -0.12630281
-0.15075132 0.025057601 -0.12151905
-0.12732735 0.025057601 -0.12890618
-0.028719097 0.025057599 -0.12543948
0.025797635 0.025057603 -0.12163489
0.082014009 0.025057599 -0.12956583
0.14467585 0.025057601 -0.12210818
0.21741708 0.025057603 -0.12044949
0.36594051 0.027336475 -0.12625334
-0.41208258 0.030694101 -0.12841073
0.4003526 0.033280656 -0.12435843
0.41803697 0.034617987 -0.12527759
0.42671949 0.033296932 -0.12112661
-0.42216742 0.042611383 -0.12473916
-0.36051765 0.016877759 -0.11612877
-0.35586935 0.015632231 -0.11230928
-0.34486476 0.0152645 -0.11355943
-0.22956888 0.0152645 -0.11561628
-0.21607229 0.0152645 -0.11821719
-0.15076676 0.0152645 -0.11889514
-0.13258946 0.0152645 -0.11296956
-0.082835622 0.0152645 -0.11371587
0.0050001182 0.0152645 -0.11743085
0.06019558 0.0152645 -0.11947
0.1923696 0.0152645 -0.11860543
0.22331367 0.0152645 -0.11344185
0.28915653 0.0152645 -0.11252888
0.33181164 0.0152645 -0.11742327
-0.39776826 0.026858689 -0.11048327
-0.37042311 0.02967025 -0.11834277
-0.35025817 0.025057601 -0.1198337
-0.3449823 0.025057601 -0.11798322
-0.29606065 0.025057601 -0.11415799
-0.28415999 0.025057601 -0.11222041
-0.25076622 0.025057601 -0.11879314
-0.069800027 0.025057603 -0.11492374
-0.033297911 0.025057601 -0.11745764
-0.0053078532 0.025057601 -0.1163948
0.072999157 0.025057599 -0.11732027
0.10775533 0.025057603 -0.11452602
0.13435631 0.025057599 -0.11304007
0.14977233 0.025057601 -0.11212882
0.15652949 0.025057599 -0.1156863
0.19620994 0.025057601 -0.1104221
0.21966487 0.025057601 -0.11152644
0.23884156 0.025057601 -0.11424536
0.26827145 0.025057601 -0.11865206
0.34720016 0.025057603 -0.11839029
0.39483041 0.022388335 -0.11127569
0.41790658 0.026374206 -0.11480458
0.42686221 0.027921198 -0.1109537
-0.44004318 0.038186379 -0.11179744
-0.41619915 0.031797148 -0.11728027
-0.38350403 0.033175178 -0.11601079
0.40527308 0.03413057 -0.11335999
-0.4350251 0.04328765 -0.11584769
-0.2609427 0.0152645 -0.10365941
-0.20823492 0.0152645 -0.10215615
-0.19655421 0.0152645 -0.10817269
-0.14199312 0.0152645 -0.10499643
-0.095035747 0.0152645 -0.10466576
-0.07906618 0.0152645 -0.10762885
-0.052912019 0.0152645 -0.10320231
-0.042748474 0.0152645 -0.10400949
0.017130893 0.0152645 -0.107561
0.11107069 0.0152645 -0.10161814
0.18252124 0.015264499 -0.10025005
0.21748336 0.0152645 -0.10321457
0.24401085 0.0152645 -0.10376968
0.30915806 0.0152645 -0.10665666
0.31874463 0.0152645 -0.10667343
-0.37792376 0.021541784 -0.10120134
-0.32737455 0.025057601 -0.10263628
-0.31024081 0.025057601 -0.10493265
-0.2636936 0.025057603 -0.10260449
-0.15899488 0.025057601 -0.10328047
-0.11705402 0.025057599 -0.10413859
-0.095696911 0.025057601 -0.10645241
-0.074781895 0.025057603 -0.10002676
-0.050168514 0.025057601 -0.10219934
0.055093538 0.025057601 -0.10533673
0.09236443 0.025057601 -0.10485605
0.12107413 0.025057601 -0.1078576
0.13578939 0.025057599 -0.10156487
0.14339706 0.025057601 -0.10429531
0.19738173 0.025057601 -0.10478106
0.20998569 0.025057599 -0.10876952
0.22858161 0.025057603 -0.10756463
0.23507722 0.025057601 -0.10530919
0.25337684 0.025057599 -0.10449212
0.30784252 0.025057603 -0.10807887
0.33979979 0.025057601 -0.10192185
0.36368003 0.026945999 -0.10402802
0.37085199 0.028184891 -0.10286239
0.41256607 0.025451727 -0.10339285
-0.40697208 0.039463528 -0.10067382
-0.3996169 0.037492506 -0.10037612
-0.37939754 0.032074872 -0.1094877
0.4046689 0.034026213 -0.10357599
0.42119819 0.036881484 -0.10843072
0.44066963 0.030306363 -0.10205866
-0.44268572 0.046212532 -0.10733944
-0.43179616 0.046115406 -0.10852157
-0.3611477 0.017046589 -0.098272763
-0.26341888 0.0152645 -0.09490025
-0.25627387 0.0152645 -0.097750574
-0.18548836 0.0152645 -0.095869772
-0.1534518 0.0152645 -0.096281357
-0.10566179 0.0152645 -0.094711795
0.0262587 0.0152645 -0.094040155
0.034594536 0.0152645 -0.096465603
0.053005956 0.0152645 -0.094963729
0.073341295 0.0152645 -0.094267011
0.10002885 0.0152645 -0.096833721
0.12372849 0.0152645 -0.094846912
0.13919537 0.0152645 -0.092519701
-0.25860679 0.025057601 -0.098054267
-0.19435735 0.025057601 -0.093717717
-0.13600114 0.025057601 -0.092919216
-0.12159901 0.025057601 -0.096452862
-0.069287814 0.025057601 -0.096916027
-0.055914879 0.025057601 -0.099984951
0.0030057505 0.025057601 -0.091801018
0.022424519 0.025057599 -0.092038646
0.1199035 0.025057601 -0.095844023
0.12232313 0.025057601 -0.091769412
0.13452736 0.025057603 -0.094755888
0.19556943 0.025057601 -0.091379926
0.21305588 0.025057601 -0.093971729
0.35212111 0.025057601 -0.098874032
0.3741101 0.028747685 -0.097505912
-0.38703018 0.034119979 -0.093554795
0.42466795 0.037480779 -0.097984314
-0.45087093 0.048522696 -0.099346876
-0.43011448 0.04566469 -0.091288626
-0.32042316 0.0152645 -0.087191932
-0.31856453 0.0152645 -0.088226363
-0.26569942 0.0152645 -0.083921008
-0.25421906 0.0152645 -0.080444396
-0.19422075 0.0152645 -0.08343903
-0.16774262 0.0152645 -0.085203409
-0.11388423 0.0152645 -0.084215373
-0.036974706 0.0152645 -0.086535908
-0.015058689 0.0152645 -0.083966561
0.034868017 0.0152645 -0.086761117
0.14655098 0.0152645 -0.082737178
0.15043613 0.0152645 -0.085318714
0.1686797 0.0152645 -0.08469101
0.18951863 0.0152645 -0.084416382
0.2157001 0.0152645 -0.082270265
0.25415099 0.0152645 -0.087250277
0.26701996 0.0152645 -0.086129755
0.29686707 0.0152645 -0.086025797
0.37435859 0.018852413 -0.086273879
-0.39223966 0.025377339 -0.084716894
-0.37449443 0.020622894 -0.080717757
-0.35766408 0.02621253 -0.08265651
-0.32221594 0.025057599 -0.085215271
-0.31684983 0.025057601 -0.089713611
-0.27713591 0.025057603 -0.081282265
-0.18991211 0.025057601 -0.080250561
-0.17814176 0.025057603 -0.089148708
-0.13508517 0.025057603 -0.080018237
-0.11661672 0.025057603 -0.088039793
-0.09507753 0.025057599 -0.082939453
-0.077388808 0.025057603 -0.084941782
0.013423413 0.025057601 -0.080662869
0.17365757 0.025057601 -0.08318039
0.19262373 0.025057603 -0.081046224
0.33585876 0.025057601 -0.082305603
-0.3978141 0.037009455 -0.081566535
-0.37877253 0.031907402 -0.080753393
0.41732389 0.036212258 -0.089897871
0.43324101 0.038961429 -0.089250036
0.4405846 0.03029177 -0.084843315
0.46271348 0.034114152 -0.082581006
-0.4604913 0.046227969 -0.087117821
-0.44477332 0.044523213 -0.084228911
-0.43957612 0.048199687 -0.087894306
-0.41760111 0.042311948 -0.087983221
-0.45064285 0.051165186 -0.08367902
-0.33204669 0.0152645 -0.070939094
-0.31781301 0.0152645 -0.070395358
-0.25243664 0.0152645 -0.074226364
-0.1485393 0.0152645 -0.070705399
-0.01408077 0.0152645 -0.070122436
0.096516445 0.0152645 -0.079661459
0.13734572 0.0152645 -0.076989099
0.16763528 0.0152645 -0.073899716
0.20650202 0.0152645 -0.078873582
0.21791761 0.0152645 -0.073063545
0.22694121 0.0152645 -0.071244493
0.25698185 0.0152645 -0.074386247
0.3449648 0.0152645 -0.073741972
-0.31047794 0.025057599 -0.079494111
-0.27079219 0.025057601 -0.072299659
-0.24219328 0.025057601 -0.073970653
-0.18821862 0.025057601 -0.077445358
-0.17943515 0.025057601 -0.072642311
-0.11040837 0.025057601 -0.079023115
-0.10857421 0.025057601 -0.072721235
-0.059731789 0.025057603 -0.074088655
-0.026035115 0.025057603 -0.071888804
-0.014075628 0.025057601 -0.074826621
0.0067459941 0.025057601 -0.07886672
0.010131158 0.025057601 -0.07783065
0.027046561 0.025057601 -0.075286247
0.04130644 0.025057599 -0.074360646
0.18663885 0.025057601 -0.076421738
0.32438645 0.025057601 -0.072317638
0.35646135 0.025699042 -0.071183659
0.38597089 0.020858034 -0.07526049
0.38325679 0.030327674 -0.073314816
0.39277869 0.031972397 -0.078979336
-0.46518987 0.044924676 -0.074472539
-0.45982233 0.043486662 -0.079015523
-0.28422096 0.0152645 -0.065619424
-0.26277179 0.0152645 -0.060589105
-0.18137778 0.0152645 -0.065619424
-0.14760101 0.0152645 -0.068296082
0.01428365 0.0152645 -0.062209085
0.027188025 0.0152645 -0.062727414
0.036922708 0.0152645 -0.062546298
0.072285652 0.0152645 -0.06022324
0.10001209 0.0152645 -0.062193174
0.23330192 0.0152645 -0.063949749
0.24242344 0.0152645 -0.064443193
0.29728031 0.0152645 -0.066738404
0.30228019 0.0152645 -0.068458788
0.31116369 0.0152645 -0.060842045
0.35358801 0.015370876 -0.066600993
-0.29732001 0.025057599 -0.061609242
-0.27698413 0.025057603 -0.065971024
-0.16655618 0.025057601 -0.06657628
-0.14373082 0.025057601 -0.065480746
-0.13735282 0.025057601 -0.067890257
-0.12826359 0.025057601 -0.068535194
-0.10959736 0.025057603 -0.067631751
-0.07564424 0.025057603 -0.066156715
0.0070351586 0.025057601 -0.065608226
0.15938549 0.025057599 -0.062551387
0.1853991 0.025057601 -0.061211813
0.34647772 0.025057601 -0.066469193
0.36247709 0.026738204 -0.063389912
0.39058352 0.021654667 -0.065474108
-0.44378579 0.039189562 -0.067257404
0.42581236 0.037678272 -0.062370494
0.44761494 0.031506136 -0.061769996
-0.47172624 0.048975188 -0.060092945
-0.34650648 0.0152645 -0.058393482
-0.33539772 0.0152645 -0.050768383
-0.27073231 0.015264499 -0.052374806
-0.22901176 0.0152645 -0.058073357
-0.18484607 0.0152645 -0.059054881
-0.13514771 0.015264501 -0.053138778
-0.1090519 0.0152645 -0.057396628
-0.087866381 0.0152645 -0.058452614
0.10408109 0.0152645 -0.056602061
0.14644034 0.0152645 -0.056743771
0.17991933 0.0152645 -0.05731333
0.23475075 0.0152645 -0.058823936
0.33519232 0.0152645 -0.055212282
0.35629821 0.015732661 -0.05971358
0.36403814 0.017069675 -0.058433115
-0.34547132 0.025057601 -0.058368362
-0.20579195 0.025057601 -0.053660378
-0.15169398 0.025057601 -0.053145349
-0.13013637 0.025057603 -0.059813585
-0.11396427 0.025057599 -0.058508564
-0.084514469 0.025057601 -0.055746999
-0.074882597 0.025057601 -0.051864743
-0.069973826 0.025057601 -0.054724306
-0.040389158 0.025057601 -0.050941318
-0.018339142 0.025057601 -0.058840707
-0.0071728714 0.025057601 -0.053925492
0.18703324 0.025057603 -0.056352094
0.22414748 0.025057603 -0.056516044
0.29204217 0.025057601 -0.05029935
0.3012825 0.025057603 -0.05646646
0.32564223 0.025057601 -0.05888829
0.33648887 0.025057601 -0.058167201
0.35440481 0.025343793 -0.051672522
0.3645598 0.02709797 -0.058592457
0.42827603 0.028165724 -0.050558597
-0.44468611 0.039430842 -0.054597031
-0.4120557 0.030687153 -0.057110127
-0.37188727 0.030062556 -0.051218063
0.38553888 0.030721862 -0.051428989
0.41480502 0.035777085 -0.05278803
0.42162693 0.036955331 -0.053005345
-0.45960212 0.043427285 -0.058190346
-0.44099119 0.048579067 -0.050208665
-0.42211926 0.043522246 -0.055003606
-0.41699857 0.042150304 -0.057819605
0.47085088 0.044822022 -0.05801826
-0.33507231 0.0152645 -0.043608494
-0.28306001 0.0152645 -0.042643242
-0.15508701 0.0152645 -0.042848088
-0.13067418 0.0152645 -0.041221131
-0.062673062 0.0152645 -0.045829147
-0.051218167 0.0152645 -0.045781467
-0.022332177 0.0152645 -0.040427957
-0.016247436 0.0152645 -0.042918362
0.0075803539 0.0152645 -0.04238753
0.013983697 0.0152645 -0.046501681
0.058939315 0.0152645 -0.041840576
0.10223025 0.0152645 -0.041036353
0.11043603 0.0152645 -0.043413129
0.20311484 0.0152645 -0.041964781
0.3551957 0.015542213 -0.045995373
-0.32145348 0.025057601 -0.040268116
-0.30034661 0.025057603 -0.045533556
-0.24075122 0.025057601 -0.048807498
-0.22155914 0.025057601 -0.043369565
-0.14800811 0.025057601 -0.045073137
-0.13706024 0.025057601 -0.045983057
-0.12058639 0.025057601 -0.043502055
-0.099585034 0.025057601 -0.048667684
-0.065078437 0.025057601 -0.048715495
0.04519086 0.025057603 -0.047298662
0.17571667 0.025057601 -0.040734649
0.18316665 0.025057601 -0.044771191
0.22705588 0.025057599 -0.042403214
0.26290101 0.025057599 -0.041821852
0.28722301 0.025057601 -0.045349967
0.31546605 0.025057601 -0.048157081
0.33233058 0.025057601 -0.045189779
0.37018687 0.028069995 -0.042616233
-0.44274947 0.03891176 -0.043441776
-0.40337324 0.03849937 -0.041435726
-0.38816279 0.034423467 -0.041114606
-0.37172979 0.030020365 -0.044298571
0.38848853 0.031231351 -0.049157336
0.40695313 0.034420855 -0.049785204
0.47333491 0.035962075 -0.044343367
-0.43717661 0.047556929 -0.04555152
-0.45150411 0.051395882 -0.049286094
-0.31906563 0.0152645 -0.035610318
-0.29540634 0.0152645 -0.03468401
-0.19725937 0.0152645 -0.036965728
-0.17967364 0.0152645 -0.035024527
-0.032150999 0.0152645 -0.031442877
0.070567161 0.0152645 -0.0318157
0.082988136 0.0152645 -0.03847044
0.24020703 0.0152645 -0.030771237
0.28626257 0.0152645 -0.03469681
-0.28941116 0.025057601 -0.035641149
-0.24476454 0.025057599 -0.033254258
-0.10678686 0.025057603 -0.038116869
-0.085457958 0.025057601 -0.036719862
-0.063921407 0.025057601 -0.031222738
-0.036565915 0.025057601 -0.03001897
0.0023031086 0.025057601 -0.038843352
0.077019289 0.025057601 -0.037342928
0.14302093 0.025057599 -0.034019552
0.15356296 0.025057599 -0.03993918
0.16974127 0.025057601 -0.037591901
0.18716291 0.025057603 -0.038778841
0.19896477 0.025057601 -0.033642702
0.21936142 0.025057601 -0.037195183
0.23083922 0.025057601 -0.033536185
0.38404214 0.020524776 -0.032464512
0.39092457 0.021713626 -0.03326204
-0.38796926 0.034371611 -0.038439494
0.40592581 0.03424342 -0.035866026
0.41554168 0.035904229 -0.033036869
0.47352093 0.03598097 -0.03440005
0.46640009 0.044688947 -0.036975432
-0.46271273 0.05439914 -0.038293447
-0.2006294 0.0152645 -0.028343096
-0.17194091 0.0152645 -0.02085194
-0.1698347 0.0152645 -0.028778937
-0.056237683 0.0152645 -0.02566338
0.025177922 0.0152645 -0.022575393
0.036935642 0.0152645 -0.025066581
0.064801909 0.0152645 -0.02664382
0.081995346 0.0152645 -0.020774055
0.10593272 0.0152645 -0.023254398
0.16040878 0.0152645 -0.029255392
0.23061527 0.0152645 -0.026747242
0.26256856 0.0152645 -0.028243195
0.2845687 0.0152645 -0.020745173
0.33877251 0.0152645 -0.023062576
0.35913298 0.016222347 -0.022343237
-0.38649035 0.023836885 -0.027340684
-0.34713817 0.025057601 -0.026489722
-0.33634183 0.025057601 -0.028809508
-0.32491904 0.025057601 -0.024377607
-0.31909224 0.025057601 -0.023563854
-0.30520678 0.025057601 -0.023179837
-0.28588617 0.025057601 -0.024005275
-0.23596358 0.025057599 -0.024610339
-0.14703196 0.025057603 -0.028457988
-0.036398772 0.025057599 -0.026903132
0.031036898 0.025057601 -0.028400164
0.11732954 0.025057601 -0.028004831
0.25740862 0.025057603 -0.020048181
0.32344306 0.025057601 -0.022310233
0.35358801 0.021697981 -0.022408621
0.38722491 0.021074578 -0.02452766
0.41184032 0.025326706 -0.022245711
-0.42496309 0.034145933 -0.023480497
-0.40415385 0.038708523 -0.027757488
-0.37437996 0.030730454 -0.028475072
0.4156138 0.035916664 -0.027148675
-0.45403397 0.041935153 -0.02985142
-0.42947277 0.045492686 -0.022851501
0.4675113 0.044880778 -0.020992175
-0.33019671 0.0152645 -0.019367147
-0.2744973 0.0152645 -0.015886053
-0.26944426 0.0152645 -0.019611362
-0.04265447 0.0152645 -0.01564968
-0.02593435 0.0152645 -0.01502873
0.021077635 0.0152645 -0.015774531
0.072026677 0.0152645 -0.015740551
0.21289788 0.0152645 -0.017561197
0.24792811 0.0152645 -0.01195981
0.28650996 0.0152645 -0.017391114
-0.38404 0.023180338 -0.016161807
-0.3321802 0.025057603 -0.019393951
-0.25206342 0.025057601 -0.017193694
-0.18000224 0.025057601 -0.015542531
-0.12105376 0.025057601 -0.01338212
-0.10505457 0.025057603 -0.014166064
-0.050520252 0.025057601 -0.018570092
-0.022537172 0.025057601 -0.015663121
0.0032120608 0.025057601 -0.011755139
0.019584954 0.025057601 -0.013402225
0.029536175 0.025057601 -0.011584857
0.044239961 0.025057601 -0.015401297
0.29287714 0.025057601 -0.010464087
0.3281469 0.025057601 -0.012455408
0.34851766 0.025057601 -0.015828256
0.35101154 0.025057601 -0.019066306
0.43475872 0.029285163 -0.011936948
-0.37668872 0.031349067 -0.011358466
0.40069881 0.033340532 -0.010467179
0.44723982 0.031441204 -0.016334616
0.46600744 0.034683041 -0.018810369
-0.44555846 0.049802683 -0.013048369
-0.35339403 0.0152645 -0.0081848539
-0.30201793 0.0152645 -0.0098987743
-0.29344463 0.0152645 -0.0097996034
-0.25694144 0.0152645 -0.0068739019
-0.17814943 0.0152645 -0.0069123954
-0.1561494 0.0152645 -0.0061888183
-0.10367884 0.0152645 -0.0054695085
-0.080326244 0.0152645 -0.0087191202
0.0033350289 0.0152645 -0.00079711899
0.027941428 0.0152645 -0.0087812711
0.068804704 0.0152645 -0.00034905225
0.081708565 0.0152645 -0.00010603899
0.23186716 0.0152645 -0.0040719844
0.25192565 0.0152645 -0.0097937733
0.27101153 0.015264501 -2.0667911e-05
0.28968287 0.0152645 -0.0041531287
0.30360901 0.0152645 -0.00016912818
0.31585273 0.015264499 -0.001299046
0.35669672 0.015801504 -0.0067921514
-0.39062673 0.024945378 -0.0010229629
-0.31729829 0.025057599 -0.0041582547
-0.28436035 0.025057601 -0.0078174397
-0.19564056 0.025057601 -0.0091732368
-0.10213178 0.025057601 -0.0061858743
-0.099145561 0.025057601 -0.0085219834
-0.044209644 0.025057603 -0.0061650067
0.044876341 0.025057601 -0.009230365
0.14529225 0.025057601 -0.00026382133
0.21274693 0.025057601 -0.0052916892
0.35303012 0.024991147 -0.0060174181
0.3916457 0.021838309 -0.0036055446
-0.42586958 0.034388527 -0.0055213487
0.406461 0.034335773 -0.0054018432
-0.46847278 0.046608254 -0.0014883858
-0.42801127 0.045100883 -0.0027990956
-0.41698906 0.042147633 -0.0014826916
0.44450355 0.040906727 -0.0058694584
0.4554711 0.042801104 -0.0074737556
-0.35186237 0.0152645 0.0022649206
-0.31722227 0.0152645 0.008476153
-0.27798498 0.0152645 0.0076685175
-0.21382535 0.0152645 0.0019919761
-0.18866535 0.0152645 0.0066818483
-0.15742005 0.0152645 0.0060433969
-0.041003622 0.0152645 0.0075987848
-0.018591534 0.0152645 0.0062005278
0.017443858 0.0152645 0.005384149
0.029938832 0.0152645 0.00037415698
0.071120754 0.0152645 0.0048426092
0.096240729 0.0152645 0.00992525
0.28964728 0.0152645 0.0098689348
0.30592185 0.0152645 0.0070089586
0.33355263 0.0152645 0.0050198734
-0.38473064 0.02336552 0.0089798179
-0.3374331 0.025057601 0.0043750308
-0.26294887 0.025057599 0.005797605
-0.25192082 0.025057601 0.0037634484
-0.24348792 0.025057601 0.0037925169
-0.22441274 0.025057603 0.00055032223
-0.16534695 0.025057603 0.0071379514
-0.15263042 0.025057601 0.0071098935
-0.03059249 0.025057599 0.007380913
-0.021007467 0.025057599 0.0093646999
-0.0085051917 0.025057601 8.6076558e-05
0.088415921 0.025057601 0.0090157874
0.1286747 0.025057601 0.0085750222
0.13299845 0.025057603 0.0054018116
0.23973998 0.025057601 0.0044295266
0.35485888 0.02497489 0.0056734271
0.365022 0.027177813 0.0051900148
0.39753821 0.022856219 0.0082725361
0.4037568 0.033868644 0.0029837526
0.4121139 0.035312187 0.0084000267
0.46695465 0.034846529 0.0026256153
-0.46753579 0.045552984 0.00073437113
-0.41506502 0.041632049 0.0081621408
0.44009483 0.040145207 2.4469569e-05
-0.3709186 0.019664533 0.013456559
-0.20550892 0.0152645 0.014700219
-0.1846237 0.0152645 0.012865938
-0.16854993 0.0152645 0.019212764
-0.14383289 0.0152645 0.017974161
-0.12324598 0.0152645 0.011585504
-0.11100499 0.0152645 0.016614337
-0.066052802 0.0152645 0.018859651
-0.033950787 0.0152645 0.014740091
0.014848247 0.0152645 0.013373602
0.064198554 0.0152645 0.016881976
0.11448477 0.0152645 0.011387834
0.12045692 0.0152645 0.014667649
0.21363252 0.0152645 0.013966026
0.25437656 0.0152645 0.017569475
0.32923633 0.0152645 0.017200153
-0.36433923 0.027923211 0.0192337
-0.35589916 0.025551766 0.016055085
-0.27912065 0.025057601 0.016469289
-0.23679958 0.025057599 0.015514869
-0.023850307 0.025057603 0.014477578
-0.0030003637 0.025057601 0.01301838
0.053552091 0.025057601 0.018604651
0.1201389 0.025057601 0.010713067
0.19669072 0.025057601 0.019377384
0.21173149 0.025057601 0.016398218
0.268179 0.025057601 0.019231508
0.36504614 0.027181981 0.010413498
0.39933538 0.023166526 0.019923452
-0.41258082 0.030827887 0.013333999
-0.38890079 0.034621291 0.014127086
0.41981268 0.036642019 0.018927339
0.42230934 0.03707324 0.013665428
0.43834859 0.039843746 0.01931826
-0.46302819 0.047994941 0.014709144
-0.43694985 0.047496002 0.015465233
-0.41675329 0.042084284 0.017696897
0.44758001 0.041438241 0.012311356
0.4551512 0.042745844 0.010172099
-0.28725767 0.015264501 0.025435342
-0.23502481 0.0152645 0.027962357
-0.2296668 0.0152645 0.028540632
-0.1988292 0.0152645 0.029061552
-0.18506548 0.0152645 0.024026673
-0.17497757 0.0152645 0.021287724
-0.13826913 0.0152645 0.025777269
-0.10937056 0.0152645 0.02601327
-0.083258986 0.0152645 0.023025371
-0.072800301 0.0152645 0.024682801
-0.01602684 0.0152645 0.020002227
0.0066483244 0.0152645 0.028634682
0.028636485 0.0152645 0.027653143
0.081649601 0.0152645 0.025712062
0.10662646 0.0152645 0.023484237
0.11808117 0.0152645 0.020236064
0.21737276 0.0152645 0.022986731
0.22912264 0.0152645 0.023084972
0.25456828 0.0152645 0.023556303
0.32086346 0.0152645 0.028356122
-0.35621318 0.025618557 0.029094469
-0.33335641 0.025057599 0.020201966
-0.25275952 0.025057601 0.028227415
-0.17307666 0.025057601 0.026894743
-0.16623464 0.025057601 0.020163719
-0.15248659 0.025057601 0.025524886
-0.114591 0.025057599 0.023464428
-0.093519479 0.025057601 0.028707191
-0.059197403 0.025057599 0.021812653
-0.00090140849 0.025057601 0.023187649
0.013946995 0.025057601 0.02133368
0.075641409 0.025057601 0.027273946
0.11500104 0.025057603 0.023998994
0.21257223 0.025057601 0.024138078
0.2566638 0.025057599 0.023966085
0.28783065 0.025057599 0.020774776
0.29468539 0.025057603 0.027355902
0.32132691 0.025057601 0.028891062
0.41393036 0.035625838 0.020370234
0.45282838 0.032406807 0.027253386
-0.45749521 0.046911389 0.024151437
0.44040108 0.040197965 0.026173264
-0.307915 0.0152645 0.030306218
-0.28413481 0.0152645 0.037347734
-0.27253383 0.0152645 0.036490005
-0.24951743 0.0152645 0.036702394
-0.21053442 0.0152645 0.033061005
-0.16255417 0.0152645 0.030564222
-0.040671565 0.0152645 0.033537351
-0.032920688 0.0152645 0.038120702
-0.0072403215 0.0152645 0.039165281
0.00067899749 0.0152645 0.0395777
0.061376266 0.0152645 0.034738984
0.16269366 0.0152645 0.036910854
0.18304273 0.0152645 0.033830706
0.25399333 0.0152645 0.039690189
0.27205196 0.0152645 0.033422429
0.32481995 0.0152645 0.036919765
-0.34640065 0.025057603 0.032431107
-0.32683527 0.025057601 0.035313234
-0.31647038 0.025057601 0.03923554
-0.26193297 0.025057601 0.031630445
-0.24935158 0.025057603 0.036874618
-0.23784687 0.025057601 0.039061654
-0.21525764 0.025057599 0.034957215
-0.16639015 0.025057601 0.039889771
-0.07391645 0.025057601 0.031711694
-0.063805699 0.025057601 0.036828902
-0.054191694 0.025057599 0.036290288
0.05190967 0.025057603 0.03703725
0.08728838 0.025057603 0.03195348
0.10944256 0.025057601 0.035258785
0.12037282 0.025057599 0.03398823
0.20523012 0.025057599 0.037561521
0.26541382 0.025057601 0.039377928
0.30233371 0.025057601 0.032835625
0.33429182 0.025057603 0.036812972
-0.39773968 0.036989711 0.037175313
-0.38842487 0.034493849 0.035459071
0.40575472 0.034213684 0.034091797
0.4529154 0.033527426 0.030775148
-0.4379763 0.047771085 0.039239891
0.4395968 0.040059209 0.031444769
-0.28701666 0.0152645 0.047760047
-0.27512315 0.0152645 0.048833251
-0.26359221 0.0152645 0.041465931
-0.2584554 0.0152645 0.043419167
-0.095246933 0.0152645 0.043141481
-0.089278042 0.0152645 0.045317374
-0.0060056038 0.0152645 0.047863338
0.016121855 0.0152645 0.045928922
0.035509899 0.0152645 0.045237206
0.059798859 0.0152645 0.048576888
0.16412774 0.0152645 0.04293482
0.1717203 0.0152645 0.045527611
0.21881066 0.0152645 0.045329262
0.22538684 0.0152645 0.040970597
0.23917407 0.0152645 0.048300989
0.26189673 0.0152645 0.048290871
0.35056478 0.0152645 0.043095157
-0.31379038 0.025057599 0.043223418
-0.301514 0.025057601 0.049067531
-0.28467405 0.025057603 0.044716015
-0.20390381 0.025057601 0.047237482
-0.14555691 0.025057601 0.044121917
-0.10994927 0.025057603 0.041082755
-0.099135011 0.025057599 0.044785388
0.016892251 0.025057599 0.040400103
0.025635634 0.025057601 0.047032267
0.062204733 0.025057601 0.045245823
0.081100963 0.025057599 0.045710132
0.15870453 0.025057601 0.048957881
0.26083574 0.025057601 0.04378318
0.27284324 0.025057601 0.047218353
0.35320148 0.025057599 0.045135483
0.37096116 0.028203744 0.045957588
0.38594329 0.020853257 0.046324417
0.420807 0.026875548 0.041596837
-0.43452227 0.036707234 0.044127777
-0.40310746 0.038427942 0.044512287
-0.37360263 0.030481357 0.049617331
0.38982147 0.031461585 0.045680366
-0.37118819 0.01973694 0.050987542
-0.3491042 0.0152645 0.057359636
-0.32172129 0.0152645 0.052957125
-0.25257289 0.0152645 0.059538536
-0.22412899 0.0152645 0.050903786
-0.21471357 0.0152645 0.055715431
-0.17575419 0.0152645 0.05736611
-0.14097168 0.0152645 0.050584331
-0.13642015 0.0152645 0.058519877
-0.11260848 0.0152645 0.056592099
-0.096363142 0.0152645 0.053297497
-0.053345673 0.0152645 0.053935491
-0.0499238 0.0152645 0.053413313
0.02401115 0.0152645 0.05515065
0.082357101 0.0152645 0.05936975
0.10391394 0.0152645 0.055141669
0.1383642 0.0152645 0.058577955
0.1426429 0.0152645 0.053905688
0.15251616 0.0152645 0.059881866
0.25749943 0.0152645 0.059434995
0.27419659 0.0152645 0.059292182
0.28071719 0.0152645 0.057975184
0.36461774 0.017169697 0.053730674
-0.39322752 0.025642348 0.059451871
-0.25123388 0.025057603 0.059219308
-0.22060245 0.025057603 0.054004259
-0.14769191 0.025057599 0.058978647
-0.090405151 0.025057601 0.052639544
-0.080071174 0.025057603 0.056467775
-0.057654165 0.025057603 0.051419847
-0.047844194 0.025057601 0.058526505
0.0096839964 0.025057603 0.057198372
0.027584746 0.025057601 0.054100525
0.043448389 0.025057599 0.055680014
0.096281081 0.025057603 0.055700928
0.10929091 0.025057603 0.055158541
0.13763401 0.025057599 0.054600798
0.14414856 0.025057601 0.057849407
0.16765144 0.025057601 0.058809821
0.18479577 0.025057603 0.056529917
0.20309786 0.025057601 0.051980488
0.21464501 0.025057603 0.056689467
0.24612859 0.025057603 0.058104768
0.26295343 0.025057601 0.05040653
0.29655439 0.025057599 0.05442987
0.32897741 0.025057601 0.056494944
0.39813039 0.022958446 0.058792181
-0.43031627 0.035579994 0.051127948
0.41681093 0.036123574 0.050672922
0.42565989 0.03765215 0.053745586
-0.41742003 0.042263038 0.050112776
-0.30591801 0.0152645 0.067845739
-0.27835384 0.0152645 0.063264862
-0.24343722 0.0152645 0.066446148
-0.21969309 0.0152645 0.063982211
-0.16170961 0.0152645 0.066267274
-0.041069478 0.0152645 0.060907021
0.011108756 0.0152645 0.068446912
0.045702524 0.0152645 0.062254868
0.078392796 0.0152645 0.06247367
0.14246053 0.0152645 0.068211704
0.17063484 0.0152645 0.067926317
0.23967434 0.0152645 0.060963675
0.32110149 0.0152645 0.066511445
-0.29639488 0.025057601 0.0643453
-0.27940094 0.025057599 0.065138645
-0.21728024 0.025057601 0.061044816
-0.2086603 0.025057603 0.061013825
-0.18717822 0.025057601 0.063041896
-0.15212837 0.025057601 0.062154192
-0.093018696 0.025057603 0.062747374
-0.059746802 0.025057601 0.068867721
-0.046349451 0.025057601 0.067786321
0.088737272 0.025057601 0.066669971
0.099232867 0.025057601 0.062532715
0.11590684 0.025057603 0.069098286
0.14405194 0.025057599 0.063746005
0.17351848 0.025057603 0.066336542
0.2134361 0.025057603 0.068328828
0.22158787 0.025057601 0.064777054
0.29688659 0.025057601 0.06283056
0.32807767 0.025057601 0.069411457
0.35505784 0.025456605 0.061675809
-0.41111916 0.030435966 0.064162299
0.38473737 0.030583406 0.069952786
0.41093063 0.033234097 0.062098213
-0.35425967 0.0152645 0.075892143
-0.30241346 0.018199978 0.076247104
-0.21880719 0.01703646 0.076247104
-0.1145872 0.019481879 0.076247104
-0.09607859 0.0152645 0.076206952
0.024301887 0.0152645 0.074506886
0.035335686 0.018925026 0.076247104
0.087314084 0.0152645 0.072387509
0.19120385 0.01748858 0.076247104
0.20640016 0.0152645 0.07037805
0.25112832 0.0152645 0.070992753
0.32732973 0.016477238 0.076247104
-0.35534146 0.023568783 0.075856671
-0.3100661 0.025057601 0.072394267
-0.28595704 0.025057601 0.074952021
-0.26359478 0.025057603 0.073106147
-0.22931522 0.025057601 0.075128943
-0.17649324 0.021108363 0.076247104
-0.13628811 0.02439175 0.073740184
-0.11454512 0.023138691 0.076247104
-0.10261133 0.024484687 0.073199809
-0.072698206 0.023140732 0.076247096
-0.032116577 0.0229229 0.076247104
-0.027284011 0.024106378 0.076247104
-0.019069865 0.025057601 0.071561173
0.016125126 0.023179192 0.074110702
0.035077475 0.021264756 0.076247096
0.05140534 0.020307265 0.076247104
0.11120818 0.025057603 0.075945683
0.13393658 0.022425964 0.076247104
0.15115079 0.02117886 0.076247104
0.16153042 0.025057601 0.073418662
0.17259978 0.023748022 0.076247104
0.18720354 0.021146223 0.076247104
0.19441554 0.025057601 0.070314728
0.20445567 0.025057601 0.07367187
0.21448287 0.022519462 0.076247104
0.25572258 0.022974249 0.076247104
0.35732219 0.02584775 0.072912611
0.37500846 0.028902881 0.072972335
