# .PCD v0.7 - Point Cloud Data file format
VERSION 0.7
FIELDS x y z
SIZE 4 4 4
TYPE F F F
COUNT 1 1 1
WIDTH 714
HEIGHT 1
VIEWPOINT 0 0 0 1 0 0 0
POINTS 714
DATA ascii
-0.0081542665 -0.014126278 -0.073522583
0.027457576 -0.010276581 -0.075807862
0.065844789 -0.015328079 -0.076596454
0.072860092 -0.010795872 -0.079256788
0.091379449 -0.016010515 -0.072324015
0.10640714 -0.013980054 -0.077644043
0.1277132 -0.010387249 -0.070391692
0.13472043 -0.010732819 -0.073045872
0.14504132 -0.010909405 -0.071518324
0.15608779 -0.011110715 -0.071121611
0.16864584 -0.011497348 -0.072679996
0.18546788 -0.015652252 -0.072797753
0.2073729 -0.01601322 -0.071190141
-0.10157239 -0.013574355 -0.060139228
-0.08272846 -0.013482239 -0.063798711
-0.064271748 -0.01478962 -0.062273387
-0.055945542 -0.013450628 -0.066402972
-0.033989493 -0.015064267 -0.065893598
-0.0049178121 -0.015157226 -0.066900328
0.062349036 -0.015091337 -0.064989015
0.085307561 -0.015139401 -0.063811637
0.090094663 -0.01560856 -0.067387715
0.11364939 -0.015841767 -0.066599801
0.12887096 -0.015912008 -0.065017983
0.13467573 -0.016250141 -0.066840574
0.14523551 -0.010691295 -0.069547154
0.15721706 -0.016326576 -0.062964424
0.1627036 -0.010151874 -0.062266953
0.17712134 -0.017534804 -0.069616601
0.18317831 -0.015652431 -0.069033511
0.20840584 -0.014862569 -0.064451322
0.21774146 -0.015187411 -0.06396699
0.22965577 -0.015052945 -0.069599301
0.2393803 -0.015443549 -0.066426203
0.24475306 -0.015946506 -0.067199215
0.25376481 -0.016275566 -0.065702394
0.26933157 -0.015420095 -0.062145967
-0.064527363 -0.00912908 -0.066165812
-0.039670691 -0.0084621683 -0.062517539
0.003247973 -0.0083033023 -0.061886508
0.019560141 -0.0090384884 -0.066782221
0.028807748 -0.0082947342 -0.061837818
0.059267409 -0.0083152223 -0.061162986
0.079966955 -0.0086315051 -0.062248692
0.084126942 -0.0084606055 -0.060946718
0.10737745 -0.0089039244 -0.061614152
0.11578056 -0.0091715977 -0.062575683
0.12224838 -0.009837117 -0.066446483
0.13218428 -0.009886927 -0.065056816
-0.10443377 -0.014052121 -0.055559177
-0.094473161 -0.013434686 -0.053785335
-0.061200898 -0.012456845 -0.050683446
0.034912303 -0.012779713 -0.052552477
0.055250924 -0.013424141 -0.054832436
0.060382776 -0.013511127 -0.055113826
0.097175673 -0.012841508 -0.050762225
0.10783364 -0.014081866 -0.055457529
0.11433274 -0.014095857 -0.055019606
0.1235942 -0.014414906 -0.056094721
0.16053237 -0.014147693 -0.050973177
0.17525098 -0.01502781 -0.053147301
0.20865728 -0.013394181 -0.055104792
0.21594383 -0.014761207 -0.055630505
0.25993371 -0.018224228 -0.052914247
0.26527452 -0.012725268 -0.055907469
0.27714851 -0.01362413 -0.057592619
0.28832817 -0.019098774 -0.054327503
0.30235183 -0.017825099 -0.051178128
-0.14620768 -0.0093035316 -0.054016449
-0.11446901 -0.0078349244 -0.055743411
-0.10684836 -0.0079734856 -0.056893852
-0.061355293 -0.0069233985 -0.054323725
-0.020415356 -0.0058346279 -0.050423086
-0.018276909 -0.0071957344 -0.056093838
-0.0051409397 -0.0063278181 -0.052477852
0.0047928668 -0.0068780389 -0.054864358
0.014138165 -0.0075272559 -0.057476196
0.033569094 -0.0079423003 -0.059725612
0.042419516 -0.0072211041 -0.056241773
0.087201275 -0.0067702252 -0.052760981
0.12278791 -0.0076608006 -0.054346584
0.15068811 -0.0093010413 -0.059026685
0.16712713 -0.0080503253 -0.051609658
0.17880556 -0.0083749359 -0.051522076
-0.1983543 -0.01228499 -0.044261929
-0.17024949 -0.012163189 -0.049784429
-0.15819803 -0.013016056 -0.047527447
-0.12894104 -0.012875938 -0.048823617
-0.0866642 -0.011032005 -0.044679258
-0.07480298 -0.01073741 -0.04417799
-0.027597344 -0.011605406 -0.047785975
-0.0079988865 -0.011352569 -0.046958376
0.029214215 -0.010379065 -0.04377187
0.066164203 -0.011724215 -0.047586001
0.10339561 -0.010529171 -0.04222776
0.12930368 -0.012703957 -0.048070401
0.17406937 -0.013436439 -0.046739388
0.18481427 -0.013782099 -0.046602599
0.20478912 -0.014733889 -0.047803443
0.25345021 -0.010624865 -0.049115878
0.2662212 -0.016059015 -0.043403529
0.2766467 -0.015327953 -0.04673484
0.30702373 -0.013868541 -0.049671344
0.32046354 -0.014866806 -0.043837935
-0.20696345 -0.0067882696 -0.042707834
-0.17493337 -0.0061209444 -0.04412102
-0.15086034 -0.0050652102 -0.042694744
-0.14476529 -0.0055749896 -0.044852503
-0.13452937 -0.005686393 -0.046038475
-0.12613438 -0.0057112761 -0.046793506
-0.095588997 -0.0041586971 -0.043236934
-0.045908231 -0.0096111763 -0.040994432
-0.038179904 -0.0027234436 -0.040606499
-0.025966022 -0.0028353464 -0.041023739
-0.0056690602 -0.0051109814 -0.048013341
0.0040990082 -0.0037674152 -0.043709662
0.012714982 -0.0039675822 -0.044270746
0.02595205 -0.003990164 -0.04434466
0.047673676 -0.0098829903 -0.041855816
0.058453552 -0.002722983 -0.040332615
0.073418073 -0.0073025944 -0.043740854
0.10114218 -0.0054178359 -0.047091141
0.13328063 -0.0053329081 -0.044981923
0.20015717 -0.0071385778 -0.044618994
0.21413749 -0.0070754727 -0.042842161
0.22202204 -0.0071470882 -0.042105224
0.25636074 -0.009327285 -0.044280536
-0.26181912 -0.011986766 -0.032156814
-0.21305053 -0.010641527 -0.034291763
-0.17061147 -0.010249198 -0.037204664
-0.16561961 -0.011045502 -0.039673835
-0.13668421 -0.01043953 -0.039997779
0.15132248 -0.010681998 -0.039662164
0.22859156 -0.011205585 -0.034089878
0.24420416 -0.012215131 -0.03490296
0.27592707 -0.012612015 -0.031905856
0.28816357 -0.015086642 -0.036693398
0.30176884 -0.014784229 -0.033867814
0.31259036 -0.010132422 -0.037821021
0.33124775 -0.01230674 -0.039778069
-0.27573687 -0.0081005162 -0.032950342
-0.24770731 -0.0054024984 -0.034249209
-0.23486942 -0.0046155201 -0.033761337
-0.22793195 -0.0047516348 -0.035050429
-0.174685 -0.0022513764 -0.03360033
-0.16804808 -0.0057259193 -0.034305289
-0.14574736 -0.0048247827 -0.033502862
-0.12765139 -0.0048408643 -0.031840321
-0.11873172 -0.0082898047 -0.035293363
-0.093240924 -0.0066201948 -0.03199406
-0.082475267 -0.0021688859 -0.038376074
-0.065232031 -0.0063423463 -0.03792629
-0.054492004 -0.0072882399 -0.034599159
-0.047681037 -0.0064565786 -0.032566793
-0.034356721 -0.0064007845 -0.032596007
-0.022470411 -0.00058813818 -0.035096854
-0.0018798715 -0.0023596014 -0.039749242
0.0020853514 -0.0017533469 -0.038172852
0.018237449 -0.0090752905 -0.039723307
0.021796422 -0.0056226803 -0.030751141
0.035659209 -0.0054290066 -0.035918012
0.045576431 -0.0029654023 -0.032380227
0.050999202 -0.0064913714 -0.032613084
0.082985982 -0.0034997773 -0.03307268
0.093560755 -0.0088085998 -0.037699342
0.11537826 -0.0095094377 -0.038696386
0.12595302 -0.0032835351 -0.039566025
0.13408878 -0.0060666744 -0.037466072
0.1538462 -0.0048989947 -0.036021527
0.16662833 -0.0012252252 -0.031663913
0.18581006 -0.0026851101 -0.033698384
0.19429754 -0.0044090394 -0.031628814
0.20963752 -0.0099957874 -0.032883428
0.22467346 -0.0029930908 -0.030930713
0.23165566 -0.0068232273 -0.039996579
0.24426687 -0.0049190964 -0.033450976
0.25316545 -0.0076643378 -0.039644014
-0.11470015 4.8938673e-06 -0.031641807
-0.054047428 0.00014444368 -0.032996207
-0.010459775 0.00048984727 -0.032456409
0.0047622314 0.00042818423 -0.032607447
0.030276023 0.00062886439 -0.032105565
0.13466242 0.00012543239 -0.030345611
-0.29274514 -0.01124957 -0.026193626
-0.28620917 -0.01075937 -0.029682605
-0.2671214 -0.010013518 -0.026679508
0.25621608 -0.010775747 -0.029777804
0.33491075 -0.010168884 -0.020602088
0.34354401 -0.010164553 -0.020591384
-0.33146369 -0.0060588326 -0.021504566
-0.30771023 -0.0038733543 -0.022752516
-0.25429955 -0.0028988798 -0.027377175
-0.2371785 -0.0016057525 -0.026129866
-0.22753994 -0.0057088425 -0.028921913
-0.21534523 -0.00088157482 -0.026704725
-0.20258309 -3.1216303e-05 -0.025734708
-0.18722564 -0.0055799289 -0.023986708
-0.1721144 -0.0035378109 -0.020302393
-0.15033172 -0.0035086719 -0.021593293
-0.14491946 -0.0051768916 -0.026016736
-0.13356073 -0.0042817662 -0.024531586
-0.12191841 -0.0037085079 -0.023790238
-0.11874151 -0.0050404691 -0.027171616
-0.096222453 -0.0026354252 -0.022121873
-0.052096929 -0.0053907754 -0.029901102
-0.042932361 -0.0042361957 -0.027187036
-0.035378877 -0.0042639184 -0.02734898
0.014037885 -0.0040161945 -0.026816018
0.043575663 -0.0013569859 -0.020126332
0.10501198 -0.0039732861 -0.025070554
0.11298149 -0.0050570411 -0.027427442
0.12157947 -0.0059910035 -0.029393924
0.14913414 -0.0047830432 -0.02478949
0.15099064 -0.0049129501 -0.024992073
0.19807732 -0.00065663527 -0.027659724
0.21413712 -0.0062753148 -0.023343211
0.22727025 -0.0059496397 -0.02120287
0.23754911 -0.0082693473 -0.025732052
0.2497464 -0.0087792529 -0.025613118
0.25763044 -0.003908515 -0.023917131
0.26360515 -0.0078761913 -0.02184657
0.28260362 -0.0057349824 -0.022415802
0.31722361 -0.0066946479 -0.028770549
0.34475243 -0.0070044859 -0.029529532
0.3537578 -0.0075754113 -0.028902784
0.36483863 -0.0070832702 -0.022236655
-0.21647689 0.0012353335 -0.021420617
-0.18301871 0.0010400198 -0.024816502
-0.16820073 0.0019130933 -0.023877863
-0.15034939 0.0017915681 -0.025287054
-0.13388845 0.0030603777 -0.023204345
-0.12597041 0.0034250598 -0.022804219
-0.099819496 0.0022553373 -0.026685333
-0.0062280656 0.0044581243 -0.022736428
0.0060031745 0.0021619122 -0.028360818
0.028047998 0.0041460502 -0.02350083
0.047822114 0.0041211667 -0.023332534
0.050634261 0.004934079 -0.021306287
0.066280566 0.0020908734 -0.02807596
0.073104128 0.0017527372 -0.028819282
0.087763608 0.0025564667 -0.026398206
0.090203136 0.0011607838 -0.029725805
0.11614975 0.0010751699 -0.028965978
0.13231394 0.0026287441 -0.024359906
0.16573918 0.0016757458 -0.024613271
0.18026018 0.0028809598 -0.020548185
-0.37095317 -0.0056157326 -0.012191083
-0.3628782 -0.00075513846 -0.014221469
-0.3566829 -0.0038756728 -0.013526244
-0.34750149 -0.0046272236 -0.015699839
-0.31736293 -0.003119434 -0.014453303
-0.29709727 -0.00093233126 -0.017003674
-0.27739477 -0.0059451684 -0.015305255
-0.26375288 -0.0019423747 -0.015634414
-0.23861222 -0.0050718202 -0.01778012
-0.20435147 -0.0028943382 -0.015914688
-0.19363582 -0.0018922751 -0.014394668
-0.17585278 -0.0025516935 -0.017560842
-0.14979532 -0.00021736417 -0.013564571
-0.1123797 -0.0012167187 -0.018042978
-0.094319806 -0.00071108365 -0.017479252
-0.03481273 -9.7095501e-05 -0.017149303
-0.010414921 -0.00081410626 -0.018972429
-0.0049323416 -3.7718681e-05 -0.017070653
0.083476827 -0.00099944673 -0.018590769
0.1081126 -0.0005290421 -0.016517945
0.15256062 -0.0017843028 -0.017230595
0.16739471 -0.0031830044 -0.019732798
0.18062413 -0.00032788748 -0.01169744
0.21175423 -0.0037240412 -0.017301816
0.23821992 -0.0035244483 -0.01403457
0.30663383 -0.0031761779 -0.017022908
0.3188915 -0.0059139701 -0.010179966
0.32607335 -0.0064571435 -0.011510433
0.33754316 -0.0025600553 -0.018642824
0.34175992 -0.0094831511 -0.018922338
0.35614404 -0.0059116301 -0.015733451
0.365181 -0.0063205869 -0.016735243
-0.36909622 0.00032878501 -0.011566333
-0.32693234 0.00086119422 -0.010262266
-0.28269809 0.00074879912 -0.014860146
-0.26682919 0.0021789097 -0.013533031
-0.25833574 0.0037044631 -0.010749489
-0.22603795 0.0028966253 -0.016350672
-0.21758953 0.0029165212 -0.017205471
-0.19663382 0.0027695599 -0.019393062
-0.18813968 0.0054452112 -0.013579791
-0.1748931 0.0052989996 -0.015092868
-0.1518562 0.005399989 -0.016354531
-0.14814886 0.0027442768 -0.011971917
-0.13553241 0.0052793082 -0.01766663
-0.10315986 0.0011586861 -0.012568887
-0.095821135 0.0064011752 -0.016679414
-0.063206002 0.0059931725 -0.018555835
-0.046131685 0.0085279299 -0.012559919
-0.030964443 0.0074278405 -0.015443457
-0.024282316 0.0076882592 -0.014824465
0.019067785 0.009031794 -0.011533583
0.032102212 0.0092600854 -0.010941279
0.072925039 0.0068409503 -0.016357811
0.087545834 0.0088256095 -0.01104993
0.099761248 0.0078780605 -0.012914527
0.11639959 0.0041550435 -0.01307347
0.12504841 0.0065483656 -0.015192116
0.14698334 0.0073870509 -0.011791019
0.16474909 0.0058585093 -0.014429132
0.18653981 0.0064548543 -0.011246182
0.22194037 0.0041074334 -0.013844347
0.27438891 0.0019833914 -0.012975395
0.35911834 0.00091523438 -0.010130221
-0.29787809 -0.0015537547 -0.0017405212
-0.28338569 -0.0040838919 -0.0099245058
-0.25776333 -0.00086078024 -0.0053172172
-0.24057205 -0.00065451092 -0.006740042
0.23755658 -0.0013497696 -0.0087820794
0.30488038 -0.0037190025 -0.0060842833
0.32847351 -0.0043160859 -0.0062659821
0.3531796 -0.0037845795 -0.0049639242
0.36727285 -0.0032642302 -0.0036894577
-0.37002739 0.0016733708 -0.0082731675
-0.36366051 0.004125338 -0.0022668066
-0.27181742 0.0062320442 -0.0029208255
-0.25842929 0.0044106124 -0.0090092737
-0.23291956 0.0071453378 -0.0051715523
-0.21936989 0.0083926776 -0.0036358288
-0.20684233 0.0069970386 -0.0081474427
-0.19759437 0.0085131507 -0.0052402322
-0.16275646 0.0082862237 -0.008606283
-0.15660064 0.0065369601 -0.0049351696
-0.13650885 0.0051247301 -0.0013065458
-0.095446222 0.0059792753 -0.0010489776
-0.054910272 0.005565627 -0.0030281309
-0.021879194 0.0060074884 -0.0022627958
-0.019023608 0.0058910386 -0.0025480327
0.012544889 0.0042159073 -0.0066513
0.034771938 0.0053787073 -0.0037367088
0.05624599 0.0061160829 -0.0016631425
0.064421274 0.0054147844 -0.003279214
0.083521582 0.0029329257 -0.0089566661
0.10523799 0.0046063378 -0.0040461365
0.12013023 0.0023794733 -0.0089444155
0.13447952 0.0091601806 -0.0082261804
0.14722338 0.0084536895 -0.0091633191
0.15440005 0.0034473401 -0.004301006
0.1687061 0.0087838164 -0.0070171617
0.18338008 0.0038514538 -0.0067794635
0.20266852 0.001318909 -0.0057416442
0.21080278 0.0051109055 -0.0040830607
0.33928797 0.0019649672 -0.0075588035
0.35067818 0.0031449012 -0.0046685343
0.36792886 0.0037472011 -0.0031929426
0.37512493 0.0025246274 -0.0052226861
-0.16108303 0.011464244 -0.00092599588
-0.14587358 0.010437364 -0.0043882881
-0.060326047 0.012862826 -0.0017645274
-0.055698793 0.011752797 -0.0045411801
-0.0347973 0.010446989 -0.0080005545
-0.013332618 0.010513079 -0.0079052914
-0.0025521838 0.012246511 -0.0036593333
0.0084312446 0.013223909 -0.0012651829
0.012023052 0.013000947 -0.0018113301
0.02586115 0.010676951 -0.0075038993
0.035648845 0.010635203 -0.0075287884
0.070657782 0.010064987 -0.0084887091
0.1446505 0.011488221 -0.0018904677
-0.35336575 -0.00093254389 0.0020219767
-0.33605725 -0.0010445988 0.0017474262
-0.32946488 -0.0012454982 0.0012552869
-0.30478337 -0.00094258651 0.00070308568
-0.35576606 0.0061313869 0.0082065845
-0.33298078 0.0055517559 0.0012271641
-0.31968129 0.0055176029 0.0011436368
-0.30414504 0.0078188423 0.0053988304
-0.266478 0.0010532178 0.00034851622
-0.25370419 0.0031217653 0.0039826557
-0.22639422 0.0050661024 0.0056823092
-0.21842586 0.0051627434 0.0050485102
-0.16550604 0.0074116387 0.0061012357
-0.13777575 0.0079131583 0.0056027044
-0.12336897 0.0085326508 0.0062562348
-0.1189684 0.006459727 0.0010068528
-0.095280968 0.0099630933 0.0087033398
-0.085416183 0.0074052806 0.0020692768
-0.079279408 0.0069500348 0.0007248281
-0.057476919 0.0072934101 0.0012359244
-0.01597267 0.0098199425 0.0070755491
0.0019592326 0.0075459308 0.0015055125
0.020190876 0.0098315766 0.0071040448
0.038177252 0.0076675131 0.0019121864
0.059410416 0.0081299748 0.0033093463
0.073303096 0.0075006103 0.0019406572
0.084335901 0.0093404427 0.0067691505
0.10766716 0.0072306218 0.002472891
0.11626308 0.0072344001 0.0028033494
0.13580273 0.0060515762 0.0009196708
0.15181941 0.0055078832 0.0005855058
0.16082957 0.0080910483 0.0074739456
0.18549204 0.0067809825 0.006140044
0.22516969 0.007829845 0.0039749271
0.24493575 0.007185644 0.0046139685
0.27172357 0.0028776457 0.005528532
0.29155487 0.0060148812 0.0075927991
0.30667314 0.0060703461 0.0014623525
0.31905144 0.0069073415 0.0045477375
0.32259253 0.00090761529 0.0065293126
0.33910573 0.0081883008 0.0076852343
0.37327084 0.0043163928 0.0052742921
-0.26032594 0.010728102 0.0066782478
-0.25022137 0.010542395 0.0050900755
-0.22638813 0.012256928 0.0066168676
-0.1940127 0.013020003 0.0054870551
-0.18442084 0.012503671 0.0033857487
-0.15351453 0.014476622 0.005981694
-0.14828771 0.014738827 0.006298556
-0.13028821 0.01418956 0.0038322587
-0.11644895 0.015822586 0.0071688155
-0.10104223 0.016111752 0.0073014335
-0.088544011 0.015794653 0.0060577318
-0.074959204 0.012346468 0.0055205836
-0.055560131 0.015282203 0.0041020755
-0.049688946 0.010203423 0.0082668439
-0.012218026 0.015658116 0.004697443
0.0065385546 0.014562896 0.0020146887
0.019510463 0.016608369 0.0070251036
0.028782986 0.016571183 0.0069340118
0.05222296 0.017159052 0.0086581679
0.072843581 0.010711549 0.0098002367
0.10954219 0.014391585 0.0034056325
0.11799835 0.013340602 0.0011472986
0.12661204 0.012985757 0.00065459986
0.15144669 0.01490865 0.0069107041
0.16733791 0.014213963 0.0061988099
0.17487009 0.011828439 0.00089880265
0.18729918 0.012131687 0.0027255961
0.19377014 0.011339426 0.0013492822
0.20511015 0.010408294 5.7447643e-05
0.2203255 0.012370808 0.0062158848
0.26892841 0.011290862 0.009074701
-0.36662143 0.0088793729 0.012598712
-0.3570649 0.0098526021 0.014227595
-0.34267166 0.0029248404 0.011470518
-0.33477873 0.00376477 0.013527999
-0.31171852 0.0026272007 0.010398204
-0.28869879 0.0051852409 0.013508298
-0.27575952 0.0061994367 0.014218385
-0.25057015 0.0069690878 0.013054887
-0.24005675 0.0072411466 0.01254217
-0.19006228 0.0099998228 0.014422969
-0.18683445 0.008598079 0.010708009
0.16613965 0.0091567412 0.010415006
0.22864656 0.0075049419 0.011907963
0.23254818 0.0088069625 0.015534877
0.29919618 0.0056322636 0.016042378
0.30316168 0.0052043623 0.015537856
0.31932995 0.0058077769 0.018532334
0.3434031 0.0045605348 0.015477432
0.35189855 0.0026214949 0.010727719
0.36339903 0.0055370242 0.017869584
-0.3352049 0.011098454 0.019199125
-0.3224704 0.010912579 0.014358963
-0.28128186 0.013700446 0.016671004
-0.25243369 0.012987086 0.011326513
-0.2497597 0.014271998 0.014174025
-0.23261063 0.014893758 0.013773725
-0.21683651 0.016261317 0.015417276
-0.19867417 0.013330668 0.014993733
-0.17025933 0.019113237 0.018381737
-0.16245934 0.017274138 0.013391192
-0.12061989 0.012245195 0.015240245
-0.10215333 0.010669084 0.010689486
-0.092602164 0.016672792 0.01669943
-0.084759675 0.01275909 0.015159079
-0.064351007 0.011011582 0.010429107
-0.054157704 0.018466787 0.011885045
-0.043786742 0.014052047 0.013450795
-0.03423848 0.019808449 0.014923399
-0.023847783 0.017940743 0.010288771
-0.018572595 0.018186433 0.010890594
-0.0025538416 0.011830813 0.012001036
0.021798842 0.014269522 0.017974487
0.034787804 0.012561706 0.013857935
0.064026117 0.013576219 0.016707566
0.082007289 0.011653551 0.012348172
0.10569063 0.010626529 0.010717412
0.11642846 0.013467865 0.018078588
0.13566114 0.016132629 0.014485297
0.14369619 0.01080738 0.01306038
0.15196019 0.011843729 0.016113434
0.22187877 0.013863352 0.015605405
0.23224677 0.017074101 0.019073758
0.24219206 0.014199176 0.013146967
0.29159716 0.011584205 0.012901491
0.30124676 0.011975873 0.015184006
0.31429395 0.012796557 0.018973526
-0.10471694 0.020123566 0.017265348
-0.039439395 0.020752154 0.017299773
-0.0049527967 0.020974651 0.017720371
0.023083687 0.020389266 0.016286472
0.058815248 0.020958573 0.018046957
0.11888055 0.020667516 0.019126929
0.13276285 0.020270729 0.018881474
-0.30299744 0.0079712747 0.022292975
-0.29514495 0.0085143 0.022546422
0.31695005 0.00921157 0.026870007
0.32955059 0.0074769054 0.022620905
0.35260251 0.0068984171 0.021204192
0.36247724 0.0088519286 0.023007082
-0.31256622 0.010366506 0.024611522
-0.30737126 0.013160581 0.024699111
-0.28460732 0.01288658 0.02842278
-0.26669681 0.018893797 0.028674912
-0.25774512 0.010115948 0.021567591
-0.2445429 0.014773194 0.023155767
-0.23221506 0.017896933 0.021085719
-0.22176164 0.018422972 0.021201886
-0.21553357 0.015633542 0.024884515
-0.19022201 0.015947461 0.029005159
-0.18842708 0.01279693 0.021131653
-0.17510436 0.014803872 0.02488563
-0.12688056 0.01528352 0.022978023
-0.1192015 0.015226802 0.022490785
-0.10307744 0.01770705 0.027936354
-0.060819268 0.018442603 0.028575175
-0.055422075 0.017530628 0.026286319
-0.046212181 0.018925693 0.029493447
-0.031139253 0.018998969 0.0294834
-0.025903029 0.018040378 0.027171522
-0.0068115364 0.016757829 0.024069423
0.00030041859 0.016493838 0.023422796
0.011848588 0.018609663 0.028587036
0.045110811 0.016466755 0.023551874
0.057083696 0.018141951 0.02777564
0.066968352 0.016440511 0.023734137
0.097465679 0.016284512 0.024269488
0.16487208 0.015157329 0.025034044
0.18507278 0.014079947 0.023981771
0.2068173 0.015015037 0.028152816
0.22418301 0.013365766 0.025763523
0.23419739 0.011506028 0.022331253
0.25347972 0.018982787 0.026130442
0.30297992 0.014272033 0.021046126
0.35819116 0.013971586 0.022731259
-0.18126149 0.021017738 0.023965655
-0.16657034 0.022985473 0.027562141
-0.14020771 0.023415031 0.027000919
-0.12152755 0.022804102 0.024352781
-0.11027235 0.021225754 0.020172641
-0.095940612 0.023665555 0.025546851
-0.029624289 0.025386542 0.028325278
0.05894345 0.023038734 0.023143737
0.064464465 0.025785562 0.029627595
0.078564435 0.025731001 0.029705811
0.09326309 0.024757287 0.028024374
0.11536236 0.024496529 0.028205838
0.14417085 0.023525327 0.027477583
0.18874018 0.022521773 0.028194061
0.20715691 0.020584226 0.025162173
-0.20788744 0.01731318 0.033543944
-0.19346598 0.018217307 0.034409299
-0.18247828 0.018174622 0.0334212
-0.13218766 0.018466691 0.030917937
-0.11591196 0.019589102 0.032698959
0.049854256 0.019246548 0.030257817
0.088700391 0.019923896 0.032506406
0.10793296 0.019386278 0.03196485
0.12865955 0.019043785 0.032012954
0.15666801 0.019793412 0.035324559
0.22044289 0.01922654 0.038562357
0.23382533 0.017158069 0.035462469
0.24807367 0.014299981 0.030687712
0.26700267 0.014474878 0.033062492
0.27579287 0.013932988 0.032964099
0.28670174 0.012091983 0.030152066
0.32060653 0.017792016 0.031034252
-0.2155844 0.023593081 0.035372507
-0.19656895 0.02357522 0.038589139
-0.18484145 0.026881821 0.037125524
-0.17426693 0.024116725 0.030610939
-0.15224983 0.026684247 0.034796681
-0.12851128 0.028114293 0.036370385
-0.11230318 0.020074438 0.033666145
-0.062340602 0.024648286 0.034593031
-0.050569654 0.021228477 0.034729268
-0.04375571 0.022480799 0.037115619
-0.0097040199 0.023468073 0.038904622
0.0077543152 0.023686977 0.039326444
0.011146541 0.022965331 0.03793586
0.044625189 0.025356891 0.033426788
0.056455888 0.023394464 0.039037488
0.063582845 0.029379301 0.037013859
0.073615409 0.023194799 0.03882708
0.085694484 0.024982784 0.03575943
0.096575879 0.026591783 0.036920916
0.10522243 0.020597573 0.034568749
0.12607364 0.022436986 0.038934637
0.13566403 0.025710901 0.03190745
0.1479376 0.025154524 0.038469743
0.17210601 0.020029314 0.036642589
0.1868661 0.028176915 0.039765287
0.20151885 0.025274118 0.035090525
0.21436372 0.024657911 0.034795925
0.23766571 0.024442943 0.036494397
0.24577059 0.021464512 0.031055873
0.25440928 0.025222722 0.03960067
0.27142158 0.023177054 0.037311979
0.32589671 0.020418562 0.03679198
-0.074736811 0.030101996 0.038520366
-0.038045336 0.030863266 0.039594147
-0.010056847 0.030657191 0.039129157
0.0041302983 0.030733669 0.039276276
0.051152937 0.030347409 0.038752768
0.30816793 0.016449668 0.04209502
-0.18939781 0.023473892 0.041043319
-0.17344083 0.02246701 0.041436411
-0.14990529 0.02562915 0.045435295
-0.13083188 0.026395362 0.046193488
-0.12604466 0.026183143 0.044668175
-0.097248591 0.025908576 0.044332489
-0.085075751 0.025827257 0.043755997
-0.043228127 0.028095573 0.047146786
-0.025694573 0.026969831 0.045101888
-0.0037075821 0.027949994 0.046779022
0.004058925 0.026604414 0.044440664
0.017599398 0.026142247 0.043760598
0.047461476 0.028465688 0.047803015
0.057164364 0.028088598 0.047178943
0.06519492 0.028679043 0.048315186
0.13641554 0.02616059 0.04605449
0.15870556 0.026806127 0.048141953
0.18154162 0.029420614 0.041588619
0.19397584 0.022642119 0.043020725
0.21386012 0.028817341 0.042630911
0.2665621 0.021030052 0.045954153
0.27417424 0.024675159 0.04673095
0.29149809 0.023942748 0.041037105
-0.13140577 0.030293185 0.048327152
-0.1172926 0.032568395 0.048591033
-0.10173315 0.035007466 0.047351733
-0.074557379 0.035037532 0.046771109
-0.035332162 0.032865737 0.042912863
-0.011445358 0.032176476 0.041708492
-0.0066433605 0.031685889 0.040889367
0.025400376 0.03510683 0.046504777
0.047898434 0.035737809 0.047575332
0.058043078 0.033120982 0.04354459
0.076860927 0.032096192 0.042004064
0.097763494 0.033481736 0.044883959
0.1003042 0.031758957 0.042076625
0.12291251 0.032704994 0.044270478
0.1577179 0.034270592 0.048185214
0.18132104 0.030444138 0.043283671
0.19122604 0.033586077 0.048865087
0.24955553 0.031422928 0.049524833
0.25028926 0.031258874 0.049339291
0.11737484 0.029873747 0.051140621
0.23873758 0.027556483 0.053987823
0.25794545 0.024650622 0.051156305
0.26842308 0.023909127 0.050868787
-0.09276931 0.036357399 0.051348433
-0.076670408 0.038396318 0.05257795
-0.06136417 0.038752742 0.052074235
-0.054632172 0.039096806 0.05246551
-0.043354943 0.03673017 0.054206088
-0.031677853 0.039634135 0.052985117
-0.021160128 0.033005141 0.054335434
-0.017968742 0.030629059 0.050869312
-0.0063635097 0.03847976 0.051411871
0.0030337127 0.035941802 0.053072829
0.019870577 0.032242507 0.053222936
0.03036759 0.034750782 0.056579247
0.0423197 0.031383358 0.052074242
0.059623305 0.03827522 0.051371753
0.064947613 0.038329892 0.051494747
0.087909833 0.03473793 0.057147689
0.10998542 0.039222129 0.053520296
0.11679179 0.035725154 0.059050281
0.13386378 0.036868513 0.056101471
0.14260283 0.037298851 0.051987462
0.15820439 0.034196377 0.053544682
0.17580843 0.037916619 0.054116726
0.18220554 0.038836394 0.055624761
0.19590886 0.036223281 0.052920863
0.20117328 0.034519564 0.050793462
0.21125951 0.03179834 0.0579651
0.22656104 0.038301289 0.059869114
0.24071065 0.036395352 0.058350269
0.27335253 0.030867172 0.054931413
-0.043460995 0.041425955 0.057139341
-0.020286495 0.043315202 0.057684455
-0.016511653 0.041851878 0.055809826
0.012975064 0.043790974 0.058232814
0.037841223 0.041578744 0.055521622
0.062499262 0.041361872 0.055425219
0.079499617 0.044862285 0.059811063
0.10399379 0.042356957 0.057403989
0.17230086 0.041657433 0.058706567
0.20726265 0.040913858 0.059973355
0.15260716 0.036025941 0.060641713
0.18064392 0.034950651 0.060425267
0.21934943 0.038500268 0.061658744
0.016351348 0.044451844 0.061475575
0.027937787 0.045189392 0.061474442
0.035123512 0.043140482 0.062968165
0.049261972 0.046681024 0.061853424
0.054932911 0.044641193 0.062351916
0.075878657 0.041947514 0.065241054
0.099667877 0.047685757 0.063619971
0.105927 0.046374291 0.062896468
0.12768672 0.045113593 0.066186234
0.13911498 0.045005683 0.065329283
0.14320764 0.041781165 0.065566495
0.15675043 0.040703259 0.064875439
0.16203393 0.04139024 0.06487444
0.18792012 0.042393621 0.061045304
