# .PCD v0.7 - Point Cloud Data file format
VERSION 0.7
FIELDS x y z
SIZE 4 4 4
TYPE F F F
COUNT 1 1 1
WIDTH 782
HEIGHT 1
VIEWPOINT 0 0 0 1 0 0 0
POINTS 782
DATA ascii
0.42301053 -0.0052619372 -0.091744579
0.43374082 0.002244845 -0.09208072
0.44309479 0.003131158 -0.09131892
-0.36452025 -0.021176308 -0.087870896
-0.3508299 -0.025894107 -0.084016129
-0.34203544 -0.026359221 -0.087374866
-0.29197475 -0.025501404 -0.087870903
-0.28896138 -0.021958247 -0.081293695
-0.2774936 -0.023594968 -0.087870903
-0.23037356 -0.021958563 -0.086644806
-0.21718785 -0.021958634 -0.081748337
-0.20044735 -0.024880035 -0.087870903
-0.19318223 -0.021958763 -0.082583852
-0.13819855 -0.025554197 -0.087870896
-0.1025556 -0.021959255 -0.08591184
-0.07728678 -0.02195939 -0.08246474
-0.050830487 -0.021959536 -0.087383136
-0.022668853 -0.023521613 -0.087870903
0.026364435 -0.021959949 -0.081825137
0.075471342 -0.021960218 -0.081420422
0.083980851 -0.022352234 -0.086283669
0.13257642 -0.021960527 -0.081261866
0.20427349 -0.021960914 -0.080355935
0.22172987 -0.024293853 -0.087870903
0.24500169 -0.023445286 -0.087690465
0.26253355 -0.021961231 -0.084338501
0.30049366 -0.021961434 -0.087603763
0.33484411 -0.024246043 -0.083503127
0.35647494 -0.025108326 -0.080065534
-0.38886958 -0.019638108 -0.087870903
-0.37065446 -0.018990215 -0.087482445
0.37881398 -0.019478947 -0.089987904
0.41018695 -0.012414625 -0.082897007
-0.37678635 -0.022532582 -0.079138778
-0.36273184 -0.020166604 -0.073068626
-0.35808855 -0.020668171 -0.077461183
-0.34044689 -0.021831172 -0.072575249
-0.30475208 -0.026518401 -0.075749971
-0.29476094 -0.021958215 -0.075456947
-0.28945303 -0.026518401 -0.072180614
-0.24661072 -0.021958474 -0.07931564
-0.23444974 -0.021958541 -0.076968983
-0.20496051 -0.021958701 -0.074553736
-0.19829084 -0.021958737 -0.077449337
-0.18389404 -0.021958815 -0.079679273
-0.11402223 -0.021959193 -0.075609446
-0.10296047 -0.021959253 -0.076293126
-0.064386293 -0.021959459 -0.078178875
-0.040445596 -0.02195959 -0.077862501
0.021237455 -0.021959923 -0.070519269
0.041626737 -0.021960033 -0.076362416
0.06495823 -0.021960162 -0.078851894
0.072354607 -0.021960201 -0.076542385
0.18662943 -0.021960819 -0.071432561
0.20434327 -0.021960914 -0.07897149
0.22395448 -0.02196102 -0.071426511
0.25640443 -0.021961197 -0.073925644
0.30684102 -0.02196175 -0.072403632
0.31024295 -0.021961685 -0.075998217
0.32027391 -0.021961898 -0.073631324
-0.39894512 -0.017188853 -0.07170485
-0.37307143 -0.018586364 -0.075452834
0.37751266 -0.017208237 -0.073031604
0.40078446 -0.010981326 -0.07365416
-0.43572798 -0.0027659275 -0.074191049
-0.41987711 -0.0099244406 -0.073101565
0.43373027 0.0026678031 -0.070891008
0.45032063 0.010952672 -0.074498981
-0.3629587 -0.02240292 -0.06450817
-0.32419679 -0.024238225 -0.065400392
-0.28048971 -0.026518401 -0.061435163
-0.27914751 -0.026518401 -0.060654603
-0.26062891 -0.026518401 -0.061699338
-0.25484353 -0.021958429 -0.060736954
-0.24653985 -0.02347845 -0.065712042
-0.21209498 -0.021958662 -0.063532464
-0.090861611 -0.021959318 -0.060641848
-0.068282709 -0.021959439 -0.069493152
-0.056481414 -0.021959502 -0.067897737
-0.037419967 -0.021959607 -0.069945015
-0.017578743 -0.021959715 -0.06922774
0.033050902 -0.021959988 -0.065965526
0.15294293 -0.021960637 -0.06701266
0.16282895 -0.021960689 -0.069810614
0.21607974 -0.021960977 -0.064159229
0.23472092 -0.02196108 -0.066095121
0.29577139 -0.021961877 -0.063517548
0.32148433 -0.022595571 -0.069145381
0.33732903 -0.023355084 -0.061796401
0.34215176 -0.021742323 -0.068865083
0.36675474 -0.019242078 -0.064042516
0.38112065 -0.016487788 -0.067072503
0.39351505 -0.013331085 -0.063809663
0.41340566 -0.011564124 -0.060019583
-0.44096446 -8.1528036e-05 -0.065028928
-0.41545904 -0.0067324089 -0.068517946
0.42016253 -0.00876173 -0.066393174
-0.45668456 0.0068283263 -0.068345785
-0.444924 0.0069730859 -0.063761815
0.45141536 0.011295431 -0.066637337
0.47002822 0.019629681 -0.061376907
-0.36322975 -0.02011282 -0.058558013
-0.35497624 -0.023280965 -0.055564791
-0.34687638 -0.023864318 -0.054284185
-0.33462775 -0.025622401 -0.052684501
-0.32300177 -0.021958061 -0.054831162
-0.31065658 -0.026518401 -0.052333012
-0.29585648 -0.026518401 -0.05622258
-0.26638943 -0.026518401 -0.05084531
-0.24910122 -0.021958463 -0.059263717
-0.22513679 -0.026518401 -0.054909538
-0.2085328 -0.026518401 -0.050788328
-0.16937415 -0.021958893 -0.052655421
-0.12880817 -0.021959111 -0.058468819
-0.033588707 -0.021959627 -0.05354885
0.011415131 -0.021959871 -0.059021078
0.034518324 -0.021959996 -0.057270013
0.056163475 -0.021960113 -0.056716844
0.094698526 -0.02196032 -0.053861
0.14202839 -0.021960577 -0.050116289
0.15159494 -0.021960627 -0.055517215
0.16908699 -0.021960724 -0.059255891
0.17072247 -0.021960732 -0.05298382
0.18006867 -0.021960782 -0.051949233
0.19267775 -0.021960853 -0.055208039
0.20478919 -0.02196092 -0.053544324
0.29152563 -0.021962047 -0.056249045
0.33459577 -0.02653431 -0.056129605
0.34137791 -0.021807119 -0.059770592
0.37630227 -0.022288099 -0.051911049
-0.41181645 -0.013014213 -0.055524535
-0.39555261 -0.018163957 -0.052516825
0.40193415 -0.010825307 -0.058172986
-0.42304587 -0.0036139938 -0.058695517
-0.41481477 -0.0069793374 -0.053351376
0.41746125 -0.005097507 -0.059075661
0.4248473 -0.0069584856 -0.05432618
-0.44465402 0.0027591945 -0.056179546
0.44337946 0.0073762545 -0.052471153
0.45229644 0.0057443283 -0.05593545
0.45421392 0.012391048 -0.057782695
0.46764871 0.018458681 -0.056651521
-0.3585335 -0.02520813 -0.044410042
-0.34381109 -0.026320964 -0.041676633
-0.33595306 -0.024188669 -0.046216846
-0.31616145 -0.026518401 -0.043280065
-0.30311328 -0.026518401 -0.042303331
-0.29700023 -0.026518401 -0.043525625
-0.28367633 -0.026518401 -0.042409219
-0.27134606 -0.021958342 -0.046078712
-0.22648527 -0.026518401 -0.044170797
-0.18675026 -0.021958798 -0.040681459
-0.1669804 -0.024238657 -0.042521171
-0.037289515 -0.021959607 -0.046698507
-0.026869096 -0.021959662 -0.047574759
0.15905944 -0.021960668 -0.048114806
0.17150666 -0.021960735 -0.046561267
0.19970517 -0.021961253 -0.040747337
0.21940368 -0.021961302 -0.047980886
0.22958469 -0.021961648 -0.04148148
0.24249679 -0.021961644 -0.047263652
0.2704652 -0.021962065 -0.046370253
0.28564093 -0.02196246 -0.040602513
0.32857651 -0.022053057 -0.045566127
0.33288285 -0.022029806 -0.040476363
0.36943498 -0.023608323 -0.042543054
-0.39489973 -0.01597831 -0.045347899
-0.38910306 -0.019849915 -0.044096533
0.38677597 -0.01540885 -0.041215204
0.39553159 -0.012971599 -0.046720359
0.40250146 -0.013197977 -0.047505803
0.41235316 -0.012256867 -0.042675368
-0.42867255 -0.0011218012 -0.046174385
-0.41141561 -0.0082822479 -0.048157156
0.40586978 -0.009732563 -0.043037429
0.43289638 -0.0034302133 -0.042750403
-0.47932738 0.017102698 -0.047323551
-0.46529612 0.010735815 -0.048162181
0.45290372 0.011520807 -0.043637078
-0.37032932 -0.02365369 -0.035984308
-0.36427721 -0.024572602 -0.032036446
-0.34754807 -0.02382097 -0.032530297
-0.33461028 -0.024810079 -0.033005934
-0.32644343 -0.021958044 -0.030879686
-0.30006719 -0.021958187 -0.037470885
-0.29848239 -0.024238296 -0.034259107
-0.26631182 -0.026518401 -0.03585742
-0.21169049 -0.026518401 -0.037015788
-0.19136554 -0.026518401 -0.035067789
-0.18106449 -0.026518401 -0.032379456
-0.17487314 -0.021958863 -0.035740495
-0.16293852 -0.021958927 -0.032946959
-0.15434854 -0.023478782 -0.033115517
-0.076907456 -0.021959394 -0.036427848
-0.033245027 -0.021959629 -0.037281968
-0.018807784 -0.021959707 -0.030258257
0.011968039 -0.021959873 -0.039289318
0.057731412 -0.021960121 -0.039011031
0.065730795 -0.021960165 -0.030545266
0.10628003 -0.021960383 -0.034524769
0.19068953 -0.021961275 -0.036080681
0.21929026 -0.021961592 -0.038675785
0.26422548 -0.021962317 -0.035657227
0.28553689 -0.021962529 -0.03837622
0.29168251 -0.021962736 -0.034560375
0.32298487 -0.023108963 -0.032063082
0.34881604 -0.026019622 -0.03392024
0.35691875 -0.02069992 -0.039861798
0.36242172 -0.020080235 -0.039638728
-0.39665368 -0.017847478 -0.035798572
-0.37483549 -0.0182666 -0.039913662
0.38852245 -0.019745763 -0.035254832
0.42907116 -0.0054738643 -0.033764087
-0.44615707 0.0049002701 -0.031318486
0.43482262 0.0024069829 -0.034663372
0.44463497 0.0075918296 -0.034367669
-0.46094131 0.01450143 -0.035346456
0.44997635 0.010065715 -0.03707546
-0.3751148 -0.022849109 -0.023257641
-0.33994475 -0.026404262 -0.02237479
-0.30569157 -0.026518401 -0.020530924
-0.29517347 -0.026518401 -0.026776832
-0.28322494 -0.021958277 -0.025710449
-0.27070844 -0.021958344 -0.029263752
-0.22263819 -0.026518401 -0.022082642
-0.2089773 -0.026518401 -0.025763806
-0.19537303 -0.026518401 -0.02440466
-0.16878751 -0.021958895 -0.020830352
-0.15037727 -0.026518401 -0.021924399
-0.14880878 -0.021959003 -0.025478747
-0.13340785 -0.026518401 -0.028454613
-0.11730115 -0.021959174 -0.027129192
-0.10333927 -0.026518401 -0.025633886
-0.038227662 -0.021959603 -0.022124533
0.015038199 -0.021959892 -0.026676223
0.11337265 -0.021960557 -0.024647079
0.12966961 -0.021960629 -0.029502371
0.17396758 -0.021961238 -0.029834954
0.18584199 -0.021961633 -0.022656228
0.19620529 -0.021961614 -0.027798621
0.21620002 -0.021961993 -0.024658032
0.22802927 -0.021962063 -0.027666882
0.2792764 -0.021962985 -0.021135384
0.28894222 -0.021963002 -0.024881154
0.29540694 -0.021963209 -0.021228116
0.31300962 -0.021963246 -0.027818441
0.32441199 -0.022246987 -0.024826655
0.33502564 -0.02657559 -0.027547717
0.35423011 -0.021095853 -0.021138076
0.36354601 -0.024599394 -0.029346926
-0.40790212 -0.01434259 -0.022814725
-0.39521447 -0.015082605 -0.024104213
-0.38596657 -0.01591453 -0.021677
-0.36705843 -0.019536568 -0.020144973
0.37169141 -0.018754287 -0.028801437
0.39061967 -0.014684568 -0.022821102
0.4057312 -0.010052254 -0.024513025
-0.43774074 -0.0017882478 -0.026534326
0.40748531 -0.0094373263 -0.026434895
0.41663402 -0.0059888437 -0.027329717
-0.45766592 0.0072735581 -0.027076248
0.444767 0.0050530625 -0.024059936
-0.48177838 0.018214356 -0.02216132
0.46457523 0.010781951 -0.028893178
-0.48345751 0.024718296 -0.028221166
-0.47423637 0.020533852 -0.020326592
0.4879998 0.022120237 -0.022853563
-0.38009319 -0.021883406 -0.019600423
-0.34860808 -0.026037756 -0.014488965
-0.33143008 -0.021958016 -0.015257079
-0.31531656 -0.023478201 -0.014798072
-0.26555747 -0.026518401 -0.016767237
-0.25935167 -0.021958407 -0.012092253
-0.24201536 -0.024238449 -0.019028379
-0.20288198 -0.026518401 -0.016739324
-0.19460101 -0.021958757 -0.013997111
-0.18443644 -0.026518401 -0.017132141
-0.17130557 -0.021958882 -0.017367288
-0.15618671 -0.026518401 -0.012154389
-0.1429278 -0.021959037 -0.018381655
-0.10413739 -0.021959245 -0.011267919
-0.086591132 -0.026518401 -0.019644188
-0.025709828 -0.02195967 -0.012797398
-0.016790077 -0.021959718 -0.010870095
0.018480055 -0.021959908 -0.012183977
0.024931831 -0.021959942 -0.01793587
0.078457668 -0.021960236 -0.019319039
0.088591553 -0.02196056 -0.01354542
0.11266646 -0.021960981 -0.010862559
0.2265507 -0.021962527 -0.012320105
0.29067999 -0.021963488 -0.010277711
0.32681024 -0.022054259 -0.016054694
0.33603901 -0.024347652 -0.016737856
0.34600282 -0.024751121 -0.013383887
0.37311363 -0.023271244 -0.01273511
0.38150445 -0.021648113 -0.010605326
-0.41757023 -0.010808704 -0.017985471
-0.39226645 -0.014362022 -0.017016742
0.39541802 -0.013407364 -0.014970298
0.40059775 -0.016622987 -0.018712802
0.43189305 -0.0045868265 -0.010582279
-0.45052403 0.0040327189 -0.010251552
-0.44360149 0.0065276045 -0.017103098
0.43533272 0.0022613436 -0.015769392
-0.47096306 0.013307063 -0.013643989
0.46226823 0.015284841 -0.019010253
-0.36159986 -0.022582747 -0.0068598427
-0.3230933 -0.026518401 -0.00098963082
-0.31287169 -0.026518401 -0.0060682632
-0.28426656 -0.026518401 -0.0044404957
-0.25551784 -0.024238417 -0.0070813
-0.22442958 -0.026518401 -0.0020324606
-0.13653098 -0.02195907 -0.0091021433
-0.11638725 -0.026518401 -0.0042856261
-0.10599332 -0.021959236 -0.0059345104
-0.080193095 -0.021959376 -0.0018691951
-0.077732414 -0.026518401 -0.0045360243
-0.053107884 -0.026518401 -0.0090602981
0.0091096014 -0.021959858 -0.0070538521
0.019484995 -0.021959968 -0.0017270389
0.021922473 -0.021959927 -0.006010165
0.036168694 -0.021960143 -0.0035525113
0.10789076 -0.021961207 -0.0016714241
0.11406322 -0.021961151 -0.0061789551
0.1272528 -0.021961227 -0.0095945178
0.17023072 -0.021961842 -0.0091100447
0.1816975 -0.021962252 -0.0012154002
0.23407593 -0.021962758 -0.0083650295
0.28963098 -0.021963671 -0.0040662065
0.29114938 -0.02196352 -0.0094637536
0.30703476 -0.02196392 -0.0038135014
0.32438537 -0.022300512 -0.00010328088
0.33836073 -0.026557349 -0.0031160805
-0.40420121 -0.015581483 -0.0094112083
-0.39830518 -0.012626115 -0.0014075581
0.39483181 -0.016834633 -0.0079798531
0.40482306 -0.010657568 -0.0040695379
-0.43370289 -0.0037495925 -0.0034792349
-0.42526266 -0.0076248311 -0.0084748119
-0.41564548 -0.0066609364 -0.0085086571
0.43632817 -0.0024708582 -0.0077958032
-0.45998454 0.0083254827 -0.0045100227
-0.44104582 0.0051470841 -0.0011037495
0.43823984 0.0035450142 -0.0043758824
0.44707325 0.0041613937 -0.0071181967
-0.46111551 0.014580508 -0.0049334625
0.47479627 0.02065542 -0.0032259654
0.48903298 0.02490898 -0.0074358135
-0.36008531 -0.025040392 0.0079431199
-0.33733889 -0.024179216 0.0043440782
-0.32865661 -0.026518401 0.0061706193
-0.27891791 -0.021958299 0.0063306764
-0.25783649 -0.024998406 0.0058631883
-0.17528839 -0.021958862 0.0063783154
-0.14198959 -0.026518401 0.0043694749
-0.13781829 -0.026518401 0.0040892027
-0.12679519 -0.024998644 0.008520822
-0.092155501 -0.021959309 0.0043050759
-0.088521741 -0.026518401 0.0058432547
-0.064378083 -0.026518401 0.0013967962
-0.039936401 -0.021959592 3.4946948e-05
-0.01481916 -0.026518401 0.0029541478
0.012415397 -0.021960018 0.0029383178
0.027119987 -0.021960212 0.0026168439
0.057453468 -0.021960735 0.005731523
0.099929929 -0.021961424 0.0087529905
0.17715713 -0.021962341 0.003649734
0.18774129 -0.021962576 0.0063446276
0.20631403 -0.021962769 0.0042805988
0.23312841 -0.021963114 0.0033209706
0.24178447 -0.021963205 0.0024225079
0.25681067 -0.021963624 0.0090248622
0.31673771 -0.021964386 0.0066346065
-0.39703324 -0.017738387 0.0039109141
-0.37358814 -0.018511379 0.0077795982
0.38541532 -0.01626081 0.0064156959
0.39717925 -0.013133613 0.0027015433
-0.42612928 -0.0022770469 0.0025387667
-0.41329828 -0.0075606192 0.0072818222
-0.40809631 -0.0094667533 0.009033598
-0.44665319 0.0080180299 0.0067811199
0.4323827 0.00042493513 0.0036947243
0.45452908 0.0055892528 0.0038469899
-0.48115793 0.017933164 0.0029268563
0.4870877 0.026043184 0.006196599
-0.3791008 -0.02207822 0.010228448
-0.36999261 -0.023704812 0.010943588
-0.3467381 -0.024635017 0.013241805
-0.3319115 -0.021958012 0.014420331
-0.32062286 -0.021958075 0.010803625
-0.28296766 -0.021958278 0.015663698
-0.27149764 -0.02195834 0.01546835
-0.2565046 -0.026518401 0.013955403
-0.2403084 -0.021958509 0.015721872
-0.23499319 -0.024238469 0.018002536
-0.21689969 -0.026518401 0.018697329
-0.20693932 -0.026518401 0.01559361
-0.19720086 -0.021958742 0.010530714
-0.16392282 -0.024238672 0.017683893
-0.14197516 -0.026518401 0.016616035
-0.13792232 -0.026518401 0.010705803
-0.10856234 -0.024238812 0.015064918
-0.065699518 -0.021959452 0.010243854
-0.047634035 -0.021959595 0.016135493
0.03232494 -0.021960758 0.017533563
0.047658361 -0.021960886 0.014897466
0.11956779 -0.021962009 0.018667027
0.12158346 -0.021961987 0.017015513
0.1364191 -0.021962114 0.014456086
0.1427671 -0.021962211 0.014675647
0.16836663 -0.021962682 0.018291591
0.17499268 -0.021962661 0.014696846
0.18712145 -0.021962922 0.017605305
0.32497692 -0.023196571 0.017510822
0.35581517 -0.025714744 0.014661865
0.36420596 -0.024831431 0.018498205
-0.37559116 -0.018118307 0.014463207
-0.36767447 -0.019442972 0.016330633
0.39774302 -0.017871579 0.014645057
0.40235591 -0.011769561 0.015416598
0.41601515 -0.01180839 0.014441888
-0.43699577 0.002959331 0.014365586
-0.36199793 -0.022539768 0.025636949
-0.35161945 -0.025843058 0.021506995
-0.34499875 -0.024700141 0.023036681
-0.33456326 -0.022619763 0.021352649
-0.32159999 -0.026518399 0.026714047
-0.31662956 -0.026518399 0.028505325
-0.27448004 -0.021958323 0.026356468
-0.26540774 -0.021958373 0.028346956
-0.25315571 -0.026518401 0.025428412
-0.24736527 -0.026518401 0.029894814
-0.21222588 -0.02195866 0.020928934
-0.15209948 -0.026518401 0.025002025
-0.12956321 -0.021959107 0.022358239
-0.083924092 -0.021959357 0.022918332
-0.076093107 -0.021959536 0.026832676
-0.057397008 -0.021959607 0.020775251
-0.030647896 -0.021960167 0.02673788
-0.024335695 -0.026518401 0.02919147
-0.010176808 -0.026518401 0.022042442
-0.0012103133 -0.021960681 0.02997683
0.049130667 -0.026518401 0.027666666
0.065233521 -0.026518401 0.022657899
0.071467146 -0.024239939 0.023268674
0.092167757 -0.021961687 0.020447256
0.15296432 -0.021962784 0.028379256
0.18391587 -0.021963075 0.023869682
0.19623974 -0.021963131 0.02013791
0.20636122 -0.021963509 0.027652346
0.2101467 -0.021963364 0.021406319
0.24547023 -0.021964122 0.029726112
0.26423755 -0.021964317 0.027629424
0.2865316 -0.021964617 0.02727795
0.34753808 -0.026320215 0.021871241
0.3722949 -0.023648672 0.021448936
-0.39868531 -0.014890208 0.026722033
-0.38352811 -0.016491033 0.024529509
-0.37963557 -0.017324632 0.020068299
0.3842881 -0.016746556 0.025871711
0.39580473 -0.018563747 0.025196321
0.40384257 -0.013817081 0.026057811
0.41417092 -0.012691277 0.025027392
-0.45958772 0.0081453836 0.024278702
-0.44323713 0.0050831335 0.02472287
0.46113271 0.0081722839 0.024840346
-0.46994817 0.012846887 0.020166239
0.4647454 0.012722875 0.022681322
0.48097932 0.01714064 0.026270434
-0.3859072 -0.020621382 0.030812908
-0.36966652 -0.023754325 0.031194374
-0.35589141 -0.020905506 0.038919181
-0.34608686 -0.023134777 0.034009982
-0.33947217 -0.021852132 0.038904376
-0.31146252 -0.026518401 0.034179054
-0.29793549 -0.026518401 0.033289269
-0.27444661 -0.021958323 0.037889484
-0.23861529 -0.021958519 0.035892099
-0.22700977 -0.026518401 0.031736143
-0.21333365 -0.023478573 0.036362056
-0.20709111 -0.024238545 0.037507892
-0.19731933 -0.026518401 0.037049897
-0.17468424 -0.026518401 0.032586627
-0.16445433 -0.026518401 0.031428397
-0.15333453 -0.021958979 0.035171852
-0.14007287 -0.021959051 0.031014498
-0.11703005 -0.021959189 0.033999987
-0.087414071 -0.021959791 0.039891288
-0.059510708 -0.026518401 0.03308842
-0.040318035 -0.026518401 0.031662147
-0.01749599 -0.026518401 0.036990821
0.040824275 -0.026518401 0.03721923
0.05446827 -0.021961594 0.034232192
0.083405659 -0.026518401 0.035474345
0.10380431 -0.026518401 0.03948465
0.11025488 -0.026518401 0.035009868
0.21572568 -0.02196385 0.034247376
0.22304255 -0.02196401 0.036182709
0.26902482 -0.02196447 0.030379917
0.2732586 -0.021964729 0.036686841
0.28980941 -0.021965032 0.038983591
0.30976471 -0.021965275 0.037838053
0.31219193 -0.021965347 0.039004378
0.33060157 -0.021965351 0.031003855
0.34710103 -0.02640892 0.037348062
0.35408196 -0.023646835 0.036907777
-0.40411195 -0.010800513 0.037935805
-0.39262918 -0.01740065 0.037694354
-0.38836786 -0.017681092 0.033277258
-0.37293613 -0.018639326 0.033347603
0.36689132 -0.019961186 0.0358078
-0.43144274 -0.0048473943 0.033583652
-0.4250907 -0.0027273661 0.035863593
0.42597315 -0.0080500543 0.030039318
-0.46032161 0.0084783919 0.039890617
-0.4548462 0.0059939255 0.034664921
-0.44595879 0.0046919961 0.03570354
0.46289578 0.0087683247 0.035246331
-0.46211296 0.015032846 0.031763546
0.47099435 0.018192274 0.034642898
-0.48383665 0.021409951 0.039188057
0.48316216 0.020086048 0.039823882
-0.35538435 -0.025548538 0.046537708
-0.31078342 -0.026518401 0.047848292
-0.26841062 -0.021958359 0.042568639
-0.24228173 -0.0219585 0.041013964
-0.23998055 -0.026518401 0.040629204
-0.22752364 -0.021958577 0.048782252
-0.21015441 -0.021958673 0.04159376
-0.20692526 -0.024998495 0.048742246
-0.17106542 -0.021958884 0.043664511
-0.16217981 -0.02423867 0.04513409
-0.15811099 -0.021958955 0.041945219
-0.14866038 -0.021959113 0.045537502
-0.12299217 -0.024238976 0.044732325
-0.079196416 -0.021960143 0.047403291
-0.050558694 -0.021960486 0.045645341
-0.04269167 -0.021960486 0.042119253
-0.032961208 -0.026518401 0.049160693
-0.010903202 -0.026518401 0.045730822
0.0026457235 -0.021961316 0.048375785
0.016291156 -0.021961542 0.049464047
0.040664501 -0.021961724 0.044495426
0.066079989 -0.021962177 0.047567621
0.083326936 -0.023101324 0.044920858
0.094526798 -0.021962628 0.049229205
0.18926579 -0.021963838 0.045667656
0.20220551 -0.021964069 0.047207203
0.21229911 -0.021964232 0.047880903
0.23726007 -0.021964449 0.043754738
0.26902866 -0.021964896 0.043851674
0.28513587 -0.021965142 0.044479966
0.32357457 -0.021965692 0.044955842
0.35294604 -0.021481823 0.04264576
-0.40170711 -0.016394969 0.046556149
-0.3985281 -0.012562022 0.04817808
0.37711149 -0.018359067 0.043635793
0.39581519 -0.018863291 0.048734523
-0.42233729 -0.0088933883 0.042508125
-0.41573268 -0.0066275215 0.044309683
0.41779464 -0.0066903681 0.041313767
0.42466593 -0.0039361552 0.04562328
-0.46098983 0.0087815793 0.047234837
-0.44510639 0.0066769035 0.043555349
0.45868307 0.012464579 0.042178266
0.46455592 0.01509246 0.043937057
-0.4807114 0.022110295 0.045758151
-0.34044957 -0.021831114 0.050148524
-0.27111948 -0.021958342 0.051866695
-0.26552361 -0.026518401 0.057910908
-0.25141662 -0.021958448 0.055592868
-0.24421388 -0.02423845 0.054682788
-0.23810011 -0.026518401 0.058485165
-0.22963151 -0.026518401 0.056012344
-0.21737933 -0.026518401 0.052792326
-0.1841532 -0.026518401 0.056796718
-0.17454408 -0.024238784 0.055180401
-0.15920164 -0.021959199 0.052959837
-0.14443871 -0.026518401 0.051576771
-0.11996715 -0.02195983 0.055461131
-0.1025151 -0.026518401 0.05942519
-0.063335143 -0.021960657 0.056718826
-0.014543675 -0.026518401 0.050181653
0.010250092 -0.021961555 0.052501269
0.032683596 -0.026518401 0.058763478
0.076546177 -0.021962708 0.059699647
0.088380709 -0.026518401 0.056717791
0.13761443 -0.026518401 0.050312467
0.14734571 -0.02196352 0.054119386
0.150619 -0.026518401 0.056401625
0.1643777 -0.024241034 0.051863179
0.17882504 -0.026518401 0.056673158
0.25697732 -0.021964965 0.051398698
0.26563501 -0.021965211 0.055314962
0.27130109 -0.021965168 0.051462833
0.31337661 -0.021965928 0.056881502
0.32726061 -0.022696747 0.057243511
0.33462512 -0.02677238 0.058897763
0.34805763 -0.021835661 0.052476533
0.35207295 -0.021583751 0.054305218
-0.41421327 -0.012095468 0.050938193
-0.3941443 -0.018568762 0.059959747
-0.38671792 -0.015733119 0.057917602
-0.37570271 -0.018096417 0.052198105
-0.42759919 -0.0040952582 0.054180719
-0.40805405 -0.0094809094 0.056964748
0.40930682 -0.0099884914 0.052205093
0.42288706 -0.0049005672 0.055985756
0.44878665 0.0040424527 0.05809192
0.45501891 0.0047240769 0.05950553
0.46252948 0.0082547776 0.05305703
-0.47088063 0.019011298 0.059600521
-0.38535085 -0.020745661 0.067060173
-0.35616487 -0.025464168 0.067836255
-0.33435014 -0.022348875 0.066391118
-0.31055257 -0.026518401 0.06038836
-0.26297671 -0.021958387 0.062412757
-0.23332055 -0.026518401 0.061073605
-0.22183865 -0.026518401 0.066689439
-0.21109724 -0.026518401 0.067506172
-0.17095755 -0.026518401 0.060758561
-0.15652348 -0.026518403 0.069722511
-0.1472874 -0.021959629 0.061233051
-0.12596358 -0.021959908 0.060689881
-0.11251692 -0.026518401 0.064284697
-0.10896057 -0.026518401 0.069061965
-0.05030638 -0.021961145 0.066374421
-0.037275895 -0.021961266 0.064405642
-0.02386388 -0.026518401 0.069531016
0.001586467 -0.026518401 0.06133996
0.034942918 -0.021962253 0.063771725
0.046225172 -0.026518401 0.065896839
0.083731994 -0.024240721 0.065875418
0.12685734 -0.026518401 0.064071395
0.1588873 -0.021964129 0.068292178
0.20294571 -0.021964731 0.067869522
0.25530061 -0.021965403 0.065920025
0.2646898 -0.021965485 0.064358935
0.27452439 -0.021965578 0.062984489
0.32967788 -0.026894387 0.06612926
0.35609865 -0.02136717 0.065345064
0.36590448 -0.024919713 0.066531137
0.37784812 -0.023089141 0.068228573
-0.40668666 -0.014749467 0.061811559
-0.39617926 -0.013237244 0.062324665
-0.38465157 -0.016232014 0.067218408
-0.36539879 -0.019788725 0.065938018
0.37774003 -0.01842924 0.064678043
-0.42259312 -0.0071203266 0.063228637
-0.43834138 0.0036861901 0.064357758
-0.4626694 0.015285259 0.061789297
0.47103828 0.011888416 0.064476863
-0.38839859 -0.020019978 0.072453238
-0.37658697 -0.022571722 0.075282261
-0.3650336 -0.024457756 0.073469378
-0.34672856 -0.021588512 0.07087943
-0.33269745 -0.024238206 0.075539142
-0.32947993 -0.021958027 0.075576544
-0.28354922 -0.021958275 0.074034661
-0.26317275 -0.024238452 0.074303627
-0.25596398 -0.026518401 0.074958518
-0.21920057 -0.021958971 0.072242238
-0.19833317 -0.021959499 0.079765111
-0.14551398 -0.021960098 0.07536412
-0.10838229 -0.021960752 0.079575554
-0.06582845 -0.021961223 0.075708821
-0.051279269 -0.026518401 0.071084082
-0.032527283 -0.021961512 0.070114017
-0.02699703 -0.026518401 0.075138494
-0.013762712 -0.02196192 0.074752912
0.0067911819 -0.024240285 0.075265974
0.01502648 -0.021962427 0.077967994
0.022033095 -0.021962468 0.076183431
0.039255552 -0.026518401 0.07885842
0.045490094 -0.026518401 0.07581339
0.052333497 -0.021962861 0.075258777
0.1021932 -0.026518401 0.072931439
0.11773043 -0.021963788 0.075679749
0.12414993 -0.021963766 0.072111376
0.14651003 -0.024241382 0.075468726
0.15174302 -0.026518401 0.072100468
0.19947021 -0.021964969 0.07690727
0.2055921 -0.026518401 0.079605184
0.22391224 -0.024241824 0.072930925
0.24588315 -0.026518401 0.075453445
0.2565504 -0.021965738 0.076058105
0.27195373 -0.026518401 0.078128703
0.28482506 -0.021965992 0.071558177
0.32937768 -0.021966595 0.07092493
0.33752015 -0.022177676 0.072627306
0.34305716 -0.025104502 0.074286669
0.35339388 -0.021567743 0.072009921
0.37419984 -0.023722941 0.070459895
0.38909718 -0.020771798 0.070594922
-0.40397123 -0.010847616 0.078460261
-0.3855879 -0.016005946 0.071791492
0.40689325 -0.01106682 0.070622787
0.42061725 -0.011127965 0.079225838
-0.4287883 -0.0010655614 0.074039198
0.42526865 -0.0092404587 0.077334695
0.43444663 -0.0026706175 0.078716747
-0.45038104 0.003967749 0.073625915
0.46067113 0.0070345718 0.072415374
-0.45233244 0.010594811 0.0785603
-0.37758279 -0.022376237 0.086865909
-0.31363913 -0.021958113 0.085231476
-0.30649772 -0.021958172 0.085553661
-0.29677606 -0.026518401 0.082210712
-0.25569996 -0.021958919 0.086702183
-0.24140137 -0.021959061 0.08489798
-0.23336133 -0.021959251 0.087359376
-0.21217038 -0.021959383 0.082210645
-0.14424735 -0.021960346 0.082653612
-0.13221425 -0.024239507 0.084090933
-0.11755872 -0.026518401 0.085239165
-0.1067036 -0.021960976 0.085901782
-0.099365987 -0.021960964 0.082290649
-0.088126294 -0.026518401 0.083119117
-0.075456567 -0.024239887 0.085848808
-0.058020458 -0.021961741 0.088664323
-0.048450723 -0.021961873 0.088576034
-0.036794495 -0.026518401 0.087049499
-0.029559821 -0.026518401 0.080064222
-0.014328077 -0.021962393 0.089917414
0.0067467391 -0.021962466 0.08290913
0.029483125 -0.026518401 0.080505311
0.036125101 -0.026518401 0.084998146
0.04448529 -0.021963064 0.085115835
0.066413179 -0.026518401 0.08619988
0.075736448 -0.021963397 0.081863083
0.096664257 -0.021963634 0.080152571
0.1270092 -0.021964062 0.080259681
0.14644898 -0.025000468 0.084641315
0.15945767 -0.026518401 0.08042483
0.16074954 -0.021964554 0.080927677
0.19347751 -0.026518401 0.084457517
0.21383898 -0.021965474 0.086492643
0.22894935 -0.021965722 0.087710254
0.23432863 -0.021965832 0.088828951
0.24048589 -0.021965852 0.086740792
0.26293346 -0.026518401 0.089373045
0.27278429 -0.026518401 0.086627059
0.28384319 -0.026518401 0.086197026
0.29049191 -0.021966629 0.089202404
0.33649653 -0.022703627 0.082081594
0.34434426 -0.02662674 0.08763849
0.36656266 -0.024927691 0.080505624
-0.41817445 -0.010577095 0.088551521
0.40404868 -0.014851128 0.086402386
-0.44421592 0.0016749792 0.080674611
-0.36395207 -0.020008534 0.092185266
-0.3480078 -0.024170237 0.09240482
-0.30187458 -0.025538273 0.092484899
-0.259141 -0.026518401 0.091067553
-0.24114156 -0.024719164 0.092484899
-0.23988236 -0.026518401 0.092306286
-0.2257701 -0.023517272 0.092484891
-0.20651716 -0.022190161 0.092484899
-0.18497127 -0.025673611 0.092484899
-0.15068913 -0.025953732 0.092484899
-0.13367492 -0.025587356 0.092484899
-0.10557515 -0.026300751 0.0917124
-0.091452017 -0.026518401 0.090826057
-0.070158325 -0.022988167 0.092484899
-0.068337649 -0.023285378 0.092377782
-0.05203563 -0.02296165 0.092484899
-0.02008355 -0.024657559 0.092484899
0.046919663 -0.026397055 0.092212401
0.079040885 -0.026518401 0.091094986
0.086840346 -0.026518401 0.092347249
0.20090038 -0.022340903 0.092484891
0.25273314 -0.02196615 0.090762213
0.31047741 -0.021966988 0.091750689
0.33778611 -0.022214266 0.092010215
0.34324318 -0.023735963 0.091438666
0.3690449 -0.020973656 0.090904251
0.38111147 -0.020841157 0.090419777
-0.39275217 -0.018968893 0.092192948
-0.38713753 -0.019550197 0.092484899
-0.43152672 -0.0024799807 0.092484899
-0.41002125 -0.0093745403 0.092484899
-0.43792105 0.0034591579 0.092473879
