# .PCD v0.7 - Point Cloud Data file format
VERSION 0.7
FIELDS x y z
SIZE 4 4 4
TYPE F F F
COUNT 1 1 1
WIDTH 914
HEIGHT 1
VIEWPOINT 0 0 0 1 0 0 0
POINTS 914
DATA ascii
-0.29705781 -0.0296102 -0.15580949
-0.23741375 -0.0296102 -0.15510704
-0.22309262 -0.022717869 -0.15591398
-0.18662891 -0.020265974 -0.15591399
-0.17589295 -0.023606325 -0.15591399
-0.13092317 -0.021844253 -0.15591399
-0.08876621 -0.0296102 -0.15475377
-0.059203759 -0.029610202 -0.15542826
0.11887591 -0.0296102 -0.15276249
0.13803966 -0.020974522 -0.15591399
0.17745563 -0.023430157 -0.15591399
0.18948914 -0.029610202 -0.15503581
0.27533054 -0.020518677 -0.15591401
0.3052541 -0.020997841 -0.15591399
0.32300264 -0.020789275 -0.15563709
-0.32505429 -0.016537966 -0.15569599
-0.24908414 -0.018571701 -0.15087496
-0.09448278 -0.018571701 -0.15211648
-0.045395687 -0.018571701 -0.15445274
0.0043388754 -0.018571701 -0.15314025
0.034091577 -0.018571701 -0.15056425
0.25346887 -0.018571699 -0.15047412
0.2682769 -0.018571701 -0.15494964
0.34024975 -0.0157234 -0.15354824
-0.23217461 -0.0296102 -0.14148016
-0.21167357 -0.029610202 -0.14030193
-0.18766414 -0.0296102 -0.14475749
-0.078000642 -0.029610198 -0.14757134
0.018382937 -0.0296102 -0.14031065
0.09066233 -0.0296102 -0.1425067
0.11832815 -0.0296102 -0.1460273
0.1663918 -0.0296102 -0.14070143
0.20004743 -0.0296102 -0.14480565
0.23265566 -0.0296102 -0.14388096
0.35343543 -0.020635586 -0.142471
-0.37456405 -0.01159355 -0.14063752
-0.076159447 -0.018571701 -0.14517884
0.06097541 -0.018571701 -0.14583133
0.096688204 -0.018571701 -0.14591992
0.30812895 -0.018571701 -0.14207168
0.36853915 -0.011092357 -0.14813603
0.37104973 -0.014912146 -0.14761761
-0.37815619 -0.0018810007 -0.14399034
-0.3529973 -0.0063972306 -0.14882994
0.35116172 -0.0091875028 -0.14124286
0.37411061 -0.0017305838 -0.14358312
-0.3855117 0.00050080824 -0.14122488
-0.2731497 -0.0296102 -0.13448544
-0.16809511 -0.029610198 -0.13540012
-0.055148557 -0.029610202 -0.13198569
0.033492573 -0.0296102 -0.13411641
0.070803724 -0.029610198 -0.13907109
0.22866996 -0.0296102 -0.13021597
0.28501689 -0.029610198 -0.13831085
0.35506904 -0.020104773 -0.1395532
-0.31188872 -0.015931468 -0.13485694
-0.23294997 -0.018571701 -0.13455591
-0.22783871 -0.018571701 -0.13837855
-0.21827957 -0.018571701 -0.13727303
-0.073681898 -0.018571701 -0.13949887
-0.064580001 -0.018571701 -0.13529179
0.086596034 -0.018571701 -0.13105607
0.14850639 -0.018571701 -0.13763648
0.20443206 -0.018571701 -0.13848233
0.28124154 -0.018571701 -0.13083744
0.30814981 -0.018571701 -0.133504
-0.4028672 -0.0042569083 -0.13086337
-0.37000573 -0.0024525407 -0.13149536
-0.36641204 -0.0032860155 -0.13012871
-0.39818078 0.0040820753 -0.13010326
-0.31972706 -0.024311798 -0.12906756
-0.22262418 -0.029610202 -0.12157215
-0.054635644 -0.029610198 -0.12902763
-0.03782016 -0.029610198 -0.12084725
0.10327879 -0.0296102 -0.12496568
0.14237988 -0.029610202 -0.12304436
0.27844784 -0.0296102 -0.12695611
0.31893694 -0.0296102 -0.12160783
-0.37023252 -0.012598174 -0.12111841
-0.35719782 -0.015621344 -0.12692831
-0.2859121 -0.018571701 -0.12382298
-0.2236349 -0.018571701 -0.12095229
-0.15670139 -0.018571701 -0.12376846
-0.11547005 -0.018571701 -0.12390765
-0.095407896 -0.018571701 -0.126303
0.032669649 -0.018571701 -0.12068356
0.06753096 -0.018571701 -0.12989154
0.14135845 -0.018571701 -0.12392332
0.15081599 -0.018571701 -0.1277713
0.19051561 -0.018571701 -0.12775564
0.20488064 -0.018571701 -0.12550089
0.25780556 -0.018571701 -0.12430856
0.3004449 -0.018571701 -0.12164125
0.40328693 0.0069168629 -0.12968464
0.41368085 0.0089572733 -0.12161581
-0.3104164 -0.02647116 -0.11255297
-0.2978572 -0.026942417 -0.11317404
-0.25172803 -0.0296102 -0.11762243
-0.18558906 -0.029610198 -0.11981889
-0.16612107 -0.0296102 -0.11496279
-0.018090561 -0.029610198 -0.1186159
0.001720123 -0.0296102 -0.119806
0.065809719 -0.0296102 -0.11902553
0.086452 -0.029610202 -0.11407806
0.23899136 -0.0296102 -0.11533371
-0.30537087 -0.017443154 -0.1106573
-0.29682073 -0.018571701 -0.1155348
-0.27506918 -0.018571701 -0.11562286
-0.22316296 -0.018571701 -0.11079258
-0.16149905 -0.018571701 -0.11102844
-0.12002549 -0.018571701 -0.11588116
-0.092184201 -0.018571701 -0.11120969
-0.002380617 -0.018571701 -0.11549975
0.022554651 -0.018571701 -0.11295228
0.21704157 -0.018571701 -0.11096844
0.23307087 -0.018571701 -0.1117534
0.24026358 -0.018571701 -0.11449987
0.27287215 -0.018571701 -0.11696593
0.28022987 -0.018571701 -0.11265828
0.34405589 -0.011496479 -0.11773428
-0.39530563 -0.0067829699 -0.11124828
0.39357653 -0.0075924709 -0.11411888
0.41594076 -0.00032540358 -0.11194052
-0.3930479 0.0028915941 -0.11108103
0.38453919 0.0016580045 -0.11461854
-0.31035268 -0.026485933 -0.10422232
-0.29995719 -0.026743507 -0.10063427
-0.18618992 -0.0296102 -0.10968287
-0.16310027 -0.0296102 -0.100941
-0.083742954 -0.029610198 -0.10614104
-0.044265471 -0.029610198 -0.10139322
-0.035226971 -0.0296102 -0.10966059
0.02703581 -0.029610198 -0.1048798
0.046865299 -0.029610202 -0.10468633
0.081930943 -0.0296102 -0.10065255
0.17197299 -0.0296102 -0.10583166
0.18422231 -0.0296102 -0.10116068
0.20890951 -0.0296102 -0.10520726
0.24322236 -0.0296102 -0.10552812
-0.3334192 -0.010937936 -0.1083582
-0.31240344 -0.015812097 -0.10676919
-0.22843623 -0.018571701 -0.10187229
-0.21250872 -0.018571701 -0.10322025
-0.17303705 -0.018571701 -0.10700526
-0.10542411 -0.018571701 -0.10368013
-0.096684605 -0.018571701 -0.1089966
-0.075877979 -0.018571701 -0.10728846
-0.053516507 -0.018571701 -0.10161531
-0.004724279 -0.018571701 -0.10093452
0.16531165 -0.018571701 -0.10938326
0.19917598 -0.018571701 -0.10405034
-0.40850523 -0.00372164 -0.1048988
0.36090311 -0.0060221404 -0.10151556
-0.42922744 0.0017356006 -0.10936002
0.38217056 0.00088836986 -0.10851083
0.40234455 0.0074435375 -0.10735096
0.42081198 0.001257466 -0.10055406
-0.42476839 0.010248488 -0.10042082
0.42868426 0.016002068 -0.10325292
-0.29862207 -0.025777427 -0.092925683
-0.23997787 -0.0296102 -0.094355881
-0.15054895 -0.029610198 -0.095137753
-0.1108375 -0.0296102 -0.093182214
0.08921206 -0.029610198 -0.093025416
0.10866112 -0.0296102 -0.0977249
0.14310457 -0.0296102 -0.098413467
0.29941493 -0.0296102 -0.098590225
-0.26508752 -0.018571701 -0.097569391
-0.25431159 -0.018571701 -0.092095524
-0.18571621 -0.018571701 -0.09109509
-0.098338872 -0.018571701 -0.098706499
0.19899575 -0.018571701 -0.094902568
0.237616 -0.018571701 -0.09590821
0.26375279 -0.018571701 -0.099548914
0.32799178 -0.016716355 -0.097318217
0.33126459 -0.015652888 -0.095636711
-0.37052006 -0.0023332597 -0.097289771
-0.36855781 -0.0027883542 -0.095702589
-0.33783296 -0.009914252 -0.094091952
0.35131484 -0.009137759 -0.095944002
0.38955086 -0.0089005344 -0.090978995
0.42387408 0.0022524844 -0.098589554
-0.32405385 -0.023308316 -0.087352753
-0.29933912 -0.029166419 -0.089648299
-0.22427066 -0.0296102 -0.087422997
-0.18893746 -0.0296102 -0.080120534
-0.17399886 -0.0296102 -0.080255255
-0.10126171 -0.029610198 -0.082884699
-0.088496 -0.0296102 -0.080578029
-0.0021760315 -0.029610198 -0.088153459
0.02591531 -0.0296102 -0.089855671
0.078972012 -0.029610198 -0.086361699
0.084707685 -0.029610202 -0.08120276
0.1406627 -0.0296102 -0.089570083
0.19915271 -0.0296102 -0.082045637
0.26884562 -0.0296102 -0.085899085
0.32504609 -0.029598009 -0.084043317
-0.30653474 -0.017173214 -0.080244727
-0.24152142 -0.018571701 -0.088261396
-0.19963905 -0.018571701 -0.080042675
-0.17703244 -0.018571701 -0.082682252
-0.036683731 -0.018571701 -0.086230546
-0.013987489 -0.018571701 -0.082545795
0.030067235 -0.018571701 -0.081104837
0.15997124 -0.018571701 -0.086669356
0.25023457 -0.018571701 -0.089825973
0.27288797 -0.018571701 -0.084800363
0.36502063 -0.016871192 -0.084685519
0.38663673 -0.0098474361 -0.086152963
-0.4474498 0.0073944819 -0.085391276
0.40524158 0.0083848555 -0.081417717
-0.42678532 0.010716227 -0.082066603
-0.298062 -0.024796154 -0.079534411
-0.24464761 -0.029610202 -0.077198856
-0.16882502 -0.0296102 -0.071385808
-0.13496605 -0.0296102 -0.075190261
-0.088054702 -0.0296102 -0.077109337
-0.065950841 -0.029610198 -0.071388647
-0.039326772 -0.029610202 -0.078648381
-0.00094304979 -0.0296102 -0.074592017
0.016725749 -0.0296102 -0.078924917
0.16579625 -0.0296102 -0.078822762
0.17205493 -0.0296102 -0.073598795
-0.30426702 -0.017699163 -0.072522141
-0.23594262 -0.018571701 -0.07711073
-0.22631888 -0.018571701 -0.072479077
-0.16171598 -0.018571701 -0.074553579
0.014692828 -0.018571701 -0.076856852
0.09658803 -0.018571701 -0.079433411
0.22907582 -0.018571701 -0.074168287
0.26519459 -0.018571701 -0.070591211
0.30877891 -0.018571701 -0.073742613
0.35910925 -0.018791988 -0.078565694
-0.38176501 -0.0099234208 -0.076598406
0.35581636 -0.0076750279 -0.071605168
0.36330068 -0.0052430942 -0.070866704
0.4043119 -0.0041041467 -0.075986661
-0.45268241 0.0065242238 -0.077374861
-0.40502089 0.0056685214 -0.075756937
-0.39031583 0.002257948 -0.072927788
0.38550436 0.0019716267 -0.076853245
-0.4436501 0.014627323 -0.070372768
-0.4248881 0.010276244 -0.079759575
0.41174799 0.010498976 -0.071569897
0.44217813 0.020386769 -0.079208687
-0.2602815 -0.0296102 -0.061159812
-0.22546193 -0.0296102 -0.061881263
-0.099455528 -0.029610198 -0.069124833
-0.064265065 -0.0296102 -0.068237007
-0.040780559 -0.0296102 -0.061121579
-0.0058937296 -0.029610198 -0.06088604
0.0099196434 -0.029610202 -0.066084243
0.038858607 -0.029610202 -0.068097398
0.11779166 -0.029610198 -0.063973859
0.25653699 -0.0296102 -0.06460619
0.2611925 -0.0296102 -0.061120253
0.35171336 -0.02119513 -0.062153075
-0.35571384 -0.015965527 -0.066272296
-0.32964885 -0.011812382 -0.064687669
-0.26424673 -0.018571701 -0.066755593
-0.19056949 -0.018571701 -0.068180338
0.017853446 -0.018571701 -0.06784147
0.051352382 -0.018571701 -0.063141286
0.14037214 -0.018571701 -0.066700764
0.16443402 -0.018571701 -0.064824164
0.1763382 -0.018571701 -0.067330629
0.18728799 -0.018571701 -0.064776003
0.2802327 -0.018571701 -0.060331307
0.29210991 -0.018571701 -0.064800702
0.38083822 -0.011731565 -0.065709129
-0.38404378 -0.0093948971 -0.066487968
-0.36220327 -0.0042621405 -0.069511369
0.38635221 -0.0099398736 -0.062809244
0.40870816 -0.0026756106 -0.069176413
-0.4596265 0.0081348652 -0.061781947
0.39556742 0.0052414499 -0.060652867
0.42330456 0.0020674248 -0.063056245
0.45744899 0.015213959 -0.065056168
0.44340801 0.020786397 -0.066679284
-0.21749751 -0.029610198 -0.051413953
-0.20106584 -0.029610202 -0.053060658
-0.12594175 -0.029610198 -0.059016749
-0.11513416 -0.029610202 -0.054075181
-0.023892216 -0.029610198 -0.05137914
0.067970999 -0.0296102 -0.059316486
0.1291817 -0.0296102 -0.055162836
0.16949847 -0.0296102 -0.055916928
0.22297856 -0.0296102 -0.05379992
0.26315251 -0.0296102 -0.057533249
0.32305163 -0.020940101 -0.053064197
-0.37914324 -0.010531486 -0.058581017
-0.17071663 -0.018571701 -0.05538059
-0.083696298 -0.018571701 -0.050830133
-0.073169857 -0.018571701 -0.055395167
-0.056857377 -0.018571701 -0.059876844
-0.0059755743 -0.018571701 -0.054674923
0.17959306 -0.018571701 -0.059677035
0.23308949 -0.018571701 -0.056099582
-0.40438807 -0.0046765199 -0.057286963
-0.37522566 -0.0012419068 -0.053106621
-0.39640832 0.0036709839 -0.05616077
-0.46496493 0.010906671 -0.050203096
0.41331664 0.011008676 -0.058134101
0.44878072 0.010345671 -0.059214242
-0.29794842 -0.0296102 -0.042111147
-0.26584786 -0.029610198 -0.04176702
-0.2331375 -0.0296102 -0.042236455
-0.18435124 -0.029610198 -0.048429482
-0.1195951 -0.029610198 -0.049823575
-0.064675003 -0.0296102 -0.044548336
-5.3148717e-05 -0.029610202 -0.041950114
0.08408951 -0.029610198 -0.040586919
0.13465729 -0.029610198 -0.042582843
0.15817066 -0.029610202 -0.047277652
0.17651784 -0.0296102 -0.044640273
0.27404344 -0.0296102 -0.047405247
0.32290426 -0.020486597 -0.040899906
-0.37455034 -0.011596732 -0.042100519
-0.275419 -0.018571701 -0.04916583
-0.26299828 -0.018571701 -0.045728151
-0.18108301 -0.018571701 -0.045191195
-0.11716328 -0.018571701 -0.040129416
-0.068338215 -0.018571701 -0.043306928
0.022719443 -0.018571701 -0.041744906
0.19678514 -0.018571701 -0.048834205
0.32128248 -0.018571701 -0.048811112
0.33661127 -0.013915543 -0.041231867
-0.36384422 -0.0038815581 -0.049568847
-0.35870641 -0.0050731488 -0.046292946
-0.34451413 -0.0083647035 -0.048042048
-0.44253367 0.004170428 -0.043247744
-0.40670615 0.0060593877 -0.040340424
-0.44600475 0.015173385 -0.043508247
0.45243359 0.011532631 -0.040954959
-0.29987663 -0.02897964 -0.034152664
-0.21056171 -0.0296102 -0.039116308
-0.15218645 -0.0296102 -0.0318598
-0.14749758 -0.029610198 -0.036465622
-0.057692319 -0.029610202 -0.035174102
0.01524069 -0.0296102 -0.030770827
0.042543445 -0.029610202 -0.038301699
0.2031168 -0.0296102 -0.039466508
0.22212353 -0.0296102 -0.034619194
0.25571638 -0.029610202 -0.037434526
0.31505933 -0.029610202 -0.035484869
-0.29732516 -0.018571701 -0.03043551
-0.26940477 -0.018571701 -0.035806179
-0.14341752 -0.018571701 -0.032929163
-0.10088722 -0.018571701 -0.031619627
-0.043741591 -0.018571701 -0.035256706
-0.036255829 -0.018571701 -0.036284912
0.26601285 -0.018571701 -0.036283761
0.31659544 -0.018571701 -0.038494639
0.36968607 -0.015355244 -0.037210617
-0.36314803 -0.0040430203 -0.031567812
0.3748861 -0.0014786039 -0.032263055
-0.38311142 0.00058701186 -0.034408603
0.42538801 0.0027444309 -0.039776955
-0.44462147 0.014852598 -0.035848044
-0.30321106 -0.028142242 -0.021644302
-0.29725689 -0.029610198 -0.024969468
-0.26811874 -0.029610202 -0.026599614
-0.23420379 -0.0296102 -0.022538867
-0.22445267 -0.029610202 -0.024705663
-0.13571274 -0.0296102 -0.028888322
-0.093764439 -0.029610198 -0.028517082
0.039356276 -0.029610198 -0.021868378
0.047292039 -0.029610202 -0.027399946
0.053083234 -0.029610202 -0.024197415
0.14506523 -0.0296102 -0.028142098
0.20960087 -0.0296102 -0.023101356
0.24400288 -0.029610198 -0.026534496
0.31856465 -0.0296102 -0.02499409
0.32537633 -0.024646107 -0.022428308
-0.31544209 -0.015107347 -0.025246978
-0.30153316 -0.018333219 -0.024423383
-0.28492093 -0.018571701 -0.026357144
-0.17504257 -0.018571701 -0.028847795
-0.12989348 -0.018571701 -0.027271699
0.055415608 -0.018571701 -0.023153123
0.11402418 -0.018571701 -0.025468742
0.28998685 -0.018571701 -0.029956296
-0.35457036 -0.0060324073 -0.022810522
-0.45113838 0.006166094 -0.021089986
-0.42197692 0.0096011162 -0.0275262
0.38017994 0.0002415427 -0.021543175
0.39334771 0.0045201932 -0.022183966
0.44516635 0.021357764 -0.023931134
-0.27861261 -0.029610202 -0.019206896
-0.23839808 -0.029610198 -0.013462204
-0.08582136 -0.029610198 -0.014929748
-0.07793732 -0.029610202 -0.014230606
0.0065932125 -0.0296102 -0.013958573
0.16245157 -0.0296102 -0.016082849
0.20355012 -0.0296102 -0.015011881
-0.36332402 -0.01420048 -0.011822172
-0.27997437 -0.018571701 -0.013524981
-0.2211161 -0.018571701 -0.014413666
-0.20148182 -0.018571701 -0.016638558
-0.01450181 -0.018571701 -0.010902271
-0.0033514863 -0.018571701 -0.016790595
0.015201233 -0.018571701 -0.018005399
0.067165822 -0.018571701 -0.012011462
0.091526464 -0.018571701 -0.014297541
0.12682338 -0.018571701 -0.016125055
0.15676783 -0.018571701 -0.014751174
0.24800698 -0.018571701 -0.011220885
0.37303907 -0.014265749 -0.013890447
0.41286379 -0.0013252541 -0.012552381
-0.45305839 0.0066114343 -0.019187348
-0.41372856 0.007688107 -0.016928341
0.38436612 0.0016017675 -0.018618215
0.4170658 4.0166778e-05 -0.017696138
0.44628471 0.0095346188 -0.01861636
-0.44558904 0.015076979 -0.016493674
0.44369724 0.020880381 -0.010058952
-0.32073629 -0.024077736 -0.0098043829
-0.21776426 -0.029610198 -0.0024446156
-0.19375551 -0.029610198 -0.0020874273
-0.13894509 -0.0296102 -0.0068577826
-0.10718697 -0.0296102 -0.0090629198
0.046904281 -0.0296102 -0.0080969483
0.089481354 -0.029610202 -0.003908474
0.10559841 -0.029610198 -0.0067452956
0.1160178 -0.0296102 -0.0060007833
0.28352058 -0.029610198 -0.0050767316
0.29389906 -0.0296102 -0.0096988529
0.32566136 -0.028970873 -0.0066234022
-0.30513537 -0.017497767 -0.0037863329
-0.23707181 -0.018571701 -0.0056221485
-0.087664746 -0.018571701 -0.0085414723
-0.020087168 -0.018571701 -0.0050922409
0.11878294 -0.018571701 -0.00022713095
0.14230435 -0.018571701 -0.0076959059
0.16096663 -0.018571701 -0.0060102493
0.17430934 -0.018571701 -0.0084579326
0.19438234 -0.018571701 -0.0079872217
0.24311325 -0.018571701 -0.0056739077
0.30449224 -0.018571701 -0.0078234673
-0.37224704 -0.0019327232 -0.0052537881
0.36366716 -0.0051240055 -0.0042719599
-0.44609427 0.0049962238 -0.0068194875
-0.42054406 0.0092688166 -0.0087391362
-0.38146222 0.00020451105 -0.0038697943
-0.46791998 0.010058473 -0.0069621289
-0.43583459 0.012814834 -0.0031977147
0.45471764 0.024461269 -0.0094886227
0.46986547 0.028009132 -0.0088047152
-0.24155006 -0.0296102 0.0031207688
-0.19432417 -0.029610202 0.00049916469
-0.16336633 -0.0296102 0.0031279474
-0.12019269 -0.029610198 0.0067390464
-0.080103688 -0.029610198 0.0016688369
-0.075273596 -0.029610198 0.0035644993
0.039009638 -0.0296102 0.0085880756
0.049194634 -0.029610198 0.006358318
0.20507136 -0.029610198 0.0054361187
0.21677929 -0.0296102 0.0038892981
0.22193162 -0.0296102 0.0077442862
0.2498534 -0.029610202 0.0024021026
0.32228199 -0.02033834 0.0036752634
-0.25673872 -0.018571701 0.0047599301
-0.24813026 -0.018571701 0.0078660101
-0.23612303 -0.018571701 0.0030585341
-0.16053605 -0.018571701 0.0056276843
-0.083061963 -0.018571701 0.00025787205
-0.033213362 -0.018571701 0.0070419237
0.0099385343 -0.018571701 0.0066411123
0.025985293 -0.018571701 0.0099532148
0.10170301 -0.018571701 0.0071858987
0.12361984 -0.018571701 0.0061724
0.22826198 -0.018571701 0.0078821089
0.29130346 -0.018571701 0.0094823558
-0.36188743 -0.0043353853 0.006488651
0.35260025 -0.0087200804 0.0050964914
-0.45050246 0.0060185976 0.0086553767
0.40222311 0.0074040811 0.0037905127
-0.47044408 0.010643897 0.0065868217
-0.4399159 0.013761319 0.00098102912
0.45386899 0.011999056 0.0041342927
0.4699468 0.017223362 0.0079620499
-0.46807349 0.020291967 0.0038767331
-0.25402522 -0.029610202 0.014952391
-0.18207525 -0.029610202 0.014171839
-0.16058956 -0.0296102 0.012811143
-0.10797261 -0.029610198 0.017941233
-0.083417244 -0.0296102 0.013384689
-0.011445314 -0.0296102 0.01646594
0.052022614 -0.0296102 0.019847101
0.062305741 -0.0296102 0.018584117
0.16490406 -0.0296102 0.013018322
0.21883278 -0.029610198 0.012573607
0.26470327 -0.029610202 0.017027281
0.27956039 -0.0296102 0.014648855
0.29452276 -0.029610202 0.013512852
-0.24199218 -0.018571701 0.011148654
-0.16981639 -0.018571701 0.015526831
-0.14657171 -0.018571701 0.017857121
-0.073482364 -0.018571701 0.017710879
0.0096373828 -0.018571701 0.014108783
0.012451149 -0.018571701 0.012951989
0.089031547 -0.018571701 0.019848235
0.093225926 -0.018571701 0.010774221
0.11989934 -0.018571701 0.016308896
0.13362896 -0.018571701 0.018971484
0.14279069 -0.018571701 0.015367255
0.27753279 -0.018571701 0.012505058
0.31413531 -0.018571701 0.011288055
0.32941017 -0.016255461 0.015473429
0.34475404 -0.011269623 0.011607261
0.35059312 -0.0093722679 0.016597182
-0.4460122 0.0049771806 0.013131581
-0.41425359 0.0078098839 0.013761841
-0.39946571 0.0043800916 0.013201788
0.38022631 0.00025661127 0.01197011
0.41946828 0.00082084117 0.01768174
0.44069713 0.0077189929 0.019654393
-0.46361989 0.019259013 0.01420892
0.4154284 0.011694843 0.016183201
-0.3041212 -0.027931167 0.022988068
-0.29677603 -0.0296102 0.021437436
-0.24071938 -0.0296102 0.020101648
-0.19893721 -0.029610198 0.021912549
-0.17036501 -0.0296102 0.027321044
-0.075116023 -0.0296102 0.021787357
-0.057888087 -0.029610198 0.029243492
-0.0053732619 -0.0296102 0.028414622
0.001222685 -0.029610202 0.027519207
0.036008373 -0.029610202 0.02615596
0.056144509 -0.0296102 0.021085555
0.10453638 -0.029610198 0.02299808
0.30319986 -0.029610198 0.020059109
0.32340688 -0.022033194 0.026282549
-0.3188526 -0.014316345 0.024649009
-0.2963843 -0.018571701 0.022990063
-0.22787531 -0.018571701 0.024890076
0.05419293 -0.018571701 0.020386809
0.094111219 -0.018571701 0.025297467
0.17325249 -0.018571701 0.027137276
0.23669577 -0.018571701 0.028472042
0.30883723 -0.018571701 0.021873616
0.34301972 -0.011833166 0.026470147
0.37229803 -0.014506537 0.027267098
0.39739782 -0.0063508097 0.029578604
0.4599914 0.013988484 0.025339831
-0.32112369 -0.023987889 0.036573544
-0.30485284 -0.027761476 0.031129558
-0.29623264 -0.02941525 0.037391976
-0.2503159 -0.0296102 0.036468744
-0.20201698 -0.0296102 0.037962746
-0.15509823 -0.0296102 0.036157172
-0.14663795 -0.029610198 0.037668854
-0.10197098 -0.0296102 0.037657771
-0.096058495 -0.029610202 0.031520456
-0.081371278 -0.029610198 0.030500501
-0.02757854 -0.0296102 0.034347583
-0.014111117 -0.0296102 0.030999731
0.0076479465 -0.029610198 0.031276677
0.098630339 -0.0296102 0.036181577
0.20927699 -0.029610202 0.032928836
0.26272306 -0.029610198 0.037153192
0.35514438 -0.020080298 0.039527841
-0.33073425 -0.01156065 0.03610399
-0.3154262 -0.015111027 0.038009904
-0.2794672 -0.018571701 0.035385009
-0.18529527 -0.018571701 0.036688346
-0.14356647 -0.018571701 0.031784557
-0.13170522 -0.018571701 0.038764104
-0.1211207 -0.018571701 0.035207286
-0.05804392 -0.018571701 0.034555215
0.099921688 -0.018571701 0.038651716
0.12015213 -0.018571701 0.034722932
0.21463129 -0.018571701 0.039961383
0.30009523 -0.018571701 0.036183141
0.31167057 -0.018571701 0.031885538
0.35570705 -0.019897465 0.032572486
0.37314001 -0.014232947 0.036291093
0.41361302 -0.0010817907 0.031509023
0.40315509 0.0077068955 0.033378486
-0.43119946 0.011739906 0.031004801
-0.42741024 0.01086115 0.036003016
0.4217191 0.013738878 0.036778577
-0.33539072 -0.020679038 0.041528337
-0.22688586 -0.0296102 0.044518743
-0.14879569 -0.0296102 0.047156535
-0.016571999 -0.029610198 0.046851024
0.018844852 -0.029610202 0.046781775
0.049200702 -0.0296102 0.040838536
0.08439225 -0.0296102 0.046958946
0.093450949 -0.029610202 0.045305833
0.14300373 -0.029610202 0.042704266
0.15297474 -0.0296102 0.045107078
0.1915841 -0.0296102 0.044251066
0.25733617 -0.029610202 0.049251337
0.26667792 -0.029610198 0.049390621
0.27210027 -0.029610198 0.043924641
0.32228196 -0.029396344 0.042198818
-0.30542731 -0.017430056 0.045078494
-0.29132369 -0.018571701 0.047223613
-0.27082771 -0.018571701 0.047824357
-0.24565142 -0.018571701 0.047002241
-0.034581706 -0.018571701 0.047964692
0.0189825 -0.018571701 0.042351097
0.063870952 -0.018571701 0.04988645
0.17158693 -0.018571701 0.046357006
0.28811306 -0.018571701 0.047102999
0.38337007 -0.01090887 0.046407051
0.36244839 -0.0055200309 0.044475768
0.44477904 0.0090453718 0.04444918
-0.45851427 0.018074807 0.044726267
-0.42554793 0.010429257 0.049755
0.4329735 0.017395811 0.040032007
-0.20033213 -0.0296102 0.0577773
-0.13960662 -0.0296102 0.052200988
-0.12385355 -0.029610198 0.053247228
-0.10077281 -0.029610198 0.054885887
0.038531259 -0.0296102 0.058063544
0.14557523 -0.0296102 0.057741292
0.32775584 -0.028979674 0.058484379
0.33916306 -0.025273124 0.05761506
-0.30958286 -0.016466273 0.057507463
-0.25588802 -0.018571701 0.052595802
-0.19693185 -0.018571701 0.059523106
-0.089137442 -0.018571701 0.054131996
-0.038480777 -0.018571701 0.057787955
0.025794007 -0.018571701 0.051372379
0.10482006 -0.018571701 0.053940225
0.29629382 -0.018571701 0.050617203
-0.34550706 -0.0081344219 0.053850651
0.36865038 -0.0035047976 0.052453101
0.39159009 -0.0082379282 0.056719214
-0.42161572 0.0095173502 0.052079443
-0.41008461 0.0068429527 0.050566453
0.4307484 0.0044862619 0.050063442
0.44219959 0.0082072066 0.05754739
-0.44701385 0.015407407 0.057959784
-0.27277771 -0.0296102 0.066802844
-0.26025486 -0.0296102 0.065614164
-0.24807593 -0.0296102 0.061133277
-0.22634038 -0.029610198 0.067361772
-0.15300752 -0.0296102 0.06275817
0.032580841 -0.0296102 0.06817501
0.078169554 -0.0296102 0.06468986
0.13544364 -0.029610202 0.060684744
0.17944121 -0.029610202 0.061095208
0.21935871 -0.029610198 0.069765233
-0.34618652 -0.018175222 0.067485951
-0.25439316 -0.018571701 0.061054651
-0.11254907 -0.018571701 0.069492042
-0.083460644 -0.018571701 0.068893522
-0.0590498 -0.018571701 0.066138238
0.05304594 -0.018571701 0.060443558
0.16004813 -0.018571701 0.06293723
0.19242287 -0.018571701 0.067365527
0.27304935 -0.018571701 0.0687797
0.38117 -0.011623748 0.064370349
-0.3690159 -0.0026821014 0.063629709
-0.34275681 -0.0087722726 0.062937394
0.37794042 -0.00048615178 0.067917593
-0.44888273 0.015840853 0.062616728
-0.30082077 -0.028696602 0.071863793
-0.21115647 -0.0296102 0.075822711
-0.079058796 -0.0296102 0.079675391
-0.035332117 -0.0296102 0.07401678
0.15723234 -0.029610198 0.074483678
0.25647467 -0.0296102 0.071147792
0.30402696 -0.029610198 0.076496504
0.33872584 -0.025415186 0.078732625
-0.30428088 -0.017695958 0.076537021
-0.25433567 -0.018571701 0.07093858
-0.17693633 -0.018571701 0.078528523
-0.15575264 -0.018571701 0.077927306
-0.11234645 -0.018571701 0.075519554
-0.10594952 -0.018571701 0.075507224
-0.067472234 -0.018571701 0.078253686
-0.042869918 -0.018571701 0.07970646
0.1251505 -0.018571701 0.071013868
0.15297422 -0.018571701 0.076040804
0.26632431 -0.018571701 0.071847528
0.29856968 -0.018571701 0.075062454
0.38327116 -0.010941016 0.079615444
-0.35634708 -0.0056203417 0.076376736
0.35809374 -0.0069350242 0.070033789
0.40226471 -0.0047693737 0.074699327
-0.44213185 0.004077238 0.072523594
-0.3871848 0.001531756 0.074991226
0.40127036 0.0070945006 0.076678656
-0.45282811 0.016402811 0.073509358
-0.08925844 -0.029610202 0.08167319
0.012406759 -0.0296102 0.080577582
0.18879396 -0.029610198 0.087360688
0.25317633 -0.0296102 0.084916264
-0.35598463 -0.01590272 0.087172069
-0.27987686 -0.018571701 0.089682765
-0.2698864 -0.018571701 0.085331209
-0.040509388 -0.018571701 0.088493302
-0.030505598 -0.018571701 0.082810774
0.0022667795 -0.018571701 0.08398845
0.025169499 -0.018571701 0.083625555
0.097972423 -0.018571701 0.087893024
0.21602845 -0.018571701 0.088624567
0.29548144 -0.018571701 0.081324458
0.34071946 -0.01258062 0.088919088
-0.38397688 -0.0094104083 0.082433566
-0.35291827 -0.0064155702 0.087242849
-0.4367103 0.013017915 0.088550664
0.43445215 0.017876279 0.081518769
0.44651139 0.010386207 0.08828903
-0.30628705 -0.027428856 0.098494522
-0.19826466 -0.0296102 0.099456482
-0.032678068 -0.029610202 0.093956575
-0.0042876303 -0.0296102 0.096408084
0.11221404 -0.0296102 0.093964726
0.1481657 -0.029610198 0.090302311
0.15038407 -0.029610198 0.095190614
0.19711791 -0.0296102 0.094026178
0.20010841 -0.029610202 0.092515461
0.29822898 -0.0296102 0.098031461
0.31540519 -0.0296102 0.093933783
0.33877787 -0.025398275 0.097003847
0.34129882 -0.024579156 0.090568095
-0.357458 -0.015561 0.094361961
-0.33261752 -0.011123866 0.097496927
-0.18070957 -0.018571701 0.098653421
-0.053583197 -0.018571701 0.099280991
-0.047469925 -0.018571701 0.091959417
0.04039593 -0.018571701 0.091565512
0.076161206 -0.018571701 0.098604836
0.11435078 -0.018571701 0.095643528
0.13555439 -0.018571701 0.097250015
0.14723903 -0.018571701 0.097634338
0.16948466 -0.018571701 0.096548766
0.24387762 -0.018571701 0.094234005
0.34162086 -0.012287721 0.094373316
-0.3968147 -0.0064329761 0.09354797
0.3986364 -0.005948355 0.099597909
0.40738434 -0.0031057822 0.098236822
-0.44252461 0.0061420919 0.093141243
-0.43170324 0.011856735 0.094218187
-0.42948484 0.011342267 0.090347424
-0.33330533 -0.021162683 0.10082668
-0.32344365 -0.023449833 0.10156649
-0.28774378 -0.0296102 0.10740937
-0.091772236 -0.0296102 0.10474738
0.084054336 -0.029610202 0.10358018
0.09995123 -0.029610198 0.1069591
0.1196042 -0.0296102 0.10147922
0.15747485 -0.029610198 0.10447028
0.18520588 -0.029610198 0.10647167
0.21549347 -0.0296102 0.10225175
0.230258 -0.029610202 0.10021626
0.28674611 -0.029610198 0.10929914
0.35019353 -0.021688983 0.10046823
-0.37726545 -0.010967009 0.1093984
-0.36557943 -0.01367738 0.10884154
-0.30032232 -0.018614054 0.10419089
-0.27740228 -0.018571701 0.10094316
-0.14464402 -0.018571701 0.10028997
-0.10440743 -0.018571701 0.10532316
0.0941744 -0.018571701 0.10090473
0.11554109 -0.018571701 0.10332745
0.16272295 -0.018571701 0.10838661
0.17196427 -0.018571701 0.10577193
0.18507802 -0.018571701 0.10361655
0.26572055 -0.018571701 0.10574843
0.2926113 -0.018571701 0.10221724
-0.40087163 -0.0054920712 0.10055174
-0.43092477 0.0014780299 0.10718257
-0.39479682 0.0032972216 0.10833902
0.401364 0.0071249316 0.10620567
-0.42386067 0.01003797 0.10698638
0.43385518 0.014693749 0.10224035
-0.25080794 -0.0296102 0.11234172
-0.12806147 -0.0296102 0.11729035
-0.082300276 -0.029610202 0.11954879
-0.013458945 -0.029610202 0.11508632
-0.0085266232 -0.029610198 0.11401336
0.12808013 -0.029610198 0.11337036
0.1498591 -0.0296102 0.11714141
0.28841698 -0.029610198 0.11375529
0.32692933 -0.029248234 0.11551339
-0.2952545 -0.018819015 0.11466733
-0.26863569 -0.018571701 0.11471435
-0.23472106 -0.018571701 0.11464374
-0.20473325 -0.018571701 0.11857148
-0.13045184 -0.018571701 0.1119844
-0.023415431 -0.018571701 0.11845829
0.0099285915 -0.018571701 0.11141279
0.048817061 -0.018571701 0.1104915
0.058251202 -0.018571701 0.11176167
0.14527088 -0.018571701 0.11361899
0.18261105 -0.018571701 0.11443597
0.31049639 -0.018571701 0.11469498
0.33521616 -0.014368871 0.11790816
0.36129203 -0.005895766 0.11111059
0.38744467 -0.0095848991 0.11837015
-0.4254331 0.00041927258 0.11380772
0.4013052 0.0071058096 0.11378121
-0.29989287 -0.026466191 0.1243128
-0.17682764 -0.0296102 0.12821524
-0.16596223 -0.0296102 0.12098033
-0.15122238 -0.029610198 0.12595855
-0.11499941 -0.029610198 0.12990552
-0.084410958 -0.029610202 0.12608847
-0.014059111 -0.029610202 0.12445444
0.0029462576 -0.029610198 0.12904814
0.015798613 -0.0296102 0.12626506
0.081676595 -0.029610202 0.12805392
0.090760581 -0.029610198 0.12260289
0.128273 -0.0296102 0.12221946
0.34283939 -0.024078565 0.12420481
-0.33309782 -0.01101247 0.12033258
-0.23477866 -0.018571701 0.12203868
-0.20616984 -0.018571701 0.12800348
-0.18888171 -0.018571701 0.12957618
-0.17021389 -0.018571701 0.12527862
-0.13078529 -0.018571701 0.12686837
-0.096479379 -0.018571701 0.12600428
-0.084448412 -0.018571701 0.12686628
-0.074987911 -0.018571701 0.12462334
0.035257198 -0.018571701 0.12491955
0.10167591 -0.018571701 0.12352088
0.14269009 -0.018571701 0.12461636
0.15059221 -0.018571701 0.12492774
0.21884717 -0.018571701 0.12238192
0.2631003 -0.018571701 0.12078489
0.28161934 -0.018571701 0.12534615
0.30069372 -0.018571701 0.12095142
0.31008485 -0.018571701 0.12496158
-0.40403742 -0.0047578407 0.12303919
-0.36977911 -0.0025050992 0.12526162
0.40871602 -0.0015149524 0.12772226
-0.40437043 0.0055176532 0.12317858
-0.39307564 0.0028980311 0.12787296
-0.31518906 -0.025364269 0.13319549
-0.1829592 -0.0296102 0.13973896
-0.13475285 -0.0296102 0.13294795
-0.11494514 -0.029610202 0.13831009
0.053398855 -0.029610198 0.13097134
0.16100845 -0.0296102 0.1309351
0.23179355 -0.0296102 0.13206555
0.27148205 -0.029610198 0.13166897
0.33943596 -0.025184441 0.13798344
-0.3594017 -0.015110186 0.13210037
-0.28677168 -0.018571701 0.13692509
-0.12470827 -0.018571701 0.13975903
-0.11404122 -0.018571701 0.13660428
0.056723464 -0.018571701 0.13437948
0.10562518 -0.018571701 0.13619667
0.13891739 -0.018571701 0.13748035
0.15587097 -0.018571701 0.13462532
0.23851718 -0.018571701 0.1393954
0.29328531 -0.018571701 0.13046677
0.33111739 -0.015700715 0.13746877
-0.38717908 -0.0086677326 0.13114211
-0.3343485 -0.020920753 0.14121896
-0.30014899 -0.027570743 0.1450202
-0.29977629 -0.029014517 0.1488075
-0.18680485 -0.0296102 0.14324506
-0.17068699 -0.0296102 0.14981604
-0.1401832 -0.0296102 0.14178477
-0.13101801 -0.029610198 0.14518994
0.051789016 -0.0296102 0.14521259
0.073836952 -0.029610202 0.14781286
0.15057769 -0.0296102 0.14875734
0.24983199 -0.0296102 0.14632407
0.25646901 -0.0296102 0.14051726
-0.3114585 -0.016031258 0.1412202
-0.29553664 -0.018571701 0.14628859
-0.17560209 -0.018571701 0.14764619
-0.11010107 -0.018571701 0.14595357
-0.053777814 -0.018571701 0.147503
-0.033807516 -0.018571701 0.14735973
0.015402138 -0.018571701 0.14953479
0.028674185 -0.018571701 0.14416875
0.043500036 -0.018571701 0.14571711
0.11572818 -0.018571701 0.14747246
0.29733345 -0.018571701 0.14611758
0.32136315 -0.018571701 0.14160751
-0.3655085 -0.0093876021 0.14856064
-0.34723377 -0.0077339523 0.14389676
0.37533963 -0.0078692781 0.14504448
0.38462487 -0.0060683871 0.14115614
-0.27712971 -0.027843893 0.15591401
-0.23781878 -0.023425948 0.15591399
-0.18241279 -0.02283721 0.15591399
-0.16837886 -0.029548718 0.15591399
-0.13032591 -0.029610202 0.15208754
-0.079168424 -0.028169753 0.15591399
-0.058616586 -0.0296102 0.15239511
0.027273111 -0.020140074 0.15591399
0.044581756 -0.026204329 0.15591399
0.05120939 -0.026352765 0.15591399
0.1078355 -0.022623524 0.15591399
0.12676403 -0.0296102 0.15435708
0.16105221 -0.020118307 0.15591399
0.21248594 -0.029610202 0.15473035
0.22145866 -0.029466433 0.15591399
0.23508039 -0.023297157 0.15591399
0.24515335 -0.027941249 0.1538896
0.26216882 -0.029610198 0.15450789
0.27136871 -0.028890247 0.15591399
0.28615701 -0.025743298 0.15591401
0.30834523 -0.029610198 0.1538043
0.32389435 -0.027708083 0.15591399
-0.33118045 -0.011457157 0.15232299
-0.22311987 -0.018571701 0.15167212
-0.18441993 -0.018571701 0.15050404
-0.08659447 -0.018571701 0.15571575
-0.012220263 -0.018571701 0.15010642
0.026120778 -0.018811287 0.15591399
0.053774476 -0.018571701 0.15467829
0.26412475 -0.018571701 0.15353909
0.3416909 -0.017093558 0.15342353
