# .PCD v0.7 - Point Cloud Data file format
VERSION 0.7
FIELDS x y z
SIZE 4 4 4
TYPE F F F
COUNT 1 1 1
WIDTH 939
HEIGHT 1
VIEWPOINT 0 0 0 1 0 0 0
POINTS 939
DATA ascii
-0.018673684 0.055845298 -0.221361
0.12979263 0.058977138 -0.221361
-0.063319892 0.0637592 -0.22075425
0.13266985 0.060321402 -0.221361
0.17202519 0.06233485 -0.221361
0.19836146 0.0637592 -0.22044161
-0.15198922 0.055567201 -0.21517433
-0.058718644 0.055567201 -0.21627679
0.058842968 0.055567201 -0.21995707
0.13319743 0.055567201 -0.21915081
0.14651126 0.055567198 -0.21496242
0.15604821 0.055567201 -0.21909511
0.3818152 0.055567198 -0.21727775
0.39909837 0.055567201 -0.2170081
-0.037246969 0.0637592 -0.21379012
0.031697579 0.0637592 -0.21688977
0.058984011 0.0637592 -0.21937814
0.096545376 0.0637592 -0.21076387
0.24264929 0.0637592 -0.2189717
0.26258722 0.0637592 -0.21456711
0.33175939 0.0637592 -0.21153827
-0.19402023 0.055567201 -0.20411791
-0.16034153 0.055567201 -0.20129728
-0.13382635 0.055567205 -0.20286009
-0.12847385 0.055567198 -0.20999663
-0.075498901 0.055567205 -0.20590371
0.05316361 0.055567205 -0.20252754
0.098066509 0.055567198 -0.20113701
0.110686 0.055567201 -0.20861976
0.40887836 0.056836225 -0.20632766
0.41448137 0.057953775 -0.20317134
-0.1325589 0.0637592 -0.20326416
-0.11269566 0.0637592 -0.20958889
0.041548934 0.0637592 -0.20364445
0.074552298 0.0637592 -0.20365433
0.14070532 0.0637592 -0.20498832
0.19911677 0.0637592 -0.2044448
0.20058355 0.0637592 -0.20579159
0.36756778 0.0637592 -0.20963258
0.38186947 0.0637592 -0.20787871
-0.11149126 0.055567198 -0.19039735
-0.08513546 0.055567198 -0.1958791
-0.075196259 0.055567198 -0.19214311
-0.054011479 0.055567201 -0.19602369
0.074481986 0.055567201 -0.19849184
0.15357579 0.055567205 -0.19134322
0.21354066 0.055567201 -0.19188942
0.33422312 0.055567201 -0.19331481
0.3871451 0.055567198 -0.19079101
-0.12124132 0.0637592 -0.19974522
-0.044944584 0.0637592 -0.19280887
-0.011022758 0.0637592 -0.19685586
-0.003311418 0.0637592 -0.19923854
0.029789768 0.0637592 -0.19357626
0.077187277 0.0637592 -0.19594602
0.089661084 0.0637592 -0.19208503
0.097141691 0.0637592 -0.19815171
0.18331131 0.0637592 -0.19919489
0.31743523 0.0637592 -0.19617334
0.35910729 0.0637592 -0.19312014
0.40893158 0.064666882 -0.19936344
-0.22706592 0.055567201 -0.18591592
-0.1109378 0.055567201 -0.18558364
0.1580267 0.055567201 -0.1841494
0.18617405 0.055567201 -0.18154612
0.38555825 0.055567205 -0.18794674
-0.20248935 0.0637592 -0.18812937
-0.15053414 0.0637592 -0.18412675
-0.13307805 0.0637592 -0.1807124
-0.084162124 0.0637592 -0.1800124
-0.0045380145 0.0637592 -0.18691158
0.080468945 0.0637592 -0.18659188
0.11035639 0.0637592 -0.18912983
0.2843639 0.0637592 -0.18677339
-0.090361021 0.055567201 -0.17213997
-0.064279303 0.055567205 -0.17131884
-0.030570894 0.055567201 -0.17545713
0.0061507043 0.055567198 -0.17548874
0.096327901 0.055567201 -0.17456149
0.15498191 0.055567198 -0.17965636
0.17785072 0.055567201 -0.17116882
0.26261586 0.055567201 -0.17910807
0.40893078 0.0560073 -0.1758256
-0.16610482 0.0637592 -0.17070271
0.12515235 0.0637592 -0.17979877
0.19108307 0.0637592 -0.17324135
0.28975868 0.0637592 -0.17375842
0.3328526 0.0637592 -0.17826819
0.43322814 0.073371373 -0.17008927
-0.20546137 0.055567205 -0.16423592
-0.13634636 0.055567201 -0.16959652
-0.11994184 0.055567201 -0.16709448
-0.070267916 0.055567201 -0.16467117
0.015794326 0.055567198 -0.16889474
0.15033153 0.055567201 -0.16609313
0.16353005 0.055567201 -0.16004708
0.40886387 0.056876592 -0.1685033
-0.24320596 0.0637592 -0.16782483
-0.18396264 0.0637592 -0.16045767
-0.15235892 0.0637592 -0.16493326
-0.11759727 0.0637592 -0.1612823
-0.10944936 0.0637592 -0.16423616
0.018666878 0.0637592 -0.16420344
0.050046019 0.0637592 -0.16403483
0.088644311 0.0637592 -0.16992867
0.17553671 0.0637592 -0.16172001
0.39577729 0.0637592 -0.168962
-0.25572881 0.055567201 -0.15342581
-0.24654414 0.055567201 -0.15125035
-0.066062644 0.055567201 -0.15346645
0.041173279 0.055567198 -0.15822007
0.068086602 0.055567201 -0.1565638
0.097012497 0.055567201 -0.15225069
0.31350577 0.055567198 -0.15744774
-0.26604024 0.0637592 -0.15492068
-0.25302261 0.0637592 -0.15175381
-0.22783953 0.0637592 -0.15375334
-0.048769586 0.0637592 -0.15727019
0.15293771 0.0637592 -0.15398911
0.23909777 0.0637592 -0.15461157
0.39678681 0.063759208 -0.15431538
-0.25388351 0.055567198 -0.14074144
-0.16590285 0.055567201 -0.14718343
-0.13184044 0.055567201 -0.14463225
-0.085641958 0.055567198 -0.14358307
-0.011364788 0.055567205 -0.14402543
0.036068227 0.055567201 -0.14781021
0.24571201 0.055567201 -0.14318468
0.2803748 0.055567198 -0.1416648
0.35930091 0.055567205 -0.14269418
0.41986102 0.059880927 -0.14267786
-0.14320505 0.0637592 -0.14530751
-0.11151476 0.0637592 -0.14598264
0.067698762 0.0637592 -0.14537227
0.070858449 0.0637592 -0.14850485
0.10309362 0.0637592 -0.14494987
0.30821884 0.0637592 -0.14952868
-0.31832191 0.055567201 -0.13683069
-0.30840954 0.055567201 -0.13830893
-0.17026603 0.055567198 -0.13851665
-0.15614092 0.055567198 -0.13241507
-0.10530348 0.055567201 -0.13513076
0.030945245 0.055567201 -0.13099138
0.046791855 0.055567205 -0.13891107
0.084032558 0.055567201 -0.13400674
0.24789026 0.055567198 -0.13953651
0.32131311 0.055567198 -0.1391823
0.40455896 0.056418628 -0.13404065
-0.22400773 0.0637592 -0.13925619
-0.014833383 0.0637592 -0.13737433
0.073220164 0.0637592 -0.1331524
0.23658532 0.0637592 -0.1325449
0.32885036 0.0637592 -0.13697067
0.35591739 0.0637592 -0.13733354
0.38248453 0.0637592 -0.13897401
0.41415036 0.066536561 -0.13435444
0.42959839 0.072070904 -0.13392685
-0.16517258 0.055567201 -0.12384097
-0.045028072 0.055567198 -0.1233065
-0.025413834 0.055567201 -0.12029691
0.016884582 0.055567201 -0.12467373
0.025449978 0.055567198 -0.12463604
0.061323874 0.055567198 -0.1228819
0.10575213 0.055567198 -0.1232517
0.1336949 0.055567201 -0.12119707
0.24051943 0.055567201 -0.12960322
0.27333224 0.055567205 -0.12606111
0.30010352 0.055567198 -0.12927179
-0.19570905 0.0637592 -0.12161468
-0.088576227 0.0637592 -0.1220964
-0.036589071 0.0637592 -0.12390609
-0.0035702139 0.0637592 -0.12145667
0.047499701 0.0637592 -0.12222027
0.057077456 0.0637592 -0.12326571
0.060615513 0.0637592 -0.12748004
0.095411137 0.0637592 -0.1238251
0.1927495 0.0637592 -0.12102115
0.215287 0.0637592 -0.12828921
0.24756844 0.0637592 -0.1275786
0.406398 0.061682299 -0.12408072
0.42935443 0.071983591 -0.12884483
-0.17267479 0.055567201 -0.11315636
-0.14399064 0.055567198 -0.11737707
0.1185365 0.055567198 -0.11679554
0.1525211 0.055567198 -0.11600859
0.17772001 0.055567201 -0.11573564
0.19155318 0.055567201 -0.11125751
0.22936489 0.055567201 -0.11403459
0.29818636 0.055567205 -0.11664467
0.39911157 0.055567205 -0.1115536
-0.3136971 0.0637592 -0.1197848
-0.23729672 0.0637592 -0.11480521
-0.0088115856 0.0637592 -0.11114991
0.037893876 0.0637592 -0.11978374
0.059808381 0.0637592 -0.11047347
0.14414211 0.0637592 -0.11616169
0.15834607 0.0637592 -0.11451551
0.29507548 0.0637592 -0.11938033
0.31314701 0.0637592 -0.1130027
0.32715952 0.0637592 -0.11648498
0.40684387 0.062514678 -0.11359516
-0.27293229 0.055567201 -0.10230032
-0.23858136 0.055567198 -0.10649203
-0.082336567 0.055567205 -0.10249044
0.01537545 0.055567201 -0.10542748
0.045020476 0.055567205 -0.1039754
0.097651504 0.055567201 -0.10310356
0.15758446 0.055567205 -0.10136364
0.16747278 0.055567198 -0.10097353
0.25259048 0.055567198 -0.104462
0.27973309 0.055567201 -0.10363249
0.30024004 0.055567201 -0.10620254
0.39565903 0.055567205 -0.10648543
-0.35054839 0.0637592 -0.10530883
-0.29827291 0.0637592 -0.10156886
-0.10453916 0.0637592 -0.1094421
-0.090333782 0.0637592 -0.10947061
-0.028247893 0.0637592 -0.1017982
0.034391668 0.0637592 -0.10604663
0.17267805 0.0637592 -0.10030121
0.26763996 0.0637592 -0.10607414
0.33813456 0.0637592 -0.10534818
0.42380548 0.069995597 -0.10290059
0.43830025 0.066486783 -0.10042612
0.44125497 0.06966272 -0.10536394
-0.34772599 0.055567201 -0.092391282
-0.33230323 0.055567201 -0.096940376
-0.27447191 0.055567201 -0.095120132
-0.24307317 0.055567198 -0.093424171
-0.066065103 0.055567198 -0.090689704
-0.022392254 0.055567205 -0.091550261
0.047060236 0.055567201 -0.090582944
0.14343375 0.055567198 -0.099908009
0.17414235 0.055567198 -0.096537277
0.20884217 0.055567205 -0.096794859
0.23050338 0.055567205 -0.099128909
-0.33619377 0.0637592 -0.09238185
-0.23272735 0.0637592 -0.096725181
-0.1432713 0.0637592 -0.095223948
-0.13020578 0.0637592 -0.099376768
-0.081991881 0.0637592 -0.094594389
-0.058592077 0.0637592 -0.098197907
-0.01423103 0.0637592 -0.09043698
0.048568554 0.0637592 -0.093965359
0.056523863 0.0637592 -0.09531422
0.084762938 0.0637592 -0.096908949
0.21709242 0.0637592 -0.091416784
0.24617529 0.0637592 -0.093594149
0.39605021 0.0637592 -0.096892923
-0.3770538 0.056547053 -0.086049184
-0.36397541 0.055567198 -0.0844291
-0.33752227 0.055567201 -0.08814086
-0.18226996 0.055567198 -0.087033823
-0.15567946 0.055567205 -0.083328143
-0.056709439 0.055567198 -0.085423946
-0.0098363515 0.055567201 -0.086292215
0.020395178 0.055567198 -0.089842856
0.08651799 0.055567205 -0.080108821
0.18501174 0.055567198 -0.082402714
0.24860442 0.055567201 -0.086346626
0.2735706 0.055567201 -0.087619558
0.32823044 0.055567201 -0.086934283
0.381708 0.055567205 -0.085048117
0.39910817 0.055567198 -0.087927416
-0.37234503 0.0637592 -0.081650659
-0.35207102 0.0637592 -0.083955169
-0.33135119 0.0637592 -0.085682154
-0.29672647 0.0637592 -0.084003821
-0.19356081 0.0637592 -0.083967686
-0.095686018 0.0637592 -0.089865193
-0.083567947 0.0637592 -0.080104895
0.065459929 0.0637592 -0.085763544
0.43610609 0.074402452 -0.082984544
-0.31854481 0.055567201 -0.07294327
-0.23459518 0.055567201 -0.076458268
-0.19172649 0.055567201 -0.073649652
-0.18182631 0.055567198 -0.07487841
-0.17758623 0.055567201 -0.07585609
-0.15735935 0.055567205 -0.079164371
-0.13852404 0.055567205 -0.07502158
-0.12968293 0.055567205 -0.074592508
-0.079725258 0.055567201 -0.072438806
-0.035214249 0.055567201 -0.074916989
0.16493294 0.055567201 -0.076370724
-0.30860633 0.0637592 -0.073149383
-0.21592931 0.0637592 -0.077068642
-0.13505849 0.0637592 -0.07402017
0.058963038 0.0637592 -0.076183528
0.18447483 0.0637592 -0.079278484
0.39478767 0.0637592 -0.078947872
0.42981717 0.072149336 -0.07686685
-0.31695956 0.055567198 -0.064725243
-0.014617687 0.055567201 -0.068458118
0.024720296 0.055567205 -0.068224475
0.26631829 0.055567201 -0.064376779
0.28737205 0.055567198 -0.060746398
-0.38485175 0.0637592 -0.06218382
-0.31831101 0.0637592 -0.062073417
-0.1261739 0.0637592 -0.065647975
0.03212256 0.0637592 -0.062579662
0.048454039 0.0637592 -0.065010592
0.19812644 0.0637592 -0.069843009
0.2589083 0.0637592 -0.063471794
0.27804533 0.0637592 -0.060688339
0.32770553 0.0637592 -0.067453787
0.3869139 0.0637592 -0.066080168
0.42643729 0.070938468 -0.066594109
-0.36871296 0.055567201 -0.056556858
-0.33426929 0.055567201 -0.057462297
-0.17042473 0.055567198 -0.054982945
-0.15353468 0.055567198 -0.050320189
-0.092791311 0.055567201 -0.052232727
-0.01121743 0.055567198 -0.051730506
0.041266926 0.055567201 -0.050927721
0.10794008 0.055567201 -0.05610247
0.15250565 0.055567201 -0.051013187
0.17468855 0.055567201 -0.05410555
0.21982259 0.055567201 -0.053296272
0.30485451 0.055567198 -0.053303421
0.33831981 0.055567198 -0.059035134
-0.32443276 0.0637592 -0.056282409
-0.29546398 0.0637592 -0.051259212
-0.24507575 0.0637592 -0.057836425
-0.18794781 0.063759193 -0.058416836
-0.1774222 0.0637592 -0.053707059
-0.16714832 0.0637592 -0.053630497
-0.12125881 0.0637592 -0.05651278
-0.10655442 0.0637592 -0.053084753
0.086154088 0.0637592 -0.05667967
0.10682775 0.0637592 -0.055978149
0.17571588 0.0637592 -0.053150564
0.18058158 0.0637592 -0.0593969
0.29628727 0.0637592 -0.059781443
0.3510721 0.0637592 -0.055684578
0.44173202 0.068330638 -0.054596875
0.4399305 0.073360942 -0.052570555
-0.23443702 0.039184202 -0.048170384
-0.17599231 0.039184202 -0.041833278
-0.16444662 0.039184202 -0.045849666
-0.14496644 0.039184202 -0.044563424
-0.14142472 0.04623656 -0.048204996
-0.40268302 0.055567201 -0.045113921
-0.35364383 0.055567201 -0.040964842
-0.282253 0.052959032 -0.044011772
-0.1902115 0.055567205 -0.048725672
-0.18544799 0.055540808 -0.048205003
-0.11407082 0.055567201 -0.046211153
0.021196581 0.055567201 -0.042824168
0.03082943 0.055567201 -0.045190468
0.047723457 0.055567205 -0.042506259
0.10900274 0.055567201 -0.041246619
0.1283228 0.055567201 -0.048671205
0.19660649 0.055567205 -0.043453388
0.20002422 0.055567201 -0.049543791
0.22224884 0.055567205 -0.041984841
-0.37068415 0.0637592 -0.043378823
-0.33409694 0.0637592 -0.043053184
-0.32383412 0.0637592 -0.046120312
-0.31730527 0.0637592 -0.040151771
-0.11601341 0.0637592 -0.041660637
0.092184067 0.0637592 -0.040305831
0.18475917 0.0637592 -0.046111017
0.21048647 0.0637592 -0.040662304
0.24112011 0.0637592 -0.045947541
-0.11094914 0.055567201 -0.039145403
-0.021007914 0.055567201 -0.031802662
0.058130868 0.055567201 -0.036169596
0.20978698 0.055567205 -0.037911661
-0.3500399 0.0637592 -0.034168679
-0.23046574 0.0637592 -0.030042563
-0.13278064 0.0637592 -0.034231197
-0.014244113 0.0637592 -0.033738662
0.076386049 0.0637592 -0.035791554
0.081165433 0.0637592 -0.031420771
0.23225826 0.0637592 -0.033798244
0.28148645 0.0637592 -0.033848666
0.32286018 0.0637592 -0.037534595
0.32705703 -0.033055034 -0.02073741
0.32292715 -0.024093101 -0.022447743
-0.13751847 0.039184202 -0.022860005
0.36327684 0.039184202 -0.025934203
-0.41123414 0.055567198 -0.026031706
-0.34333637 0.055567198 -0.021812197
-0.31486377 0.055567201 -0.027563486
-0.134804 0.050913159 -0.025078913
-0.063423388 0.055567205 -0.028013561
0.23476504 0.055567201 -0.023501761
0.24200898 0.050641041 -0.021810981
-0.25883231 0.0637592 -0.023269154
-0.21661723 0.0637592 -0.022088466
-0.20679709 0.0637592 -0.020422079
-0.19963686 0.0637592 -0.022552906
-0.16094387 0.0637592 -0.025598878
-0.017237827 0.0637592 -0.026408028
0.073386952 0.0637592 -0.021149117
0.082586676 0.0637592 -0.021632135
0.15408579 0.063759208 -0.026514655
0.29142103 0.0637592 -0.029915847
0.39285702 0.0637592 -0.026776813
0.3138749 -0.034540299 -0.019564223
0.33240521 -0.034540299 -0.010598262
0.2939949 0.004740417 -0.010242042
0.25536773 0.039184202 -0.016070195
0.29917434 0.033161607 -0.01706063
0.3524406 0.039184202 -0.01883335
-0.38994747 0.055567201 -0.01861478
-0.3680017 0.055567201 -0.010253813
-0.35863045 0.055567201 -0.010385521
-0.31210122 0.055567205 -0.014179658
-0.048031315 0.055567201 -0.013981366
0.046606194 0.055567205 -0.015951298
0.15064567 0.055567205 -0.010598355
0.19256544 0.055567205 -0.013401203
-0.35379702 0.0637592 -0.013212886
-0.28665799 0.0637592 -0.012071367
-0.24780977 0.0637592 -0.016549747
-0.23495589 0.0637592 -0.017749289
-0.17683212 0.0637592 -0.016861701
-0.12943457 0.0637592 -0.018121392
-0.071153745 0.0637592 -0.016515223
0.13284324 0.0637592 -0.018047675
0.1422459 0.0637592 -0.019004475
0.19863814 0.0637592 -0.015335214
0.26538679 0.0637592 -0.019609831
0.28394115 0.0637592 -0.019987682
0.31344166 0.0637592 -0.01828835
0.32815301 0.0637592 -0.011225475
0.33766937 0.0637592 -0.011657953
0.31416944 -0.034540299 -0.0028641217
0.33804458 0.021264594 -0.0088600367
0.30866688 0.039184202 -0.0095979087
0.37508732 0.039184202 -0.0068047252
-0.32547116 0.055567201 -0.0040061446
-0.13407032 0.055567205 -0.00080557831
-0.12662147 0.055567198 -0.0086321756
-0.096587166 0.055567201 -0.00054974854
0.12417108 0.055567205 -0.0066280691
0.41449857 0.057959929 -0.0087625757
-0.24215397 0.0637592 -0.00063293939
-0.21404567 0.0637592 -0.0027092677
-0.20622662 0.0637592 -0.0083587421
-0.17275943 0.0637592 -0.0086553758
0.036429778 0.0637592 -0.00060399063
0.12054721 0.0637592 -0.0058960905
0.25982332 0.0637592 -0.0031675892
0.29545468 0.0637592 -0.0022562626
0.4217726 0.069267303 -0.00025865715
0.33319464 -0.034540299 0.0040246542
0.29117495 0.0092358971 0.00082329783
0.34024182 0.00081867259 0.0014543892
-0.27223271 0.039184202 0.0056146178
-0.22819328 0.039184202 0.003878064
-0.14496113 0.039184202 0.0091768568
0.29501134 0.039184202 0.0036157032
0.38703501 0.039184202 0.0060315784
-0.42318273 0.055567201 0.0066419579
-0.2838375 0.055567201 0.0010566525
-0.047189973 0.055567201 0.0025115903
0.055796765 0.055567205 0.0061065326
0.063326493 0.055567201 0.0062986622
0.070108116 0.055567201 0.0097459992
0.10547306 0.055567205 0.0044762222
-0.30216855 0.0637592 0.0073968256
-0.22127232 0.0637592 0.0012210873
-0.16692729 0.0637592 0.00057418086
-0.12140492 0.0637592 0.0059366403
-0.043783799 0.0637592 0.0020090444
-0.022112101 0.0637592 0.0085426681
0.15259761 0.0637592 0.0085448846
0.24453929 0.0637592 0.00013531838
0.26766166 0.0637592 0.0042533027
0.31483483 0.0637592 0.0057557235
0.40256843 0.0637592 0.00520916
0.42681697 0.062372711 0.0077486578
0.29573235 -0.034540299 0.010657679
0.2939826 -0.0010425462 0.012101028
0.29010409 0.039184202 0.017424498
0.3240428 0.039184198 0.015682625
-0.38373566 0.055567205 0.011687646
0.089817867 0.055567201 0.013623836
0.090729877 0.055567205 0.013178345
0.13240707 0.055567201 0.014629897
0.14947674 0.055567205 0.010314086
0.23049363 0.055567205 0.013670478
-0.3691662 0.0637592 0.011304868
-0.34888747 0.0637592 0.017502738
-0.33553651 0.0637592 0.017493188
-0.09904255 0.0637592 0.015068881
-0.06730926 0.0637592 0.011253495
0.033039086 0.0637592 0.011748135
0.073461413 0.0637592 0.015784062
0.12783012 0.0637592 0.017889753
0.13716567 0.0637592 0.013428194
0.30319276 0.0637592 0.016725322
0.4082593 0.064426035 0.012052102
0.32085362 -0.012219427 0.02484417
0.30206656 0.013028908 0.021167375
-0.20198321 0.039184202 0.029945277
0.25146884 0.039184202 0.028615143
0.32246524 0.039184202 0.021086754
-0.39323848 0.055567198 0.021034269
-0.33506256 0.055567198 0.020633806
-0.30973554 0.055567205 0.02326579
-0.29631472 0.055567198 0.025096476
-0.085669324 0.055567198 0.021196414
-0.00026442649 0.055567198 0.025357105
0.22130248 0.055567201 0.024984324
0.41258407 0.057274066 0.025130481
-0.35633862 0.0637592 0.024375277
-0.33546788 0.0637592 0.023594847
-0.28324673 0.0637592 0.028957728
-0.10420901 0.0637592 0.023089573
-0.032025479 0.0637592 0.029730305
0.060291812 0.0637592 0.02314877
0.14610748 0.0637592 0.028370619
0.33480519 0.063759193 0.022542756
0.44056582 0.067298062 0.02192995
0.43941629 0.07479655 0.029082576
-0.25657973 0.039184202 0.033395547
-0.15452239 0.039184205 0.034553919
0.30047411 0.039184202 0.032878321
0.32894057 0.039184202 0.031778425
0.37610221 0.039184202 0.036598761
-0.087619185 0.055567205 0.036414202
0.023318758 0.055567201 0.036038768
0.034575932 0.055567201 0.038463779
0.12055524 0.055567201 0.039050896
0.15838926 0.055567205 0.0319933
-0.24305946 0.0637592 0.032407593
-0.076548889 0.0637592 0.032211665
-0.062036872 0.0637592 0.035385005
-0.010277808 0.0637592 0.037628949
0.026001945 0.0637592 0.039763995
0.27177 0.0637592 0.039546777
0.33224386 0.0637592 0.039969716
0.34594375 0.0637592 0.03678336
0.406398 0.060018517 0.031964902
0.42371801 0.069964252 0.037493918
0.42753693 0.071332417 0.036736347
-0.19660193 0.039184202 0.041357413
0.25883961 0.039184205 0.045624163
0.30571043 0.039184202 0.040560413
0.35790738 0.039184202 0.044097058
-0.134804 0.048047975 0.040803958
-0.35201612 0.055567201 0.048692405
-0.068433523 0.055567201 0.044157065
-0.031475391 0.055567198 0.043773174
0.056392815 0.055567205 0.043252274
0.077671424 0.055567201 0.04198806
0.13925432 0.055567201 0.042889897
0.15394381 0.055567201 0.046678707
0.16764814 0.055567201 0.040491372
0.2131193 0.055567198 0.040665001
-0.39381576 0.0637592 0.040568985
-0.32543933 0.0637592 0.045038629
-0.1406247 0.0637592 0.048852284
-0.068662405 0.0637592 0.046087887
-0.057505652 0.0637592 0.048062712
0.10946236 0.0637592 0.043839294
0.20251746 0.0637592 0.046194132
0.30071178 0.063759193 0.043886349
0.33685654 0.0637592 0.048161719
0.36910504 0.063759208 0.049868189
0.37091962 0.0637592 0.043899916
0.29019707 0.039225753 0.050094001
-0.2645238 0.044977054 0.050094001
-0.23256372 0.044845499 0.050094001
0.372621 0.041136686 0.050094001
0.38643876 0.044407263 0.050094001
-0.39598402 0.055567201 0.059178252
-0.36862898 0.055567205 0.057200249
-0.33835179 0.055567205 0.051412817
-0.32227391 0.055567198 0.055351064
-0.181814 0.055567201 0.054667644
-0.011250199 0.055567201 0.056548506
-0.0059007774 0.055567198 0.055043429
0.025514441 0.055567201 0.050376877
0.078810379 0.055567205 0.056570522
0.1098695 0.055567201 0.056513596
0.24929148 0.050495774 0.050094001
0.28625047 0.055567201 0.055296421
0.32286695 0.050627518 0.050094001
-0.38260043 0.0637592 0.051100899
-0.22299188 0.0637592 0.05898992
-0.21811786 0.0637592 0.05687806
0.063887477 0.0637592 0.057398759
0.080911525 0.0637592 0.056560829
0.20965952 0.0637592 0.059010625
0.28591907 0.0637592 0.05336066
0.32334629 0.0637592 0.057028428
0.34094131 0.0637592 0.057006523
0.37467134 0.0637592 0.058465537
0.38112414 0.0637592 0.052244704
0.40770382 0.060114492 0.059468359
0.41256973 0.065970249 0.054391086
-0.12950036 0.055567205 0.060636349
-0.10731803 0.055567198 0.066895321
-0.037103042 0.055567201 0.062441673
0.12904489 0.055567201 0.068037115
0.2220979 0.055567201 0.064097025
0.31767732 0.055567198 0.062970728
0.33915341 0.055567201 0.067069411
0.406398 0.056509912 0.066672891
-0.34775695 0.0637592 0.06602551
-0.30403808 0.0637592 0.063209027
-0.21474782 0.0637592 0.065183282
-0.20845348 0.0637592 0.061238099
-0.19501553 0.0637592 0.065384671
-0.11314908 0.0637592 0.064585768
-0.10376471 0.063759208 0.069432899
-0.057069078 0.0637592 0.065562151
-0.016695097 0.0637592 0.067350462
0.00077687204 0.0637592 0.069605619
0.13672815 0.0637592 0.064216062
0.2489219 0.0637592 0.065723479
0.3019976 0.0637592 0.064791992
0.40429109 0.0637592 0.063612357
0.44091907 0.06742458 0.06513378
-0.39549741 0.057592459 0.070002615
-0.32472041 0.055567201 0.076165527
-0.31477964 0.055567201 0.077442832
-0.25254026 0.055567201 0.073932342
-0.17667411 0.055567205 0.074251339
-0.15019555 0.055567198 0.076754838
-0.091670379 0.055567201 0.076396361
-0.089548379 0.055567201 0.075458005
0.025583085 0.055567201 0.077198073
0.089875668 0.055567198 0.075843379
0.096598215 0.055567201 0.071735919
0.12609653 0.055567205 0.070197463
0.24594705 0.055567201 0.07230372
0.40393558 0.055567201 0.078527473
-0.26895255 0.0637592 0.075423561
-0.23453885 0.0637592 0.070484281
-0.15287936 0.0637592 0.076777384
-0.13429509 0.0637592 0.076397575
-0.11297703 0.0637592 0.078742802
-0.062040113 0.0637592 0.073604189
-0.044734202 0.0637592 0.07088396
-0.0046747178 0.0637592 0.077753052
0.12062915 0.0637592 0.074576482
0.1469765 0.0637592 0.07973218
0.222139 0.0637592 0.079162292
0.24998045 0.0637592 0.077508286
0.26775771 0.0637592 0.078237861
0.38355339 0.0637592 0.078107476
0.42519474 0.061791439 0.079055153
-0.36542886 0.055567205 0.08249405
-0.3100256 0.055567201 0.084902458
-0.30368444 0.055567198 0.081943795
-0.29690838 0.055567201 0.081231222
-0.28173715 0.055567201 0.084834836
0.12606528 0.055567198 0.087722495
0.15757781 0.055567201 0.087565005
0.20305315 0.055567205 0.08695139
0.31966251 0.055567201 0.083952583
0.34506482 0.055567201 0.082474396
0.3675105 0.055567201 0.088863336
-0.38497937 0.0637592 0.081924319
-0.31139156 0.0637592 0.084160939
-0.28964642 0.0637592 0.087167852
-0.1848703 0.0637592 0.087238662
-0.17600846 0.0637592 0.082079493
-0.14688465 0.0637592 0.089218363
0.083819121 0.0637592 0.081032135
0.099213615 0.0637592 0.082991928
-0.35970312 0.055567201 0.09199734
-0.25092411 0.055567201 0.096910849
-0.23799011 0.055567201 0.097133011
-0.0088046091 0.055567198 0.091683447
0.02739251 0.055567201 0.091145992
0.17645907 0.055567198 0.092354529
0.19292137 0.055567198 0.093946546
0.29631862 0.055567198 0.094907075
0.38252681 0.055567201 0.092599928
-0.28875494 0.0637592 0.095559701
-0.27538007 0.0637592 0.094221652
-0.21529359 0.0637592 0.098886654
-0.16704912 0.0637592 0.094563916
-0.15023158 0.0637592 0.099657804
-0.12639587 0.0637592 0.098705143
-0.086972736 0.0637592 0.095808923
-0.079789743 0.0637592 0.099534005
0.1089697 0.0637592 0.091291949
0.11439963 0.0637592 0.098409675
0.14632994 0.0637592 0.0961923
0.15313569 0.0637592 0.093957163
0.20855004 0.0637592 0.09873119
0.24060637 0.063759208 0.097169109
0.34435537 0.0637592 0.091899961
0.3825559 0.0637592 0.093824707
0.42248365 0.060820471 0.098212957
-0.30946618 0.055567205 0.1078058
-0.19516358 0.055567198 0.10583512
-0.12696216 0.055567201 0.10345358
-0.11860153 0.055567205 0.10784954
-0.087227441 0.055567205 0.10330708
0.04331826 0.055567198 0.10609192
0.05534422 0.055567201 0.10646036
0.1686452 0.055567205 0.10043625
0.17464107 0.055567201 0.10512182
0.19701178 0.055567201 0.10580248
0.20286787 0.055567198 0.10363223
0.26156843 0.055567205 0.10925828
0.37916681 0.055567201 0.10185917
-0.36371401 0.060602907 0.10479475
-0.32536536 0.0637592 0.10766579
-0.28794718 0.0637592 0.10107674
-0.18872419 0.0637592 0.10500272
-0.16881354 0.0637592 0.10399593
0.043244906 0.0637592 0.1083668
0.09361437 0.0637592 0.10084635
0.25854242 0.0637592 0.10653088
0.27517101 0.0637592 0.10782003
-0.3402462 0.055567201 0.11165479
-0.31807476 0.055567205 0.1143551
-0.075466499 0.055567201 0.1106714
0.12985885 0.055567201 0.1197148
0.14343242 0.055567205 0.11296333
0.19564663 0.055567201 0.11949199
0.21943179 0.055567205 0.11062968
0.25273624 0.055567205 0.11492185
0.30394858 0.055567201 0.11625411
-0.3559311 0.0637592 0.11174873
-0.18356593 0.0637592 0.11955668
-0.097336039 0.0637592 0.11057395
-0.036118582 0.0637592 0.11989802
0.0043439395 0.0637592 0.1170724
0.071787462 0.0637592 0.11279291
0.25281715 0.0637592 0.11338846
0.29710388 0.0637592 0.11156684
0.32966852 0.0637592 0.1183289
0.3706322 0.0637592 0.11658287
0.38111278 0.0637592 0.11771649
0.39289412 0.0637592 0.11375229
0.40705913 0.061913889 0.11945108
-0.26606858 0.055567201 0.12522092
-0.12690185 0.055567198 0.12010354
0.07187064 0.055567205 0.12278518
0.26927203 0.055567205 0.12538031
-0.28217536 0.0637592 0.12652081
-0.25984564 0.0637592 0.12634483
-0.01257841 0.0637592 0.12412818
-0.0066814125 0.0637592 0.12640545
0.056319214 0.0637592 0.1283482
0.32552111 0.0637592 0.12389264
0.35981515 0.0637592 0.12375519
0.36680803 0.0637592 0.12288273
0.40505803 0.0637592 0.12701899
-0.16897246 0.055567198 0.13041051
-0.1598693 0.055567198 0.13926657
-0.10510357 0.055567201 0.13489842
0.099492833 0.055567205 0.13058388
0.20823212 0.055567205 0.13360558
0.23589975 0.055567201 0.13673204
0.2903375 0.055567205 0.13995768
-0.24980895 0.0637592 0.13552272
-0.22397977 0.0637592 0.13600419
-0.19194444 0.0637592 0.13422723
-0.14088131 0.0637592 0.13213386
-0.11754222 0.0637592 0.13307747
-0.09228766 0.0637592 0.13719907
-0.00030773133 0.0637592 0.13330333
0.010049835 0.0637592 0.1397696
0.049299169 0.0637592 0.13114958
0.063752145 0.0637592 0.13791569
0.10637753 0.0637592 0.13359432
0.22627541 0.0637592 0.13220289
0.23249739 0.0637592 0.13673456
0.34454322 0.0637592 0.13662963
0.4211151 0.069031619 0.13534096
-0.19443569 0.055567205 0.14705873
-0.16346128 0.055567201 0.14142209
-0.12807269 0.055567205 0.14715421
-0.11210865 0.055567205 0.14572915
-0.046552081 0.055567201 0.14134723
-0.039331064 0.055567205 0.14836341
0.024512429 0.055567205 0.14937878
0.035293538 0.055567201 0.14640133
0.15863049 0.055567205 0.1457358
0.20811322 0.055567201 0.14394042
0.26471901 0.055567201 0.14459063
0.27526683 0.055567201 0.14127639
0.3425574 0.055567201 0.14692391
-0.17701134 0.0637592 0.14899009
-0.099411942 0.0637592 0.14304183
-0.035458736 0.0637592 0.14243411
-0.0294863 0.0637592 0.14808872
-0.0087469742 0.0637592 0.14237502
0.21695057 0.0637592 0.14036033
0.32176346 0.0637592 0.1400293
0.34095103 0.0637592 0.14767286
0.36115199 0.0637592 0.14198877
0.39089036 0.0637592 0.14680931
0.42079628 0.068917386 0.14697662
-0.29613435 0.055567201 0.15701036
-0.24278733 0.055567201 0.15193602
-0.18030356 0.055567201 0.15007956
-0.12821668 0.055567201 0.15029722
-0.058539435 0.055567205 0.15667972
0.061702687 0.055567201 0.15836239
0.07114996 0.055567201 0.15068218
0.23581159 0.055567201 0.15502304
0.35038573 0.055567201 0.15945956
0.38012505 0.055567205 0.1571517
-0.30589274 0.061330538 0.15207474
-0.29407638 0.060273416 0.15985569
-0.087478817 0.0637592 0.1505841
0.19770987 0.0637592 0.15477407
0.21848421 0.0637592 0.15446328
0.26181886 0.0637592 0.15703943
0.39130354 0.0637592 0.15517828
-0.12434331 0.055567201 0.16366589
-0.016887061 0.055567201 0.16719197
0.031888437 0.055567201 0.16026966
0.047647316 0.055567201 0.16001305
0.15156326 0.055567201 0.16424787
0.22475928 0.055567198 0.16427141
0.23081279 0.055567198 0.16893557
0.2580972 0.055567201 0.1616824
0.28449452 0.055567201 0.1689025
-0.23747911 0.0637592 0.16454574
-0.15449013 0.0637592 0.16748543
-0.11293454 0.0637592 0.16754954
-0.061959166 0.0637592 0.16340387
-0.030215673 0.0637592 0.16252863
0.091615684 0.0637592 0.16819999
0.12297796 0.0637592 0.16718212
0.34597781 0.0637592 0.16841091
0.40659153 0.06382852 0.16807151
0.43152106 0.072759897 0.16378193
0.44085938 0.070767172 0.16884981
-0.21963155 0.055567205 0.17123361
-0.19248182 0.055567198 0.17793173
-0.18322177 0.055567205 0.17438813
-0.099973246 0.055567201 0.17039844
0.063279174 0.055567201 0.17569609
0.076078065 0.055567201 0.17233273
0.27672076 0.055567205 0.17716539
0.28123942 0.055567205 0.17056806
0.34084773 0.055567205 0.17133589
0.39957637 0.055567201 0.17505032
-0.17353627 0.0637592 0.17384064
-0.12701279 0.0637592 0.17935356
-0.10846958 0.0637592 0.17402339
-0.062061533 0.0637592 0.1722973
-0.052360199 0.0637592 0.17501265
0.027665742 0.0637592 0.17585662
0.10036831 0.0637592 0.17112678
0.27231574 0.0637592 0.17972691
0.29155549 0.0637592 0.17034236
0.42123407 0.069074519 0.17617007
-0.25444481 0.05832617 0.18183745
-0.14723431 0.055567201 0.18287203
-0.0041745156 0.055567201 0.18506634
0.082080737 0.055567205 0.18111978
0.11855556 0.055567201 0.1861961
0.28178358 0.055567205 0.18625835
0.33071029 0.055567198 0.18819968
-0.12412417 0.0637592 0.18649939
-0.11882434 0.0637592 0.18506694
-0.10405585 0.0637592 0.18564591
-0.098573625 0.0637592 0.18030958
-0.041482463 0.0637592 0.18511389
0.11060406 0.0637592 0.18499807
0.22774267 0.0637592 0.18157534
0.31843638 0.0637592 0.1837915
0.39448503 0.0637592 0.18110661
0.42946136 0.063320421 0.18189302
0.43811771 0.075122848 0.18241635
-0.12268801 0.055567201 0.19031262
0.14630122 0.055567205 0.19913286
0.17576024 0.055567198 0.19467837
0.20338374 0.055567198 0.19388577
0.38912833 0.055567201 0.19252664
-0.20479786 0.0637592 0.19284099
-0.071285322 0.0637592 0.19061202
-0.048816666 0.0637592 0.19165106
-0.012028389 0.0637592 0.19887759
0.037805986 0.0637592 0.19684839
0.10567545 0.0637592 0.1911082
0.20603588 0.0637592 0.19723126
0.36977798 0.0637592 0.19010581
-0.15774548 0.055567201 0.20143911
-0.092848189 0.055567201 0.2038766
-0.078043528 0.055567198 0.20506358
-0.039995346 0.055567198 0.2050309
-0.0024628416 0.055567201 0.20687896
0.096995443 0.055567205 0.20099089
0.20260699 0.055567205 0.20364682
0.23677659 0.055567205 0.20253955
0.27777776 0.055567198 0.20209107
0.28621361 0.055567194 0.20887299
0.34261706 0.055567201 0.20923874
0.40765077 0.055784885 0.20896792
-0.097760558 0.0637592 0.20811211
-0.026233451 0.0637592 0.2003106
-0.005639948 0.0637592 0.20069382
0.075765438 0.0637592 0.20491984
0.10522854 0.0637592 0.20040652
0.19165908 0.0637592 0.20293348
0.21448264 0.0637592 0.20995492
0.28948075 0.0637592 0.20722586
0.30590424 0.0637592 0.20923063
0.33369526 0.0637592 0.2081427
0.40715227 0.064029396 0.20149788
0.4133803 0.066260472 0.20195965
-0.1331563 0.055567201 0.21269174
-0.1264025 0.055567201 0.21112415
-0.078686461 0.055567201 0.21133044
-0.015159868 0.055567201 0.21945933
0.12005698 0.055567198 0.21427912
0.1483646 0.055567201 0.21577653
0.27110547 0.055567201 0.21261905
0.36720508 0.055567205 0.21263346
0.40892303 0.056005947 0.21773614
-0.15794903 0.0637592 0.21494912
-0.14018816 0.063001961 0.21952683
-0.10933964 0.0637592 0.21448338
-0.029138915 0.0637592 0.21657941
0.0014414564 0.0637592 0.21707907
0.13204502 0.0637592 0.21794391
0.21226612 0.0637592 0.21675049
0.22060008 0.0637592 0.21294579
0.38829455 0.0637592 0.21982378
-0.013836838 0.055567201 0.2203075
0.018399632 0.059199721 0.22110599
0.093865797 0.057609372 0.22110599
0.24940741 0.056143876 0.22110599
0.31153786 0.056969974 0.22110599
-0.13347676 0.060403753 0.22046904
-0.11138131 0.0637592 0.22034553
-0.066469356 0.060666282 0.22110599
-0.056061942 0.061696965 0.22110599
-0.012668997 0.062435605 0.22110599
-0.0031763688 0.061727226 0.22110599
0.023399826 0.060216516 0.22110599
0.090095535 0.061074886 0.22110599
0.27924913 0.0637592 0.2207053
