# .PCD v0.7 - Point Cloud Data file format
VERSION 0.7
FIELDS x y z
SIZE 4 4 4
TYPE F F F
COUNT 1 1 1
WIDTH 910
HEIGHT 1
VIEWPOINT 0 0 0 1 0 0 0
POINTS 910
DATA ascii
-0.31078637 0.0097413063 -0.12554419
0.25615412 0.0098671401 -0.12043492
0.27345127 0.0095502529 -0.12537296
0.29818216 0.0070027336 -0.12434087
0.31158584 0.0064180596 -0.12287773
0.33718204 0.0086916406 -0.12224542
-0.35268852 0.019584835 -0.12562826
-0.3489227 0.016794976 -0.126093
-0.29472089 0.010873385 -0.12552403
-0.27582127 0.018294564 -0.12842658
-0.18266362 0.016826145 -0.122314
-0.16930315 0.016142143 -0.12735268
-0.15481938 0.014505067 -0.12231401
-0.10948031 0.013345606 -0.1216123
-0.085559681 0.016249795 -0.12351733
0.021326687 0.016206304 -0.12231399
0.033862948 0.015016465 -0.12231401
0.059337467 0.015829168 -0.12231401
0.1011671 0.014161199 -0.12505043
0.14075518 0.017896827 -0.122314
0.2075206 0.013491388 -0.12238538
0.22535154 0.01714861 -0.12818454
0.23028436 0.015762765 -0.122314
0.24692899 0.010707341 -0.12069854
0.28798521 0.015624747 -0.12520808
0.29520255 0.015302053 -0.1245544
0.31481928 0.014108353 -0.12075698
-0.37056789 0.02852237 -0.12275413
-0.34674183 0.022104353 -0.12393349
-0.33902583 0.020979432 -0.12013054
-0.30209213 0.021327065 -0.12176418
-0.21469349 0.023270287 -0.12686007
-0.19702595 0.023852527 -0.12689082
-0.0023998991 0.025807053 -0.12176792
0.064566851 0.024928765 -0.122314
0.10939369 0.024921725 -0.12231399
0.11608224 0.025184987 -0.12515998
0.15300177 0.021002922 -0.12231401
0.19528656 0.023237403 -0.122314
0.21207975 0.025678921 -0.12108561
0.26338267 0.02195717 -0.1219383
-0.33712041 0.0071159601 -0.11362426
0.3077094 0.0051552299 -0.11901571
0.31905663 0.0038586459 -0.11463766
0.34259945 0.0078674387 -0.11924457
0.35387105 0.009514234 -0.11014962
-0.33288345 0.01471709 -0.11227975
-0.17866018 0.011869453 -0.11372577
-0.13142464 0.01189758 -0.11387555
-0.11166506 0.011690961 -0.11277513
-0.056231253 0.011322548 -0.11081301
0.044592433 0.012321029 -0.1161308
0.06563355 0.012753154 -0.11843225
0.10265421 0.011202167 -0.11017187
0.16606314 0.011281972 -0.1105969
0.20323385 0.013033298 -0.11992427
0.23534685 0.010460011 -0.11409415
0.30670148 0.017426794 -0.11767226
-0.1978305 0.024009489 -0.11219572
-0.15450992 0.023880117 -0.1115068
-0.085858949 0.023919994 -0.11171915
-0.056884319 0.023990192 -0.11209296
-0.039211217 0.024171181 -0.11305675
0.014129966 0.025002006 -0.11748096
0.093731344 0.024556726 -0.1151098
0.2072998 0.025241978 -0.11875884
0.21109353 0.023695363 -0.11052297
0.25493008 0.02135339 -0.11486489
0.36715481 0.026403928 -0.11660513
-0.41336828 0.045984969 -0.11081836
-0.39579606 0.045330293 -0.11093923
0.39198723 0.040561844 -0.11119603
-0.28673783 -0.072995842 -0.10036345
0.27707964 -0.072131656 -0.10008971
-0.28085667 -0.065348342 -0.101123
-0.2726118 -0.059143707 -0.10092831
-0.26247939 -0.05512603 -0.10023339
0.27515343 -0.053423475 -0.10082521
-0.27832913 -0.044009037 -0.10104802
-0.33242601 0.0068275942 -0.10733928
-0.28724861 0.0077838316 -0.10787241
-0.25230411 0.0091537023 -0.10181414
-0.090182103 0.0098154414 -0.10278633
-0.016129948 0.0097719431 -0.10255467
0.063922837 0.0094961561 -0.10084648
0.2480413 0.0080534117 -0.10707183
0.37102228 0.016458161 -0.10482576
-0.052376121 0.02356986 -0.10985465
-0.0322349 0.023572564 -0.10986905
-0.0065294299 0.022379559 -0.10345672
0.018698508 0.022651169 -0.10496254
0.15023763 0.023342784 -0.10864545
0.20176043 0.022008641 -0.10140468
0.35270679 0.020679208 -0.10609257
0.37337661 0.029884435 -0.10354766
0.39138764 0.027758477 -0.10376956
-0.4083069 0.038761757 -0.10690591
-0.42190832 0.047458269 -0.10023382
-0.4199186 0.047380049 -0.10579412
0.25863588 -0.082803614 -0.098968223
-0.28095955 -0.070700638 -0.091181897
0.25888804 -0.073068991 -0.099880606
-0.29994866 -0.061049372 -0.093593329
-0.28886271 -0.061799359 -0.09348727
-0.26095229 -0.065074213 -0.094288401
0.23679206 -0.067247346 -0.095210709
-0.29940563 -0.056929056 -0.093155332
-0.28043795 -0.059217941 -0.091181897
-0.27094233 -0.051222336 -0.091181897
-0.25840318 -0.053155653 -0.094288401
0.26676908 -0.054690018 -0.099880591
-0.27876729 -0.0400838 -0.094288401
-0.33242601 0.0046853935 -0.094021492
-0.27881002 0.0058138631 -0.092363685
-0.21276291 0.0088481884 -0.096613318
-0.13339826 0.0085799703 -0.094861053
-0.080297008 0.0092240842 -0.099069044
-0.004868634 0.0078654261 -0.090192944
0.012013219 0.0090934038 -0.098215297
0.036035672 0.0088912891 -0.09689489
0.1994148 0.0081052342 -0.091759607
0.31092691 0.0010096951 -0.097982571
0.36240119 0.0093110465 -0.090959974
-0.33208421 0.012827345 -0.097345576
0.34678406 0.017456898 -0.099495888
0.36705902 0.01277006 -0.097150855
0.37799832 0.018931206 -0.097182393
-0.25074139 0.020613879 -0.094768435
-0.2484674 0.020648899 -0.093936078
-0.21662565 0.020709259 -0.092915855
-0.15691482 0.021126296 -0.095640332
-0.12973486 0.021776006 -0.099884883
-0.087121949 0.021700077 -0.099388845
0.077361867 0.02177522 -0.099879749
0.095219404 0.021476714 -0.097929627
0.12331499 0.020501636 -0.09155944
0.13151298 0.021634024 -0.098957315
0.17530784 0.020593096 -0.092156954
-0.40103215 0.045440421 -0.095230862
0.42600417 0.05963622 -0.092775285
0.23656273 -0.069446124 -0.087787151
-0.27793145 -0.058693107 -0.08747711
0.27230233 -0.041084725 -0.087489463
-0.34972751 0.0057466915 -0.0853699
-0.24371408 0.0067198435 -0.082708858
-0.18887894 0.006596637 -0.081903949
-0.10202955 0.0063789766 -0.080084831
-0.054412253 0.0077201426 -0.089243807
-0.04686074 0.0067965621 -0.083210066
-0.019580141 0.0066675935 -0.08236751
0.002896823 0.0076672337 -0.088898152
0.055474069 0.0071494547 -0.085515507
0.077361673 0.0071255919 -0.085359611
0.13213813 0.0064210268 -0.080439076
0.20205866 0.0066859485 -0.082487419
0.30508599 0.00080529123 -0.087439016
0.36258879 0.0081028193 -0.083101086
-0.34031725 0.015893195 -0.089156777
-0.14733201 0.019327626 -0.083889633
-0.090400979 0.018875347 -0.080668896
0.05760498 0.019517317 -0.085128903
0.16260232 0.019438434 -0.084613562
0.24659505 0.017062673 -0.08505097
0.36710852 0.010037544 -0.081354886
0.37017721 0.01195513 -0.082326569
-0.37438643 0.028122623 -0.081529811
0.11045463 0.020254835 -0.089947112
-0.3852956 0.034823306 -0.084723137
-0.37804496 0.030733811 -0.085618839
0.38718659 0.034843288 -0.08464773
0.41318974 0.038876563 -0.089241549
0.42859375 0.047893021 -0.083750747
0.43843615 0.054106802 -0.084029652
0.44260451 0.059588663 -0.0836716
-0.44013953 0.060677651 -0.089580946
0.25313494 -0.085784845 -0.074273407
0.23768806 -0.072162509 -0.075672075
-0.27316272 -0.058720618 -0.073506542
0.24028495 -0.047880724 -0.075918794
-0.26634967 -0.039737314 -0.070318408
0.30999178 -0.002306731 -0.074444279
-0.33712304 0.0052818181 -0.07092692
-0.3157846 0.0011372104 -0.078258246
-0.24037157 0.0052205729 -0.07032606
-0.18042462 0.0056888266 -0.074270777
-0.17162031 0.0052304696 -0.070409432
-0.12209839 0.0055334768 -0.072962068
-0.012313839 0.0055769118 -0.073327981
0.021658907 0.0058369585 -0.07551869
0.049119748 0.0054842634 -0.072547473
0.098092258 0.0062534348 -0.079027228
0.10473126 0.0053632343 -0.071527891
0.20317964 0.0058614742 -0.075725228
0.31798291 0.0097449943 -0.074606329
0.35006309 0.0023399009 -0.077401899
-0.24445814 0.018053692 -0.073746972
-0.20313951 0.018380651 -0.076501399
-0.019635744 0.018219434 -0.075143225
0.067333698 0.017636627 -0.070233479
0.36877969 0.010703908 -0.079643711
0.37359777 0.013076593 -0.076244414
0.39156845 0.023293197 -0.07016582
0.39840421 0.040343247 -0.073507175
0.40629345 0.045433298 -0.074848935
-0.43574828 0.050081857 -0.070786834
-0.45199206 0.064275965 -0.072341248
-0.45292372 0.072371751 -0.070871614
-0.26404071 -0.080081195 -0.0694343
0.24121164 -0.072367519 -0.065518133
0.26304704 -0.07096801 -0.062253028
-0.29112756 -0.060355119 -0.0694343
-0.28398681 -0.062108524 -0.062898852
-0.28676867 -0.057082273 -0.066638201
-0.26941174 -0.055332731 -0.060235381
0.23784846 -0.053407952 -0.068754978
-0.26419944 -0.041422602 -0.0694343
0.27477112 -0.00051776599 -0.06291052
-0.28286111 0.0013912767 -0.060232162
-0.20676802 0.004424029 -0.063615717
-0.19167629 0.0040668529 -0.060258083
-0.18813784 0.0045373752 -0.064570583
-0.030049741 0.0043200254 -0.062739559
0.071624897 0.004299032 -0.062562704
0.093746409 0.0045674229 -0.064823717
0.11744903 0.0048448597 -0.067160927
0.16814862 0.004961418 -0.068142854
0.21781102 0.0050876616 -0.069206379
0.30332261 0.0096426774 -0.064432964
-0.37054214 0.011383191 -0.063570186
-0.31980282 0.01155066 -0.06371206
-0.28584012 0.014449436 -0.067695916
-0.27648515 0.014622917 -0.06352818
-0.12953356 0.016918419 -0.064183012
-0.077356651 0.016708588 -0.062415335
-0.047971245 0.017181106 -0.066395983
-0.014989451 0.017386744 -0.068128355
0.021357073 0.017456286 -0.068714201
0.11072184 0.016665058 -0.06204861
0.36959347 0.021194052 -0.061710142
-0.38180986 0.030375339 -0.068097062
0.44052368 0.053589661 -0.060634263
-0.45612881 0.066275783 -0.065546706
0.26734155 -0.067772344 -0.056601167
-0.3397561 -0.00049739931 -0.059082862
0.27654919 -0.0011577606 -0.057726271
0.32457894 -0.0047206068 -0.055676021
-0.2892355 0.00021272848 -0.051681858
-0.26472107 0.0018956782 -0.05087721
-0.25157106 0.0033772129 -0.057286374
-0.2388373 0.0032717353 -0.050860222
-0.21573281 0.0037268875 -0.056239869
-0.080678247 0.003706642 -0.056000583
0.0013895035 0.0034030019 -0.052411724
0.025463767 0.0032157879 -0.050198957
0.24154997 0.0016987184 -0.05602885
0.25954804 0.00039400347 -0.058843039
0.35506845 0.0012741791 -0.055007473
0.36069337 0.0030893283 -0.050624873
-0.35038683 0.014832475 -0.056411058
-0.28653154 0.013005862 -0.053723585
-0.26894203 0.01431568 -0.054355368
-0.2315494 0.015988857 -0.054286618
-0.0034330562 0.016093461 -0.055523347
0.0030017421 0.015900895 -0.053246669
0.038908638 0.015910763 -0.053363346
0.12973219 0.016195791 -0.056733184
0.13109246 0.016100315 -0.055604387
0.22560947 0.015610657 -0.057429649
0.35660025 0.013963604 -0.051819131
0.364667 0.017958224 -0.057374455
-0.40072471 0.0281041 -0.05571726
-0.37440518 0.024362082 -0.050015137
0.37256318 0.021968946 -0.051279671
0.41668344 0.038072243 -0.057865582
-0.42569578 0.043535285 -0.055574007
-0.41328314 0.048653353 -0.057943143
0.43288514 0.04862386 -0.059862502
0.43958655 0.064817995 -0.05095518
-0.4638702 0.072993338 -0.053399879
-0.2734848 -0.071305804 -0.041792333
-0.28488374 -0.062248942 -0.040524818
0.26662832 -0.057792909 -0.045645043
-0.33446786 -0.0025735362 -0.049717765
-0.28646219 -0.00052974676 -0.040258631
0.34471628 -0.0029734452 -0.042568523
-0.36387917 0.0065514296 -0.04523341
-0.33712399 0.00863491 -0.044417027
-0.19021422 0.0029308426 -0.046831056
-0.15393178 0.0024265323 -0.0407691
-0.1246888 0.0029790965 -0.047401391
-0.10140423 0.0031378469 -0.049277734
-0.095423177 0.0029627243 -0.047207884
-0.08463838 0.0031190114 -0.049055107
-0.049285054 0.0031793662 -0.04976847
0.20476271 0.0029118988 -0.046607148
-0.26302761 0.013880005 -0.044209801
-0.19067574 0.015108888 -0.043882865
-0.18754694 0.015070271 -0.043426305
-0.15655062 0.015411134 -0.047456287
-0.14260614 0.015587103 -0.049536735
-0.0069879368 0.015198233 -0.044939186
0.071837813 0.015530281 -0.048864949
0.17277576 0.015408904 -0.047429923
0.1926536 0.015529397 -0.048854504
0.21722198 0.015530659 -0.048869416
-0.37527511 0.024695313 -0.048639469
-0.26195821 -0.06370683 -0.038527921
0.25072339 -0.061350301 -0.038223185
-0.32107291 -0.0031735389 -0.036868423
-0.31711581 -0.0027683382 -0.039289348
-0.28763902 -0.00098154461 -0.03299427
0.28159389 -0.0073257801 -0.031299446
-0.36041155 0.0042302348 -0.032181658
-0.35360092 0.002023001 -0.038621914
-0.24618647 0.0037396527 -0.037458442
-0.15688735 0.0020760901 -0.033836175
-0.11056963 0.0021738261 -0.035769716
0.048537876 0.0019711733 -0.031769138
0.066020705 0.0021792562 -0.035880148
0.11564289 0.0019196863 -0.030754095
0.21557803 0.0028366956 -0.03155816
0.30307165 0.0072761825 -0.034963787
0.3369545 0.0074660564 -0.037031591
0.34629497 0.0095948 -0.039817095
-0.27678096 0.012137009 -0.031332474
-0.23651455 0.014713179 -0.037989713
-0.16458641 0.01478309 -0.039367106
-0.13188027 0.01463398 -0.036421642
0.093937725 0.014619173 -0.036127821
0.1127 0.014768612 -0.039080568
0.23983996 0.012554061 -0.03215811
0.35012135 0.010461082 -0.036383595
-0.4079023 0.030542653 -0.035111107
0.42341861 0.040919207 -0.030000042
0.4568702 0.07523936 -0.032371387
-0.47024146 0.080652222 -0.033258263
0.23669191 -0.060823962 -0.0200621
-0.21731709 -0.0110541 -0.022796191
0.27253467 -0.010071632 -0.028468236
-0.3396697 -0.0029299671 -0.024223987
-0.32925081 -0.0042299228 -0.027539523
-0.26859397 -0.0077317171 -0.022256574
-0.25742206 -0.0079423487 -0.022155175
0.32815635 -0.0065649757 -0.026709389
-0.364149 0.0051943189 -0.021096652
-0.20589067 0.0018276467 -0.02892831
-0.10351929 0.0017174033 -0.026753332
0.011893027 0.0018150078 -0.028683122
0.039555848 0.0015907263 -0.02425414
0.16913368 0.0016335652 -0.025103664
0.20028099 0.00019123312 -0.022492563
-0.39035094 0.019199595 -0.022277206
-0.36645535 0.018815525 -0.024386419
-0.30025735 0.010328942 -0.028735369
-0.16604191 0.014125984 -0.026386842
-0.13457152 0.014214408 -0.028133541
-0.032300025 0.014132229 -0.026510201
-0.020580694 0.013935558 -0.022625245
0.11720014 0.014058638 -0.025057014
0.13552044 0.014267413 -0.029185228
0.19182897 0.013880175 -0.021546599
0.26344275 0.010011335 -0.02190097
0.41009164 0.044404481 -0.021988763
-0.46051282 0.061946794 -0.023529835
-0.46411979 0.07656277 -0.022656847
0.24213023 -0.060086232 -0.019767046
0.25061944 -0.062375829 -0.010410815
0.26563448 -0.069525614 -0.01113495
-0.245308 -0.055059522 -0.016201304
0.23624775 -0.058530916 -0.018795231
0.25165427 -0.058088146 -0.017192559
-0.25175089 -0.042716265 -0.016336394
-0.2384771 -0.049080007 -0.012593226
0.27200148 -0.045758866 -0.017287605
0.22289607 -0.038655277 -0.014285767
0.24646433 -0.039909765 -0.010227595
-0.24927402 -0.02759519 -0.015761934
0.23162536 -0.028339526 -0.015081868
-0.26548481 -0.017707469 -0.015536814
0.25296494 -0.017538406 -0.011228084
-0.32908595 -0.0047063301 -0.012649261
-0.2826162 -0.0073257801 -0.011956267
-0.27621776 -0.0077060726 -0.015451111
-0.23284 -0.0073257801 -0.015308199
0.21267593 -0.0073257801 -0.018144187
0.23260359 -0.0037101363 -0.017379876
0.25591367 -0.0018606373 -0.019292738
-0.24100843 0.0012393518 -0.010916317
-0.19915411 0.0012316892 -0.010462563
-0.14164945 0.001266694 -0.012535425
-0.13582435 0.0013810832 -0.019309143
0.083901763 0.0013667864 -0.018462539
0.097876191 0.001311484 -0.015187723
0.15098953 0.0012535667 -0.011758069
-0.1853734 0.013739103 -0.015201291
0.098981246 0.013760143 -0.016445288
0.11524093 0.013808755 -0.019319419
0.1565666 0.013659879 -0.010517238
0.17141339 0.013793919 -0.018442281
0.36021668 0.013037846 -0.013776151
-0.38586199 0.027722999 -0.012728629
-0.39980865 0.037260141 -0.019645572
0.46788296 0.069632679 -0.016461566
-0.46164596 0.074891947 -0.011835396
-0.26847044 -0.068193547 -0.0094872378
-0.28153762 -0.058011398 -0.0047920858
0.22507063 -0.058626007 -0.0005917903
0.25364187 -0.055431791 -0.001182545
-0.27732712 -0.048039235 -0.0044613481
0.22604707 -0.047834381 -0.0047729975
-0.29050589 -0.0335453 -0.00028039224
-0.3019523 -0.019537214 -0.0057949214
-0.26518419 -0.011530234 -0.005538254
0.20323852 -0.015030328 -0.0043655941
-0.30253232 -0.0073257806 -0.0065529654
-0.29590803 -0.0073257801 -0.0051876605
-0.25896874 -0.0073257801 -0.0091812545
-0.215922 -0.0028018935 -0.004986404
0.2989338 -0.0057753935 -0.0058270353
0.30511588 -0.0027272189 -2.4943901e-07
-0.31526658 0.008562522 -0.0040515177
-0.30274317 0.0093889181 -1.3296751e-05
-0.27505636 0.0028358384 -2.4943901e-07
-0.20975615 0.0013150894 -2.4943901e-07
-0.19213831 0.0079060299 -2.4943901e-07
-0.16207683 0.001108159 -0.0031475383
-0.11791141 0.004769614 -2.4943901e-07
-0.10628767 0.0062965974 -2.4943901e-07
-0.098411851 0.0010861073 -0.001841724
-0.084218994 0.0038716195 -0.00075984135
-0.05052362 0.0011770395 -0.0072263945
-0.026662391 0.0011665158 -0.0066032251
0.017800465 0.0010675397 -0.00074220821
0.071628854 0.0054286988 -2.4943901e-07
0.10350506 0.0042152754 -2.4943901e-07
0.11421877 0.0010555831 -3.4181896e-05
0.15274984 0.0055635995 -2.4943901e-07
0.21837631 0.0010547251 -2.4943901e-07
0.23367216 0.0080263242 -2.4943901e-07
0.25931597 0.0038878331 -2.4943901e-07
0.26991194 0.0090562999 -0.00092172506
0.31780893 0.0050802021 -0.0092139551
-0.38695997 0.016728137 -0.0049788738
-0.36798924 0.019080184 -0.0098336795
-0.35202658 0.010090768 -2.4943901e-07
-0.23313501 0.013558308 -0.0045118858
-0.22538894 0.013644582 -0.0096127838
-0.1959511 0.013573626 -0.0054175849
-0.15109396 0.01358174 -0.0058973585
-0.14719015 0.011864942 -2.4943901e-07
-0.086145461 0.013561158 -0.0046803853
-0.047989078 0.013456016 -2.4943901e-07
-0.02650607 0.01364886 -0.0098657273
-0.019684844 0.013555032 -0.0043182913
0.020029992 0.012050051 -2.4943901e-07
0.078815654 0.013559565 -0.0045862622
0.20210388 0.013510325 -0.0016749843
0.22399396 0.013031635 -0.0032673515
0.38532853 0.015547742 -0.0090918876
-0.41103786 0.031439964 -0.0048536644
0.38866568 0.030140411 -0.0081929769
0.41769728 0.039473291 -2.4943901e-07
0.4171747 0.043137923 -2.4943901e-07
0.45594767 0.063394994 -2.4943901e-07
-0.46244979 0.075295515 -0.0059697544
0.45974863 0.076656096 -0.0095790131
0.46409279 0.075088173 -2.4943901e-07
0.25106171 -0.06501022 0.0036319215
-0.24026625 -0.058069825 0.0017770478
-0.23503619 -0.050415117 0.0063681547
0.22155623 -0.054499917 0.0099873589
0.2640329 -0.053958833 0.0012444016
-0.26712611 -0.049958318 0.0036535095
0.22559969 -0.048007853 0.001308505
0.25840583 -0.049548097 0.0036855144
-0.2879768 -0.037350085 0.0066147372
-0.26739722 -0.037856497 0.0061999946
-0.30155087 -0.020582931 0.0038384637
-0.28514293 -0.020460773 0.0081286253
-0.24469335 -0.029469373 0.0069565466
0.24687751 -0.011016089 0.0080096452
-0.3160271 -0.0039374866 0.0029419055
-0.28669953 -0.0017594062 0.0078730574
-0.26619121 -0.0073257801 0.0064918124
0.25888863 -0.0073257801 0.0069000018
0.28241339 -0.0043277782 0.0076986444
0.32615215 -0.0073888395 0.0019608876
-0.32001364 0.0082714651 0.0068800198
-0.14991164 0.0010786969 0.0014024401
-0.120663 0.0011445205 0.0053003682
0.063615546 0.0011134538 0.003460665
0.080505058 0.0011774686 0.007251488
0.12045394 0.0010926585 0.00222921
0.16060066 0.0012122709 0.009312409
0.36285311 0.0015355838 0.0034350632
-0.35857913 0.01512732 0.0095949424
-0.34792468 0.011375412 0.0057262159
-0.24682173 0.013439066 0.0033158301
-0.029032599 0.013498703 0.00098731811
0.00044220686 0.013566863 0.0050172945
0.090638772 0.013603937 0.0072093778
0.18115708 0.013488055 0.00035776949
0.2227466 0.013141599 0.0034416381
-0.40212166 0.025985058 0.0045078099
-0.37849522 0.024194162 0.002213178
-0.42400095 0.039351732 0.0042961487
-0.40915054 0.030257266 0.003219987
-0.3987084 0.036331549 0.004798817
0.39892849 0.036896862 0.0084966468
-0.45010331 0.055372797 0.0087520303
-0.47461802 0.07059475 0.0066880137
0.46097887 0.077476293 0.0076655326
-0.24494192 -0.051943 0.017568398
0.22204931 -0.054685622 0.014772902
0.2665219 -0.055677839 0.013496194
0.27117896 -0.050682195 0.019878328
0.24021034 -0.042337313 0.018665981
-0.24878749 -0.039741367 0.019359261
0.20960635 -0.025730286 0.01346274
-0.23370267 -0.016851088 0.014820333
0.25425684 -0.017356457 0.016988516
0.2675885 -0.018892821 0.016367864
0.27041313 -0.013855636 0.01621937
0.2802527 -0.014400495 0.014544659
-0.33323729 -0.0048050908 0.010257064
-0.29692516 -0.0073257796 0.018842306
-0.2711122 -0.00048291089 0.017532878
0.24491107 -0.00099343527 0.014800581
0.27686676 -0.0073257801 0.012308564
0.28244212 -0.00421048 0.014790582
-0.24488543 0.0012621155 0.0122641
-0.14385274 0.0013102683 0.015115604
-0.13473299 0.0013690976 0.018599354
-0.0371252 0.0013902374 0.019851204
0.033160441 0.0013324358 0.016428314
0.057444163 0.0012285766 0.010277998
0.06315475 0.0013203245 0.015711108
0.11175994 0.0013148971 0.015389708
0.15160102 0.0013259727 0.016045589
-0.27497876 0.011565683 0.011484114
-0.26103094 0.012595395 0.013465129
-0.16137761 0.013735014 0.014959374
-0.068562232 0.013716607 0.013871087
-0.013935007 0.013791594 0.018304739
0.1673093 0.013685086 0.012007358
0.17352787 0.013725696 0.014408441
0.19835687 0.013783217 0.017809525
0.21421531 0.013756788 0.016246812
-0.38473517 0.02715911 0.014512413
-0.42170495 0.038059391 0.010459273
0.42090091 0.038988426 0.019636774
0.4272365 0.043050438 0.013558705
0.44374818 0.066245452 0.01110399
0.45800886 0.063143589 0.012596199
-0.47399095 0.072698146 0.012512723
-0.46933767 0.079563916 0.010263226
0.45541057 0.073899291 0.016204087
-0.28001818 -0.061223254 0.026708748
-0.26984292 -0.055001728 0.021878602
0.25222626 -0.054507993 0.02722653
-0.33712399 -0.0014447761 0.024902698
0.22881879 -0.0074353968 0.026399126
0.23744985 -0.0079470798 0.028296057
0.26127672 -0.0073257801 0.026621314
0.30473185 -0.0059921658 0.021155037
-0.33242601 0.0042285887 0.028586874
-0.0020710379 0.0014282654 0.021049229
0.020774305 0.0015263758 0.02298579
0.077131115 0.0018116283 0.028621158
0.081880175 0.0017450455 0.027306741
0.12605634 0.0016348903 0.025130901
0.15893973 0.0018072692 0.028532278
0.18119916 0.0014979253 0.022425495
0.22984223 0.00044974301 0.02160817
0.27093685 0.0086036632 0.025942069
-0.35924122 0.015861152 0.025701597
-0.24338752 0.014143322 0.02757683
-0.19457787 0.014172493 0.027307324
-0.098992795 0.014125643 0.026380133
0.12919678 0.014217967 0.028197624
0.13753605 0.014064338 0.025173806
0.21618503 0.0138778 0.021484436
-0.41959968 0.037003208 0.023290372
-0.44549856 0.052795488 0.024464948
-0.46246985 0.063190125 0.02648003
0.45615402 0.062118202 0.023824612
-0.4559232 0.071803078 0.02941923
0.24165979 -0.062932268 0.037664805
0.27093974 -0.048502792 0.033497009
-0.30069473 -0.0016803569 0.037611373
-0.29185089 -0.0054050842 0.034332599
-0.25041315 -0.0044885203 0.034332599
-0.24211985 -0.00371549 0.032348793
-0.30895269 0.0098574534 0.031688374
-0.23044813 0.0022633141 0.037540682
-0.22016864 0.001901182 0.030383937
-0.21712866 0.0019799746 0.03193919
-0.16779038 0.0020323764 0.032975823
-0.0037401244 0.0022567753 0.037410531
0.073542863 0.002088692 0.034091979
0.13636908 0.0022610673 0.037495155
0.21809599 0.007679767 0.033609416
0.31948051 0.0062049981 0.038988113
0.34123495 0.0081295241 0.035168309
0.36028141 0.0016476337 0.035825305
-0.28093532 0.012033535 0.035149619
-0.27278972 0.012365408 0.030201208
-0.2330064 0.014766842 0.039048497
-0.17653468 0.014591814 0.035588726
-0.15202789 0.014396699 0.031734463
-0.085396275 0.014786119 0.039426919
-0.073871076 0.014355944 0.030929405
0.014478102 0.014692644 0.037580475
0.11435255 0.014486775 0.033513468
0.15156108 0.014614034 0.036027387
0.38192475 0.014431193 0.036941741
-0.38586199 0.028312232 0.03020785
-0.39460668 0.034943759 0.035895772
-0.43182367 0.044873662 0.031679969
0.43625835 0.049593709 0.035087176
-0.42733076 0.054916732 0.036071498
-0.45052046 0.069389209 0.038061608
0.46196651 0.066369101 0.038240895
-0.27968028 -0.070556924 0.045660697
-0.28548729 -0.05865407 0.043156378
-0.27729639 -0.053166673 0.042720079
0.24723074 -0.058954448 0.041661941
0.2531234 -0.055942081 0.047877792
-0.33242601 -0.00018697581 0.049769752
-0.29526812 -0.00079767394 0.04483337
0.28856003 -0.0035036942 0.042163949
-0.36651692 0.0076163858 0.044057701
-0.16573662 0.0026286265 0.043092459
-0.048198119 0.002772917 0.044964455
0.080674008 0.0029054433 0.04653085
0.12565015 0.0029000395 0.046466976
0.22430821 0.0022490073 0.045065977
0.25375903 5.1809562e-05 0.048933998
0.35429353 0.0004551337 0.049068533
-0.3776859 0.01344317 0.047646973
-0.32177809 0.010133648 0.049530864
-0.29491398 0.011952121 0.048344098
-0.26522827 0.014125939 0.048975803
-0.14408301 0.015295414 0.046088155
-0.073859647 0.014834886 0.040390294
0.048918933 0.015143644 0.044293776
0.11461189 0.015102802 0.043810919
0.23054895 0.014233081 0.046148606
0.38191849 0.015215508 0.047757752
-0.39719266 0.025085822 0.047472775
-0.37322995 0.023508681 0.047325313
0.37916335 0.025972981 0.0486922
0.38400447 0.02902039 0.048281401
-0.41256878 0.034589387 0.048522063
0.42217982 0.040982306 0.047647994
0.44598117 0.056311354 0.046155147
-0.44245943 0.064665399 0.040506586
0.45687264 0.063285917 0.044643704
0.4670223 0.06986808 0.04469686
-0.46705925 0.074176967 0.044329047
0.46322459 0.07971435 0.041235071
-0.28291452 -0.058970384 0.053030923
0.25767893 -0.05323451 0.058842365
-0.33242601 -0.0007771604 0.054671884
0.25942287 -0.00033121574 0.05014509
0.27354968 -0.0011416038 0.05487939
0.32322752 -0.0050271451 0.052748658
-0.33394614 0.0070906654 0.054336794
-0.24631225 0.0063700923 0.054681845
-0.15013017 0.0038455226 0.057642076
-0.064332612 0.0037118946 0.056062661
-0.046459712 0.0038481327 0.057672925
0.035457507 0.0039749015 0.059171259
0.045754291 0.0039601731 0.058997184
0.31797552 0.0074425349 0.053603917
-0.28881919 0.01319587 0.057901803
-0.27274582 0.014139874 0.055488974
-0.22027087 0.015766971 0.051663309
-0.18040544 0.016422881 0.05941803
-0.15995319 0.015801448 0.052070938
-0.073241882 0.015868749 0.052866615
-0.011727268 0.016015291 0.054599166
0.046333641 0.015964411 0.053997595
0.29197705 0.010103308 0.059576347
-0.39013493 0.021377293 0.05421995
-0.41929853 0.039082896 0.050830401
-0.45539051 0.072781771 0.051577713
-0.28026748 -0.077509724 0.066050038
-0.27560002 -0.066561297 0.066970825
-0.26680851 -0.066189073 0.060469735
-0.25851202 -0.050907984 0.067433573
-0.28490543 -0.045514971 0.065713681
-0.32592866 -0.0012831817 0.063974738
-0.29136622 0.0017227062 0.068497375
-0.2408227 0.0050607082 0.068979315
-0.19064866 0.0044312449 0.063676506
-0.11429034 0.0041082366 0.060747217
-0.088514835 0.0047809794 0.066622786
-0.062049523 0.0043386724 0.062896647
-0.054552965 0.0049213562 0.067805365
0.04903613 0.0045203781 0.064370483
0.071573325 0.0050870758 0.06920144
0.082386859 0.0046842983 0.065808311
0.24002329 0.0024731387 0.06301453
0.32293525 0.0091735851 0.069534421
-0.35890126 0.018352315 0.060894273
-0.20514531 0.016498946 0.060317352
-0.10991851 0.017529804 0.069333538
-0.080148429 0.016592124 0.061418977
0.072603278 0.017161436 0.06623029
0.091331959 0.017441956 0.068593487
0.1454421 0.016663011 0.062031366
0.19135572 0.017465498 0.068791822
0.24637018 0.014170626 0.061444044
0.35347229 0.014564547 0.067124039
0.37755865 0.014501389 0.068365514
-0.4013195 0.029674057 0.065198667
-0.36516154 0.021855121 0.068053216
0.39699152 0.03839308 0.061544426
-0.42858803 0.045387998 0.061658304
0.42299804 0.042844065 0.065835238
-0.45410269 0.061092027 0.069515079
0.43533331 0.062774695 0.060125146
-0.25568688 -0.074274704 0.070695706
-0.27313966 -0.058910653 0.071607247
0.27946249 -0.047748972 0.074446619
0.26325098 -0.038153328 0.073519617
-0.35631019 0.0068121273 0.076384597
-0.19304603 0.0059169405 0.076192491
-0.063476361 0.0057635158 0.074899986
0.023390483 0.0061606639 0.078245699
0.094063759 0.0052692983 0.070736542
0.21845514 0.0062433234 0.079201363
0.25543031 0.0020129143 0.070261642
0.27985853 0.0010401156 0.07970535
0.34482357 0.00022862946 0.072484858
-0.245436 0.018423589 0.079769261
-0.12979782 0.018315384 0.075951561
-0.10210203 0.017955322 0.072918266
0.022255119 0.018603377 0.078377739
0.05519269 0.018048968 0.073707178
-0.38586199 0.027335923 0.076925069
-0.37893736 0.029999174 0.077936426
0.41721132 0.039527465 0.070713878
0.43846935 0.066155806 0.079552501
-0.45162827 0.070750155 0.072938256
-0.28628805 -0.084155075 0.080957033
-0.27496183 -0.086722702 0.086361989
-0.25174546 -0.067763805 0.080447562
0.25587302 -0.063636839 0.085438572
-0.29860365 -0.054295298 0.085228071
0.2607719 -0.05806398 0.088527799
0.27873379 -0.046799574 0.085256934
-0.27653 -0.037842348 0.08133731
-0.33712164 0.0047020549 0.088805199
-0.17782146 0.0068264669 0.083405435
-0.15816924 0.0071923444 0.085795701
-0.064527139 0.0066903736 0.082455128
-0.03341243 0.0075634546 0.088220164
0.042918764 0.0074331481 0.087368861
0.064955615 0.006484936 0.080977462
0.12153701 0.0071297102 0.085386515
0.18634754 0.0063895741 0.080174103
0.25949797 0.0035485495 0.085174188
-0.3040165 0.015491668 0.08616519
-0.089108139 0.019304391 0.083737865
-0.047331002 0.019126628 0.082576536
-0.0035658823 0.019943984 0.0879163
0.06240863 0.019962385 0.088036522
0.099622861 0.019503541 0.085038915
0.13014619 0.019826965 0.087151833
0.051146761 0.020262303 0.089995891
0.096230984 0.020128127 0.089119308
0.39771983 0.028850999 0.084179774
-0.42925915 0.047996722 0.08616899
-0.41423804 0.051995549 0.086294539
-0.44614586 0.068692625 0.080146313
-0.43037516 0.061187308 0.087829567
-0.26278791 -0.083126292 0.092415221
-0.29721808 -0.068328455 0.099561557
-0.27935332 -0.060247034 0.098342702
-0.25120664 -0.06084815 0.093838014
-0.27873915 -0.059382424 0.090686291
-0.32163262 0.002979415 0.093828879
-0.23117749 0.0079419408 0.090692818
-0.20657507 0.008612548 0.095073894
-0.17731097 0.0091235721 0.098412395
-0.071815118 0.0084951036 0.094306618
-0.038353391 0.0086322045 0.095202297
0.087038077 0.0091018397 0.098270416
0.091133825 0.0085553043 0.094699904
0.10185691 0.0082460931 0.092679828
0.27038616 0.0036908733 0.092200942
0.3108274 0.00084115099 0.096866742
0.34517458 0.0035624171 0.09370698
-0.28795522 0.017760942 0.093495563
0.24530868 0.018587971 0.09429542
0.26620209 0.016579546 0.092873782
0.28160402 0.014907112 0.090572223
0.34138966 0.015768781 0.098057151
0.36402708 0.01004497 0.090556398
-0.24169265 0.021323428 0.096928202
-0.14295313 0.02146979 0.097884394
-0.13797379 0.021532547 0.098294392
-0.12460071 0.021104543 0.095498241
0.011586217 0.020529827 0.091743611
0.11275389 0.021067595 0.095256858
0.15805176 0.020798817 0.093500927
0.18658775 0.021141725 0.09574113
0.36913237 0.026357202 0.097421214
0.39937294 0.044140503 0.098914973
-0.43071428 0.053391967 0.098876923
0.429773 0.051588524 0.094671093
-0.27380645 -0.07748948 0.10314906
-0.26028281 -0.060550723 0.10315888
0.27994585 -0.068015106 0.10156845
-0.2812283 -0.056523144 0.102682
-0.27685848 -0.048264138 0.10286102
-0.27458951 0.008560244 0.10719171
-0.10649715 0.0096231867 0.10167637
0.20768221 0.0096734492 0.10200473
0.25960785 0.0064747809 0.10394426
0.31715924 0.0020271079 0.10505737
0.34445298 0.0048210961 0.10157445
-0.311028 0.01862138 0.1084529
-0.23434651 0.01074278 0.10772523
-0.10391712 0.010577034 0.10684249
-0.060707286 0.01015339 0.10458621
0.29432404 0.015843634 0.10350418
0.32752046 0.014488041 0.10299625
0.364986 0.012473842 0.10077119
-0.38586199 0.028408721 0.10006062
-0.37974742 0.021942869 0.10106631
-0.27086467 0.020801237 0.10478386
-0.22938803 0.023374068 0.10881199
-0.21474591 0.022489373 0.10410096
-0.16008595 0.022108164 0.10205487
-0.02544364 0.022400495 0.10362765
-0.0047408231 0.022564689 0.10449265
0.004433848 0.022323374 0.10321701
0.033748634 0.02249074 0.10410823
0.094725452 0.022526164 0.10429688
-0.39594141 0.030858582 0.10013846
-0.41988197 0.047269177 0.10576288
0.39098823 0.040708058 0.1084244
0.40712941 0.049062088 0.10063978
0.41714785 0.052507207 0.10323782
-0.32079178 0.0072026365 0.11753726
0.29861465 0.0053659924 0.11584524
0.34226409 0.0061923005 0.11150309
-0.36281949 0.016204778 0.11571355
-0.25281346 0.010665108 0.11011805
-0.20557643 0.011295877 0.11067097
-0.19846086 0.01257371 0.11747655
-0.0069086626 0.011332961 0.11086847
0.20723198 0.011892459 0.11384828
0.27050993 0.019992856 0.11473042
0.32739741 0.016761776 0.11483011
-0.38586199 0.028546395 0.11172009
-0.36621112 0.020747127 0.11759964
-0.35531959 0.024926281 0.11781073
-0.34849858 0.023065895 0.11580781
-0.28522861 0.022408996 0.11880966
-0.18665081 0.024600096 0.11534074
-0.16409341 0.024257557 0.1135167
-0.14229858 0.02490616 0.11697058
-0.13563213 0.02465586 0.1156377
-0.1094969 0.024888594 0.11687705
-0.091288939 0.023752896 0.11082934
0.062833317 0.025251724 0.11881074
0.076279625 0.023759402 0.11086398
0.085390978 0.025425939 0.11973846
0.10440574 0.02480543 0.11643419
0.11596058 0.02482269 0.1165261
0.13795476 0.025243737 0.11876822
-0.39521584 0.032891445 0.11263165
-0.37970462 0.036452271 0.11166865
0.37717029 0.033527244 0.11315124
0.39955717 0.037877515 0.11262023
0.39482349 0.040498003 0.11245937
0.28369462 0.00882472 0.1242871
-0.35340944 0.016727071 0.12499351
-0.26919538 0.013894129 0.12556693
-0.24666952 0.014760612 0.122314
-0.18675424 0.019202802 0.122314
-0.17969736 0.01357932 0.12305392
-0.15605702 0.013088698 0.12021932
-0.14165722 0.015865138 0.12231401
-0.13358396 0.014033939 0.122314
-0.10454454 0.016923869 0.12783371
-0.039416872 0.014239527 0.122314
0.0032237601 0.014268614 0.12491097
0.026371654 0.017646477 0.12541769
0.055223934 0.014281241 0.12534004
0.11712164 0.019680463 0.12231401
0.15017819 0.014584812 0.12231401
0.2196334 0.015187871 0.122314
0.23545173 0.011844793 0.12151717
0.26244652 0.017061381 0.122314
-0.30002701 0.020994639 0.12231399
-0.26118582 0.021703601 0.12767507
-0.24354011 0.025659852 0.12098357
-0.21468517 0.024195407 0.1243213
-0.20388611 0.025784982 0.12165014
-0.051119767 0.025543798 0.12231401
0.029066421 0.025162943 0.12231401
0.048928183 0.020716587 0.1283934
0.056428146 0.022441963 0.12784442
0.12332807 0.02489965 0.122314
0.14615503 0.025567066 0.12184787
