# .PCD v0.7 - Point Cloud Data file format
VERSION 0.7
FIELDS x y z
SIZE 4 4 4
TYPE F F F
COUNT 1 1 1
WIDTH 940
HEIGHT 1
VIEWPOINT 0 0 0 1 0 0 0
POINTS 940
DATA ascii
-0.2845974 -0.10053967 -0.16340099
-0.247041 -0.097623266 -0.16340099
-0.31461185 -0.073060378 -0.16340099
-0.28778076 -0.079739466 -0.16340099
-0.23635328 -0.077677809 -0.16340099
-0.22273616 -0.070472151 -0.16340099
-0.24055675 -0.06207642 -0.16340099
-0.23604847 -0.062233984 -0.16340099
-0.22680566 -0.061393619 -0.16340099
-0.31503144 -0.023811106 -0.16335046
-0.26272196 -0.026528884 -0.16340099
-0.29293391 -0.010080162 -0.16340099
-0.23172443 -0.0072906511 -0.16340099
-0.25637832 0.055326547 -0.161955
-0.18203649 0.058673114 -0.161955
-0.13933422 0.056304999 -0.161955
-0.089018568 0.059674695 -0.161955
0.029261179 0.053198408 -0.161955
0.03750002 0.057835065 -0.161955
0.0938491 0.05990655 -0.161955
0.10208781 0.051964201 -0.16116408
0.11132234 0.055783939 -0.161955
0.20119402 0.058242705 -0.161955
0.22472708 0.051964201 -0.1612407
-0.21369222 0.065073721 -0.161955
-0.12082937 0.060074322 -0.161955
-0.10586169 0.065732285 -0.161955
0.090882026 0.066178285 -0.161955
0.18949075 0.060215324 -0.161955
0.3237797 0.062675327 -0.16218081
-0.25607669 -0.11177687 -0.15675214
-0.23356557 -0.10532305 -0.15451244
-0.21887662 -0.0083738286 -0.15761177
-0.2538923 0.0082393084 -0.15719067
-0.28376743 0.052237786 -0.15267347
-0.16732052 0.051964201 -0.1588572
-0.1168338 0.051964201 -0.15301211
-0.095809437 0.051964201 -0.1518396
-0.013329282 0.051964201 -0.15900472
0.21400934 0.051964201 -0.15255302
-0.27897844 0.067107923 -0.15615074
-0.14710805 0.0682998 -0.15491962
-0.10291192 0.0682998 -0.15184276
-0.032965511 0.0682998 -0.15229905
-0.013691224 0.0682998 -0.15299408
0.077808775 0.0682998 -0.15262975
0.20822679 0.0682998 -0.15660974
0.27583832 0.065852217 -0.15642089
-0.29466107 -0.1024055 -0.14907853
-0.24269685 -0.10910553 -0.14648511
-0.31274268 -0.084237128 -0.1488049
-0.21241692 -0.086595044 -0.14127129
-0.22687516 0.051964201 -0.14465614
-0.17288224 0.051964201 -0.14788386
-0.16304117 0.051964201 -0.14420849
-0.12840508 0.051964201 -0.14230056
-0.11688296 0.051964201 -0.14874254
-0.089178279 0.051964201 -0.14680345
-0.024263263 0.051964201 -0.14605916
-0.010056816 0.051964201 -0.14830698
0.035639271 0.051964201 -0.14928399
0.15967101 0.051964201 -0.14115155
0.1964158 0.051964201 -0.14393251
0.227406 0.051964201 -0.14088391
0.28807572 0.054101959 -0.14589076
-0.28194728 0.0682998 -0.14632522
-0.19992805 0.0682998 -0.14895384
-0.1184458 0.0682998 -0.14120856
-0.045276016 0.0682998 -0.14292076
0.018958002 0.0682998 -0.14657134
0.10535824 0.0682998 -0.14034753
0.11357144 0.0682998 -0.1469018
0.16842313 0.0682998 -0.14105418
0.19684795 0.0682998 -0.14789782
0.22917828 0.0682998 -0.14550552
0.27917299 0.065015733 -0.14030555
0.34850508 0.068612665 -0.14673573
-0.3664583 0.074916907 -0.14927088
-0.30741274 0.074451327 -0.14988869
-0.337789 0.082299121 -0.14779042
-0.26465136 -0.1121221 -0.13720018
0.27765164 -0.083019391 -0.13534901
0.22883749 -0.077486858 -0.13534901
-0.2034145 -0.06872046 -0.13272142
0.28860807 -0.062978089 -0.13534901
0.32011762 -0.051023003 -0.13422175
0.26055187 -0.048988532 -0.13534901
-0.31956491 -0.033635013 -0.1371007
0.23186809 -0.0023173757 -0.13285078
0.30043992 -0.0063088448 -0.13327442
-0.23472555 0.0023613994 -0.13320655
0.27680218 0.0054941317 -0.13534901
-0.032888353 0.051964201 -0.13129531
-0.016133651 0.051964201 -0.13625455
0.079003438 0.051964201 -0.1379613
0.2268485 0.051964201 -0.1360406
0.24698731 0.051964201 -0.13827437
0.25738761 0.051964201 -0.13255033
0.27294451 0.051964201 -0.13046868
-0.28000024 0.0682998 -0.13080899
-0.18405116 0.0682998 -0.13620885
-0.15752764 0.0682998 -0.13674405
0.042808808 0.0682998 -0.13596845
0.071937531 0.0682998 -0.13443547
0.15260756 0.0682998 -0.13092875
0.27867404 0.0682998 -0.13008556
-0.31149685 0.075496517 -0.13312434
0.35912138 0.071161985 -0.13893414
-0.39289093 0.088872179 -0.13115022
-0.34913206 0.085220635 -0.13202772
-0.2717278 -0.10817125 -0.123552
0.25882015 -0.10522702 -0.12699679
0.21886009 -0.083329871 -0.12373824
-0.28654602 -0.06035075 -0.12355201
-0.31165934 -0.055197056 -0.123552
-0.24506401 -0.041863833 -0.12056803
0.27917299 -0.048069857 -0.12422463
-0.23442255 -0.037906416 -0.123552
0.21375531 -0.022014877 -0.12493111
-0.29923594 -0.0075543565 -0.123552
-0.24148577 -0.006898554 -0.123552
0.22527371 -0.0073772273 -0.12364683
-0.29255128 0.054487862 -0.12007519
-0.28583884 0.052757736 -0.1272907
-0.062006637 0.051964201 -0.12098551
0.057947397 0.051964201 -0.12939611
0.07206478 0.051964201 -0.12770489
0.24316894 0.051964201 -0.12142886
-0.14335436 0.0682998 -0.12310731
0.00081827492 0.0682998 -0.12500684
0.093855478 0.0682998 -0.12791802
0.27899289 0.06731271 -0.1240052
0.35221651 0.069503911 -0.12839878
-0.36608687 0.089599788 -0.12878673
0.32983401 0.080929726 -0.1239147
0.36979082 0.090524539 -0.1259758
0.39354527 0.096228443 -0.1296096
0.247933 -0.05484733 -0.11201823
0.27917299 -0.050374955 -0.11603042
-0.24506402 -0.045121785 -0.11349322
0.27317852 0.0065388577 -0.11188248
-0.30089873 0.056644745 -0.11990163
-0.089972086 0.051964201 -0.11878698
-0.046808388 0.051964201 -0.11997703
0.067335106 0.051964201 -0.11957537
0.18595298 0.051964201 -0.11819091
0.2176367 0.051964201 -0.11580554
0.30918068 0.059169762 -0.11505181
-0.33917207 0.066529192 -0.11163865
-0.28262258 0.068024687 -0.11493916
-0.23970193 0.0682998 -0.11800174
-0.14794742 0.0682998 -0.1199143
-0.049113609 0.0682998 -0.11220886
-0.0097186118 0.0682998 -0.11176088
0.0064892769 0.0682998 -0.11490704
0.018436104 0.0682998 -0.117902
0.14096528 0.0682998 -0.11239554
0.18995769 0.0682998 -0.11075542
0.20688905 0.0682998 -0.11999323
0.27688476 0.068214878 -0.11058164
-0.35632142 0.07096307 -0.11582245
-0.36090896 0.088253267 -0.1146263
-0.41165435 0.098941788 -0.11283898
0.21875103 -0.083187744 -0.10180835
-0.26253223 -0.065577202 -0.10318355
-0.24506401 -0.04385959 -0.10414283
0.27917299 -0.040350631 -0.10573536
-0.24506401 -0.034688063 -0.10174152
0.20811103 -0.038492225 -0.10828182
0.31437987 -0.02449956 -0.10245808
0.27125055 0.0067926785 -0.10454212
-0.18538159 0.051964201 -0.10982593
-0.12902889 0.051964201 -0.10939106
-0.081457108 0.051964201 -0.10003248
0.0046605989 0.051964201 -0.10695852
0.034272395 0.051964201 -0.10138766
0.14336894 0.051964201 -0.10510528
0.27768373 0.058166638 -0.10246982
-0.28034809 0.067829996 -0.10442274
-0.26823461 0.0682998 -0.10302019
-0.061778091 0.0682998 -0.10647647
0.26716426 0.0682998 -0.10719414
-0.31805655 0.077175498 -0.10664732
-0.35109437 0.085714206 -0.10965475
0.34046561 0.083482705 -0.10473107
0.40941185 0.083238222 -0.10388314
0.41064075 0.10033344 -0.10332158
0.25802609 -0.10503786 -0.099954903
0.25572714 -0.097814754 -0.099954903
0.29657239 -0.091545023 -0.099954903
0.22545044 -0.084142536 -0.099954903
0.26315936 -0.084214866 -0.099954903
-0.25853127 -0.065577202 -0.098276831
0.21714333 -0.067796178 -0.099954903
0.22072962 -0.067502543 -0.099954903
0.28867793 -0.051533341 -0.099954903
0.22238958 -0.033370521 -0.099954903
0.27099115 -0.030656194 -0.099954903
0.25122374 -0.028014101 -0.099954903
0.2762841 -0.02895611 -0.099954903
0.31244138 -0.022351177 -0.099954896
0.23200446 -0.016854512 -0.099954903
0.24860159 -0.0076600555 -0.099954903
0.26873374 -0.007905175 -0.099954903
0.24468133 0.0024339315 -0.099954903
0.2514151 0.0012626621 -0.099954903
0.26916254 3.7918337e-05 -0.099954903
0.28826717 0.0012507344 -0.099954903
-0.28675392 0.052973591 -0.093135029
-0.24883056 0.051964201 -0.090256341
-0.12254729 0.051964201 -0.090788439
-0.020011067 0.051964201 -0.09177687
-0.017591998 0.051964201 -0.097184554
0.23491485 0.051964201 -0.095691338
0.24047905 0.051964201 -0.090191469
-0.3446359 0.067933142 -0.098560899
0.12863337 0.0682998 -0.092734143
0.14441663 0.0682998 -0.096116439
0.26600438 0.0682998 -0.095473863
0.33370936 0.065059751 -0.096091002
-0.38915041 0.079433747 -0.095399164
-0.29608905 0.071490377 -0.091838643
-0.42302173 0.088186264 -0.095502429
-0.35400617 0.086458512 -0.096234798
-0.40111688 0.098629341 -0.091610767
0.37710881 0.092281729 -0.096103914
0.3868238 0.094614491 -0.096906684
0.39296466 0.096089035 -0.095810741
-0.19423136 0.051964201 -0.086275272
-0.067450017 0.051964201 -0.083805457
0.029116459 0.051964201 -0.087579541
0.068320021 0.051964201 -0.080764234
0.18547663 0.051964201 -0.089137226
0.29468676 0.055689432 -0.085608259
0.30675048 0.05858621 -0.086001866
0.11609882 0.0682998 -0.083084233
0.13991793 0.0682998 -0.087501422
0.17913646 0.0682998 -0.089275442
0.19948937 0.0682998 -0.089062877
0.31463611 0.060479745 -0.08123982
-0.30874199 0.07475625 -0.085993424
0.30393142 0.074709676 -0.080074564
-0.42145991 0.10388057 -0.082945973
0.43372971 0.10166523 -0.084308594
-0.26118058 -0.065577209 -0.076089494
-0.25717527 -0.065577202 -0.077792898
0.27917299 -0.04170109 -0.073985301
-0.28268701 0.058160964 -0.074792549
-0.2558167 0.051964201 -0.079709738
-0.15840717 0.051964201 -0.075754702
0.016848266 0.051964201 -0.079759277
0.041232444 0.051964201 -0.072360091
0.082917601 0.051964201 -0.079323113
0.11569772 0.051964201 -0.074297272
0.12226956 0.051964201 -0.073008046
0.13325436 0.051964201 -0.071135677
0.27788836 0.055053201 -0.07307674
0.29079783 0.054755598 -0.078567445
0.30151004 0.057327859 -0.077589847
-0.28002894 0.063021898 -0.076639444
-0.064668819 0.0682998 -0.07885991
0.023127861 0.0682998 -0.079171978
0.036110781 0.0682998 -0.070527829
0.091806903 0.0682998 -0.078877717
0.27699953 0.061016086 -0.077321477
0.31337795 0.076978095 -0.077331379
0.37914211 0.075969577 -0.079244137
-0.42618799 0.088992633 -0.07595408
-0.41206384 0.085341938 -0.074405983
0.36136228 0.088500649 -0.07966686
-0.27337292 -0.065577202 -0.061992239
0.27879253 -0.0363991 -0.069920912
-0.19607405 0.051964201 -0.066266686
0.016446609 0.051964201 -0.063941017
0.084265739 0.051964201 -0.065777294
0.10458808 0.051964201 -0.067501679
0.27263123 0.051964201 -0.064723238
-0.10979451 0.0682998 -0.065659657
-0.018202044 0.0682998 -0.064275071
0.0040920526 0.0682998 -0.062662631
0.1046627 0.0682998 -0.066180363
0.333763 0.065072641 -0.062919766
-0.36373132 0.072848603 -0.067477047
0.29416621 0.072364725 -0.062475156
-0.33952397 0.082695127 -0.061040103
0.39804456 0.080508627 -0.067430414
0.40202403 0.081464224 -0.064172953
-0.29228026 0.054376692 -0.051847905
-0.28126189 0.058443736 -0.055210657
-0.16961853 0.051964201 -0.05457975
-0.048536208 0.051964201 -0.050954022
-0.031436652 0.051964201 -0.058505982
0.13053355 0.051964201 -0.058732428
-0.28117552 0.0682998 -0.055252038
0.037244596 0.0682998 -0.053247944
0.041611746 0.0682998 -0.05614746
0.15423478 0.0682998 -0.059440978
0.27883446 0.068683073 -0.051318221
-0.3333399 0.081091724 -0.052008729
0.40419924 0.081986561 -0.056801036
0.40582028 0.099175937 -0.057765022
-0.40933567 0.10072925 -0.052314088
-0.28293401 -0.046672463 -0.046217166
-0.3042725 0.057474066 -0.049537171
-0.17038368 0.051964201 -0.044960298
-0.14765792 0.051964201 -0.044040933
-0.053237736 0.051964201 -0.042930376
0.049460419 0.051964201 -0.043407284
0.050517626 0.051964201 -0.048207968
0.1094383 0.051964201 -0.049802341
0.18647973 0.051964201 -0.048550263
0.29109019 0.054825809 -0.048520662
-0.27431038 0.0682998 -0.041542016
-0.1927948 0.0682998 -0.042328235
0.058217689 0.0682998 -0.042869262
0.18877396 0.0682998 -0.043598462
0.21186575 0.0682998 -0.044716015
0.31901565 0.061531376 -0.049870104
0.32734209 0.06353078 -0.046863519
0.34136641 0.066898458 -0.04443793
0.28887683 0.071094573 -0.046327583
-0.35486794 0.086649239 -0.043250374
0.4338764 0.089112699 -0.042563509
0.43919176 0.10718939 -0.047156934
-0.4460946 0.11022499 -0.048261132
-0.25867531 -0.065577202 -0.038744863
0.27917299 -0.051184744 -0.036096912
-0.28293401 -0.044831038 -0.031709682
-0.28621775 0.052801721 -0.037890922
-0.10641506 0.051964201 -0.031307787
-0.042139202 0.051964201 -0.032597605
0.080989257 0.051964201 -0.031057637
0.099995323 0.051964201 -0.038688499
0.1545449 0.051964201 -0.035145387
0.25846174 0.051964201 -0.032665335
-0.3426773 0.067388922 -0.035338182
-0.16748576 0.0682998 -0.037451655
-0.092932723 0.0682998 -0.031392939
-0.070799902 0.0682998 -0.035870727
0.16484532 0.0682998 -0.036660295
0.19897278 0.0682998 -0.038568158
0.26448399 0.0682998 -0.031999972
0.27917299 0.064534739 -0.039714064
0.32690424 0.063425638 -0.030234549
-0.36157686 0.072274946 -0.039374165
-0.30477652 0.073699325 -0.03246652
0.34120157 0.08365944 -0.031511173
0.35522181 0.087026142 -0.037823319
-0.44451699 0.10981081 -0.037416197
0.43172657 0.10539667 -0.037623674
-0.27213231 -0.065577202 -0.029368965
-0.26118225 -0.034142699 -0.02135157
-0.25017098 0.051964201 -0.025806362
-0.20745486 0.051964201 -0.027460193
-0.19418338 0.051964201 -0.022032639
-0.18554823 0.051964201 -0.021868017
-0.11304415 0.051964201 -0.020824522
-0.10922623 0.051964201 -0.025544863
-0.010423901 0.051964201 -0.021708472
0.26320553 0.051964201 -0.027627833
0.27917299 0.058081213 -0.027607523
-0.24540795 0.0682998 -0.021910768
-0.13200653 0.0682998 -0.026386268
-0.10065528 0.0682998 -0.024931964
-0.098569654 0.0682998 -0.027580075
-0.042018596 0.0682998 -0.021472277
0.091638848 0.0682998 -0.025661638
0.11796004 0.0682998 -0.028773876
0.12366068 0.0682998 -0.026924621
0.14824809 0.0682998 -0.026946466
0.32912534 0.063958995 -0.02818599
-0.32911864 0.079983689 -0.023376435
0.39475173 0.079717919 -0.02544757
0.41792443 0.085282288 -0.029997714
-0.45394284 0.096133523 -0.025253715
0.44208628 0.091084078 -0.024233468
-0.43125623 0.10637654 -0.024421854
-0.24616818 -0.065577202 -0.012451046
0.247933 -0.05790253 -0.011073031
0.040340394 0.051964201 -0.014682312
0.1107151 0.051964201 -0.014208887
0.1237895 0.051964201 -0.011309369
0.23947136 0.051964201 -0.018255303
0.27708581 0.051964201 -0.010220844
0.28157112 0.052540049 -0.017267361
-0.28236511 0.064873368 -0.018500526
-0.18911794 0.0682998 -0.010002042
-0.1609565 0.0682998 -0.011082283
-0.089298278 0.0682998 -0.019779008
-0.066319793 0.0682998 -0.012313867
0.046135813 0.0682998 -0.017004291
0.15476292 0.0682998 -0.01203491
0.32726279 0.080312289 -0.017408457
0.34264797 0.084006757 -0.014213242
0.42482328 0.086938851 -0.016917162
-0.26676583 -0.065577202 -0.0073925555
-0.17819603 -0.058162373 -0.0044140001
0.044550784 -0.055338286 -0.0044140001
0.072881334 -0.057258166 -0.0044140001
0.12334582 -0.059315693 -0.0044140001
0.18279676 -0.057467856 -0.0044140001
0.23463531 -0.051855981 -0.0044140001
0.24122664 -0.058518276 -0.0044140001
-0.24311039 -0.048449762 -0.0044140001
-0.21952318 -0.046086349 -0.0044140001
-0.17372747 -0.041188411 -0.0044140001
-0.15292445 -0.044944342 -0.0044140001
-0.13347329 -0.044702381 -0.0044140001
-0.07417535 -0.047465548 -0.0044140001
0.040272985 -0.041032348 -0.0044140001
0.077266209 -0.04826121 -0.0044140001
0.11035448 -0.046427995 -0.0044140001
-0.2489613 -0.032445986 -0.0044939099
-0.13403541 -0.0383793 -0.0015362428
-0.11768471 -0.039262157 -0.0044140001
-0.015801884 -0.038563941 -0.0044140001
0.26051065 -0.0363991 -0.0041621616
-0.26616764 -0.012987309 -0.0044939099
-0.28189516 0.0027600378 -0.0044939099
-0.27387244 0.011127923 -0.0044939099
0.26357883 0.021339076 -0.0035445201
-0.28264561 0.044365827 -0.0044939099
-0.26503634 0.046289913 -0.0044939099
0.26210898 0.041003838 -0.0035445201
-0.25852209 0.051964201 -0.008998042
-0.2225641 0.051964201 -0.00043771905
-0.17924803 0.051964201 -0.0035535414
-0.16426677 0.051964201 -0.0092843473
-0.096725687 0.051964201 -0.0053871437
0.12696633 0.051964201 -0.0057868026
0.1882619 0.051964201 -0.0076616146
0.25926679 0.051964201 -0.0008185819
0.2939744 0.055518381 -0.0026219487
0.31132242 0.059684046 -0.0059530921
-0.34588641 0.068198115 -0.0021310821
-0.26241028 0.0682998 -0.0046835402
-0.12438439 0.0682998 -0.0025956859
-0.085305512 0.0682998 -0.0031606667
-0.0060067698 0.0682998 -0.0072967694
0.020157635 0.0682998 -0.0062586628
0.031597935 0.0682998 -0.0093481597
0.1395234 0.0682998 -0.0099789239
0.21109319 0.0682998 -0.0086826468
-0.38945439 0.079455577 -0.001365684
-0.37971449 0.076940365 -0.0039928183
-0.36746311 0.073778227 -0.0099963881
0.39337435 0.079387173 -0.0031062886
-0.39303392 0.080383182 -0.005780708
0.45835924 0.097185351 -0.0037241492
0.41148365 0.10053584 -0.0061879326
0.42974705 0.10492129 -0.008815214
-0.22106561 -0.0383793 0.0063126232
-0.21189874 -0.0383793 0.008669707
-0.17704731 -0.0383793 0.007927265
-0.053898763 -0.038379304 0.0094734821
-0.0065980107 -0.0383793 0.0022915355
0.032621026 -0.0383793 0.0045699533
0.247933 -0.023885224 0.00066407165
-0.28293401 -0.0019411873 0.0031304904
-0.28293401 0.026525348 0.00114256
-0.24506399 0.025824072 0.0096638463
-0.28293401 0.039326854 0.0036974198
-0.2814523 0.051964201 0.0062007266
-0.2595073 0.051964201 0.007578929
-0.22272301 0.051964201 0.00494804
-0.1587135 0.051964201 0.005962844
-0.12791643 0.051964201 0.0064290939
-0.044648111 0.051964201 0.005420669
-0.029307157 0.051964201 0.005896654
0.20187971 0.051964201 0.00037798577
0.21110223 0.051964201 0.0092982426
-0.2247321 0.0682998 0.0019606864
-0.17848472 0.0682998 0.0087751066
-0.14717372 0.0682998 0.0026834747
-0.066010311 0.0682998 0.0034739382
0.10512891 0.0682998 0.0083993832
0.27676019 0.0682998 0.0066562849
0.28296018 0.069673792 0.0010007806
0.31358016 0.060226187 0.0082208514
0.33023596 0.064225681 0.004990425
0.34196287 0.067041688 0.0075100698
0.35142952 0.069314927 0.0060392991
0.31587198 0.077576995 0.0057969326
0.35539624 0.070267461 0.0083292313
-0.40243098 0.082807563 0.00048981979
-0.3292813 0.080006786 0.008030409
0.34410062 0.084355593 0.0085426494
0.42147264 0.086134285 0.0069224276
0.39929575 0.097609259 0.00065595051
-0.28293401 -0.062851585 0.016737837
-0.26668864 -0.065577202 0.016040308
-0.28293401 -0.039197378 0.017980972
-0.10256715 -0.0383793 0.018538507
-0.24506402 -0.010555205 0.014309404
0.27917299 -0.017633835 0.012536614
-0.24506402 0.0016104449 0.010688908
0.247933 0.021620793 0.019800207
-0.24506401 0.036256105 0.0124407
-0.28293401 0.053747915 0.012048588
-0.27240625 0.051964201 0.011197714
-0.25715631 0.051964201 0.013742672
-0.069683731 0.051964201 0.018846758
0.090570137 0.051964201 0.01260159
0.26419345 0.051964201 0.018401533
0.27917299 0.056930054 0.013583185
-0.28293401 0.060908563 0.013329163
-0.1763631 0.0682998 0.015928291
-0.13778217 0.0682998 0.016889803
-0.12840594 0.0682998 0.012175779
-0.052511722 0.0682998 0.011163117
-0.017613806 0.0682998 0.016395738
-0.0031299107 0.0682998 0.01718683
0.12501261 0.0682998 0.013928254
0.25697869 0.0682998 0.012468324
0.26182851 0.0682998 0.012589983
0.33206254 0.064664304 0.015828833
-0.35442671 0.08650028 0.014684832
0.37741145 0.092354409 0.018111732
0.39134106 0.095699176 0.017080624
0.44334388 0.091386057 0.014097754
0.45403561 0.10443813 0.015062125
-0.28293401 -0.055161983 0.022599332
-0.016411806 -0.051160172 0.0257829
0.18635651 -0.05979237 0.0257829
0.19223401 -0.051869929 0.0257829
-0.28293401 -0.048294734 0.026831038
-0.089229643 -0.041827455 0.025782898
0.11502475 -0.04047801 0.0257829
0.18464147 -0.045056619 0.0257829
-0.28119659 -0.0303197 0.026120201
-0.21164455 -0.0383793 0.021594092
-0.058187012 -0.0383793 0.021622561
0.14857374 -0.0383793 0.021046659
0.247933 -0.014937319 0.020130076
-0.26487172 -0.0035252143 0.026120201
0.26226789 0.00079993159 0.0257206
-0.26158851 0.019619428 0.026120201
-0.25930494 0.02110867 0.026120201
0.2727775 0.028768424 0.0257206
-0.27540424 0.034178749 0.026120201
-0.24506401 0.049644679 0.023479769
-0.22742569 0.054890044 0.0257206
-0.20508641 0.053329967 0.026227506
-0.18823031 0.05703368 0.0259204
-0.17193782 0.058963075 0.0257206
-0.16628799 0.059088506 0.026120201
-0.15415624 0.053766727 0.0257206
-0.13523769 0.051964201 0.021126797
-0.12336442 0.051964201 0.029592704
-0.013899304 0.052968837 0.026120201
0.037794232 0.057762727 0.026120201
0.044260889 0.052059963 0.027447507
0.055737667 0.052901562 0.026120201
0.12368928 0.054475959 0.026309289
0.15008898 0.055272944 0.026120201
0.166601 0.05627051 0.026120201
0.18280219 0.054602306 0.025656126
0.24413371 0.058415912 0.0257206
-0.27817187 0.065715797 0.0257206
-0.26161501 0.062593579 0.0257206
-0.24252824 0.067848504 0.029036168
-0.23573811 0.061426699 0.026120201
-0.19764817 0.060831118 0.026120201
-0.16729257 0.064982027 0.026120201
-0.096050307 0.068074152 0.023826703
0.047011212 0.065412641 0.0257206
0.050444763 0.060787346 0.026120201
0.062708713 0.064750522 0.026120201
0.11961732 0.061198454 0.026120201
0.22359093 0.065404855 0.026120201
0.23247628 0.061128259 0.0257206
0.2492305 0.0682998 0.025234925
-0.41941977 0.087185465 0.020471454
-0.43256792 0.090579279 0.026716331
-0.38274568 0.093813129 0.022737026
-0.40775293 0.10027505 0.022486366
0.247933 -0.058296483 0.033157136
0.27917299 -0.059253868 0.036674127
0.25938731 -0.036399104 0.034460511
-0.24814892 0.051964201 0.039782688
-0.2354957 0.051964201 0.033228688
-0.21727125 0.051964201 0.036816623
-0.20814151 0.051964201 0.03074388
-0.17488524 0.051964201 0.03170079
-0.15689413 0.051964201 0.030812794
-0.10768721 0.051964201 0.035728432
-0.099863276 0.051964201 0.037766792
0.078503281 0.051964201 0.03816732
0.16744769 0.051964201 0.031870194
0.22878565 0.051964201 0.034302276
0.27311581 0.051964201 0.034598816
0.31137046 0.059695583 0.038584135
-0.33355844 0.06498982 0.035639647
-0.3180325 0.060981341 0.030271076
-0.13119631 0.067848504 0.038906269
-0.08015772 0.067848504 0.039708734
0.087190777 0.067848504 0.035775799
0.13417414 0.067848504 0.037300624
0.24527876 0.067848504 0.03020722
0.35333937 0.069773532 0.032180894
0.31021154 0.076217741 0.032434925
-0.34392464 0.083775736 0.032656569
0.40212202 0.081487745 0.031085063
-0.38038418 0.093193322 0.038648639
0.36979541 0.090525627 0.035054836
-0.45178434 0.10176636 0.038198642
-0.24506401 -0.061621424 0.042810682
0.27917299 -0.051545624 0.049438477
-0.26624191 0.051964201 0.046625532
-0.15656248 0.051964201 0.047362428
-0.062443193 0.051964201 0.046025552
-0.00626837 0.051964201 0.047487967
0.20183402 0.051964201 0.043018766
0.24060288 0.051964201 0.04149659
0.29963458 0.056877516 0.042372521
-0.26029879 0.067848504 0.042224526
-0.22424935 0.067848504 0.043470398
-0.16635165 0.067848504 0.048463427
-0.057109483 0.067848504 0.049764093
-0.036834866 0.067848504 0.044110037
0.080793992 0.067848504 0.046897329
0.23263527 0.067848504 0.043388117
0.26404977 0.067848504 0.049292553
0.27626336 0.067848504 0.04031482
-0.30087292 0.072641246 0.049378388
0.29252946 0.0719717 0.046735056
-0.40226889 0.082736075 0.049533322
-0.33550757 0.081595212 0.041898776
0.34806442 0.085307419 0.041541867
0.247933 -0.0478938 0.055591904
-0.31231341 0.059486069 0.059257969
-0.2107629 0.051964201 0.050738275
-0.13708548 0.051964201 0.05828087
-0.10701717 0.051964201 0.053764652
-0.03712339 0.051964201 0.052868016
-0.027239848 0.051964201 0.050668813
0.022976756 0.051964201 0.058506891
0.08896067 0.051964201 0.050644036
0.23060748 0.051964201 0.053389616
0.27117217 0.051964201 0.054931011
-0.28995025 0.069816902 0.052831907
-0.2482017 0.067848504 0.059622698
-0.23165148 0.067848504 0.053616613
-0.21550357 0.067848504 0.050729893
-0.17980197 0.067848504 0.054900561
-0.11530577 0.067848504 0.058780126
-0.063599542 0.067848504 0.058994725
-0.024061825 0.067848504 0.05866836
0.19738433 0.067848504 0.05916005
0.2768684 0.061562192 0.057796389
0.3454017 0.067867458 0.054106262
0.36868504 0.073458508 0.052932434
-0.41179711 0.085193798 0.056808166
0.41450626 0.084461495 0.051490374
-0.37041453 0.090609036 0.051994696
0.41540474 0.10147738 0.050932318
0.42304426 0.10331181 0.058476005
0.27917299 -0.045729574 0.064535528
0.247933 -0.036836781 0.062576681
-0.18543299 0.051964201 0.06490507
-0.14776988 0.051964201 0.065674178
-0.33171776 0.064494923 0.067610517
-0.28049484 0.067369111 0.060482562
-0.1936579 0.067848504 0.062196024
-0.073972508 0.067848504 0.061670929
0.077567033 0.067848504 0.06652233
0.1191424 0.067848504 0.068585686
0.15108363 0.067848504 0.065293141
0.34413654 0.067563646 0.069025718
0.35098875 0.069209076 0.068138242
-0.3953186 0.080931872 0.063219547
-0.35299826 0.086102106 0.062878534
0.42505956 0.086995587 0.06849274
0.26363522 -0.0363991 0.079769544
-0.28816432 0.053237736 0.073133402
-0.21497965 0.051964201 0.07900963
-0.18575534 0.051964201 0.076113306
-0.15505563 0.051964201 0.078209192
-0.11834718 0.051964201 0.079687446
-0.07210651 0.051964201 0.071822681
0.054998748 0.051964201 0.072345458
0.089338675 0.051964201 0.079330757
0.12207168 0.051964201 0.078194603
0.23701175 0.051964201 0.079164863
-0.10410242 0.067848504 0.078078926
0.051196411 0.067848504 0.075426593
0.072027698 0.067848504 0.072237164
0.081073366 0.067848504 0.078082822
0.094237193 0.067848504 0.077656977
0.10510559 0.067848504 0.075590983
0.21149357 0.067848504 0.072229981
0.33427027 0.06519445 0.075233921
0.3215304 0.078935772 0.070909403
0.3590228 0.071138307 0.07425274
0.36159056 0.071754918 0.076220796
-0.28293401 -0.05844748 0.088283747
-0.24641843 -0.034142699 0.083803184
-0.3061201 0.057872266 0.081617884
-0.067594364 0.051964201 0.08199814
0.13963653 0.051964201 0.089533426
0.22916435 0.051964201 0.088676959
-0.31767792 0.060855892 0.086300291
-0.2803165 0.06335745 0.083699718
-0.088577487 0.067848504 0.089681365
-0.045450039 0.067848504 0.082666226
0.082913131 0.067848504 0.085228965
0.1158774 0.067848504 0.088003635
0.12360089 0.067848504 0.08951132
0.30060989 0.073912077 0.086220756
0.36273128 0.072028823 0.080220751
-0.42256561 0.08796069 0.08292222
-0.400823 0.0984459 0.086145207
0.37681669 0.092211574 0.083840698
-0.26535839 -0.065577202 0.091756791
0.247933 -0.041851066 0.098072499
-0.28121048 -0.034142699 0.094262168
-0.24789029 -0.034142699 0.093166642
0.25262678 -0.0363991 0.097174287
-0.26338345 0.051964201 0.09515997
-0.2599915 0.051964201 0.099366412
-0.16550194 0.051964201 0.094591759
-0.11889353 0.051964201 0.098484874
-0.077785864 0.051964201 0.092316069
0.062889434 0.051964201 0.09229359
0.094315134 0.051964201 0.096889667
0.18784435 0.051964201 0.093359545
-0.3325828 0.06469965 0.098765269
-0.28713277 0.069063038 0.09570042
-0.27264735 0.067848504 0.090955004
-0.21526591 0.067848504 0.093791947
-0.16972308 0.067848504 0.094447948
-0.074787498 0.067848504 0.093442991
-0.027116776 0.067848504 0.099947706
0.079947285 0.067848504 0.090120524
0.20333427 0.067848504 0.091837965
0.27665025 0.067848504 0.091688834
0.28416127 0.069962218 0.091352835
-0.31603587 0.076531202 0.095931284
0.29049379 0.07148286 0.092877358
0.35705179 0.070665009 0.099113457
0.42059988 0.10270196 0.095459528
-0.28293401 -0.060265288 0.1029819
-0.28293401 -0.059593938 0.10655363
0.247933 -0.04048026 0.1020045
-0.25439179 -0.034142699 0.10192979
-0.24506401 -0.036003746 0.10968697
0.27756727 -0.0363991 0.10547535
-0.28288981 0.051964201 0.10208696
-0.27081215 0.051964201 0.1004551
-0.21956226 0.051964201 0.1054002
-0.17306025 0.051964201 0.10801554
-0.088481069 0.051964201 0.10048373
-0.068901256 0.051964201 0.10496464
-0.022530401 0.051964201 0.10380792
-0.018433305 0.051964201 0.10256009
0.057583112 0.051964201 0.10771547
0.18105343 0.051964201 0.10424694
0.22745892 0.051964201 0.10151215
0.27668318 0.051964201 0.107572
-0.32241696 0.062070794 0.10224886
-0.077674747 0.067848504 0.10839941
-0.019807978 0.067848504 0.10845172
0.012346685 0.067848504 0.10054223
0.12980053 0.067848504 0.10287866
0.14456698 0.067848504 0.10411929
0.15003435 0.067848504 0.10550307
0.19689143 0.067848504 0.107149
0.25799137 0.067848504 0.10225723
0.27564168 0.066671252 0.10476653
0.32238364 0.079140656 0.10801074
0.37068295 0.073938265 0.10796182
-0.39609048 0.081107929 0.10196748
0.36066684 0.088333666 0.10461695
-0.39528653 0.097001716 0.10861868
-0.38934118 0.095466822 0.10634032
0.37601691 0.092019543 0.10647575
-0.29589131 -0.090498433 0.119756
-0.2849834 -0.082336545 0.119756
-0.26961985 -0.083347321 0.119756
-0.25223333 -0.087093286 0.119756
-0.28612772 -0.072071806 0.119756
-0.28529179 -0.061864533 0.11966231
-0.28721374 -0.051528376 0.119756
-0.27621603 -0.034142699 0.11045144
-0.23109558 -0.035487309 0.119756
0.247933 -0.037196808 0.11691307
-0.29596132 -0.016881824 0.119756
-0.24374117 0.051964201 0.11617584
-0.17142047 0.051964201 0.11518519
-0.12211341 0.051964201 0.11186625
0.026765732 0.051964201 0.11127399
0.30513644 0.058198649 0.11134904
0.31096298 0.059597723 0.11595601
-0.32664827 0.063158795 0.11103721
-0.25867379 0.067848504 0.11700967
-0.18444443 0.067848504 0.11311442
-0.14498636 0.067848504 0.11903816
-0.047949836 0.067848504 0.11665376
0.052076686 0.067848504 0.11967807
0.065775529 0.067848504 0.11930738
0.11136469 0.067848504 0.11339459
0.17787968 0.067848504 0.1192491
0.21962723 0.067848504 0.11558292
0.25365639 0.067848504 0.11804519
-0.38496721 0.078226209 0.11441335
0.35919467 0.071179584 0.11354263
0.33499455 0.082168937 0.11764595
0.3963275 0.080096312 0.11894999
-0.39821589 0.097754218 0.11593812
0.40822807 0.098196946 0.11045653
-0.25966376 -0.10577919 0.12086956
0.25718385 -0.090445608 0.122561
0.27578098 -0.09214817 0.122561
0.2937806 -0.091568567 0.1253017
0.23506278 -0.087410569 0.122561
0.29736751 -0.073606864 0.122561
0.26541889 -0.068774775 0.12256101
0.29354501 -0.066793188 0.122561
-0.20824753 -0.044250749 0.12959315
0.22429326 -0.047636151 0.122561
0.247933 -0.042810246 0.12863711
0.25991243 -0.036092769 0.122561
-0.23066804 -0.0048409966 0.12211392
0.23631035 -0.0048364671 0.12708913
0.25770622 -0.0098409988 0.12256101
0.27636218 -0.0016026502 0.122561
-0.292467 0.054317564 0.12607598
-0.19881737 0.051964201 0.12419374
-0.11160094 0.051964201 0.12217492
-0.033588409 0.051964201 0.12519093
-0.029995337 0.051964201 0.12857319
0.092875905 0.051964201 0.12841819
0.29844701 0.056592349 0.12750596
-0.28164881 0.067630231 0.12189251
-0.092453226 0.067848504 0.12304911
0.010131925 0.067848504 0.12762284
0.31510592 0.060592551 0.12372772
0.37433869 0.091616571 0.12052578
0.26582932 -0.10094191 0.13774727
-0.21108396 -0.068464041 0.1305775
-0.24506402 -0.051645335 0.13400346
-0.24506402 -0.043594655 0.13032311
-0.31725645 -0.03208261 0.13947196
-0.27300999 -0.034142699 0.1391729
0.21355468 -0.035418075 0.13235587
-0.31459874 -0.025665848 0.13290626
0.28751564 -0.0029035334 0.13137388
0.255445 0.0022218826 0.13788185
-0.16172491 0.051964201 0.13847348
-0.017798539 0.051964201 0.13639523
0.0062107816 0.051964201 0.13312374
0.082742736 0.051964201 0.13459124
-0.33936071 0.066428714 0.13578792
-0.322945 0.06218525 0.13865578
-0.28337744 0.064675584 0.13383539
0.13832283 0.067848504 0.13904877
-0.32605976 0.079100065 0.13120791
-0.38479435 0.08479505 0.13076392
-0.26704472 -0.105949 0.1483742
-0.3018814 -0.091386929 0.1467775
-0.24506401 -0.056204475 0.14881878
-0.20763859 -0.050844204 0.14668457
0.21210381 -0.056212101 0.14341754
-0.24914464 -0.034142699 0.14623019
0.21357828 -0.035342757 0.14827727
0.27917299 -0.036927339 0.14020249
-0.22916391 -0.0059951893 0.14960319
-0.27046809 0.0057781143 0.14401603
-0.2486144 0.051964205 0.14598744
-0.22947884 0.051964201 0.14824127
-0.11327682 0.051964201 0.1448409
0.0066728182 0.051964201 0.14127871
0.14241315 0.051964201 0.14561394
0.27100894 0.051964201 0.14801015
-0.084374636 0.067848504 0.14299256
-0.014541999 0.067848504 0.14468849
-0.0082768947 0.067848504 0.14939934
0.11124462 0.067848504 0.14051244
0.15886216 0.067848504 0.14734912
0.21629892 0.067848504 0.14988764
0.27056277 0.067848504 0.14834514
0.29903096 0.073532909 0.14518166
-0.35706431 0.085232697 0.14502648
0.36502668 0.080604844 0.1435443
-0.27971193 -0.1039727 0.15457925
-0.26785821 -0.09693078 0.15911099
-0.23192126 -0.095840588 0.15290913
0.24494855 -0.097453885 0.15199484
-0.26334071 -0.088031106 0.15911099
-0.25005364 -0.060751248 0.15911099
-0.24506402 -0.051224284 0.15548809
0.31509596 -0.055737935 0.15529639
-0.31656444 -0.042544302 0.15911099
-0.30632997 -0.0438076 0.15911099
0.21204802 -0.041421376 0.15915623
-0.26329821 -0.035895273 0.15911099
0.2502397 -0.0363991 0.15544942
-0.26062673 -0.024957592 0.15911099
-0.2495459 -0.026240796 0.15911099
-0.24318743 -0.0066204397 0.15911099
0.2460566 0.00012401165 0.15621778
-0.28529081 0.052812733 0.15589213
-0.25404593 0.055183832 0.15507138
-0.24460053 0.051964201 0.15542133
-0.16069484 0.057342555 0.15591399
-0.12669319 0.055318251 0.15591399
-0.073883556 0.059145711 0.15591399
-0.05170083 0.059318103 0.15591399
-0.046177924 0.058257699 0.15591401
-0.016370684 0.051964201 0.15090543
0.029502723 0.051964205 0.15295602
0.047621798 0.051964197 0.15460223
0.054709211 0.053682171 0.15591401
0.076218836 0.055244878 0.15591399
0.10468541 0.051964201 0.15325874
0.11370407 0.056181394 0.15591399
0.17393123 0.051964201 0.1517681
0.18349557 0.051964201 0.15141945
0.21769056 0.055419981 0.15591399
0.27917302 0.058742777 0.15536954
-0.095586836 0.065563619 0.15385006
-0.048779659 0.067827888 0.15591399
0.061269559 0.067848504 0.1557112
0.072767712 0.060804266 0.15591399
0.087766208 0.067848504 0.15542957
0.18843995 0.065641925 0.15591399
0.21586581 0.06169416 0.15591399
0.25213179 0.066119052 0.15591399
0.32135326 0.064767309 0.15623279
-0.32704133 0.072406538 0.15482964
-0.30887774 0.07464572 0.15539077
0.292106 0.071870007 0.15245172
0.33746022 0.075050145 0.15162276
0.25579181 -0.08268939 0.16340099
0.30612639 -0.078570545 0.16333519
0.2552225 -0.054971706 0.16340099
0.31403187 -0.054837391 0.16340099
0.26596391 -0.035469279 0.16340101
0.23435047 -0.019851161 0.16340099
0.28407127 -0.0011905587 0.1611044
