# .PCD v0.7 - Point Cloud Data file format
VERSION 0.7
FIELDS x y z
SIZE 4 4 4
TYPE F F F
COUNT 1 1 1
WIDTH 919
HEIGHT 1
VIEWPOINT 0 0 0 1 0 0 0
POINTS 919
DATA ascii
0.15496267 -0.085518673 -0.18847102
0.10617419 -0.073159292 -0.18110977
0.12987666 -0.074819773 -0.18484531
0.12018432 -0.046142131 -0.18716836
0.16345634 -0.046465527 -0.188471
0.13556837 -0.017075544 -0.18796311
0.12796922 -0.09156888 -0.179261
0.13900864 -0.0936528 -0.17156464
0.14742684 -0.092860982 -0.17396845
-0.2220553 -0.082938947 -0.17403291
-0.28047162 -0.074769489 -0.17996401
-0.27730384 -0.073942989 -0.17996401
-0.26301658 -0.078460366 -0.17996401
-0.23161916 -0.073484786 -0.17996401
-0.22026861 -0.071814105 -0.17996401
-0.27332759 -0.066889457 -0.17996401
-0.26298559 -0.065449528 -0.17996401
-0.28634328 -0.052126143 -0.17656288
-0.27214995 -0.059179962 -0.17639266
0.11838341 -0.053154405 -0.17144072
0.11014295 -0.031338282 -0.17850021
-0.24909982 -0.029217146 -0.17996401
-0.24348393 -0.017931936 -0.17843425
0.14270373 -0.093482874 -0.16446368
-0.24296352 -0.077032305 -0.16685124
0.10183893 -0.052844696 -0.16318527
0.16130716 -0.046420842 -0.1609264
-0.28408414 -0.038949531 -0.16309223
-0.25195646 -0.03344804 -0.16019398
0.12635547 -0.03789375 -0.16490053
0.14667377 -0.03335819 -0.16606954
0.15573001 -0.038438246 -0.16379794
-0.2740638 -0.026274867 -0.1643074
-0.26834118 -0.022080958 -0.16546814
-0.22852197 -0.023621529 -0.1699249
-0.25678247 -0.09352769 -0.15726018
0.14205378 -0.093568452 -0.15426674
-0.26809052 -0.08963231 -0.15325487
0.12203898 -0.089112788 -0.15287736
0.15831469 -0.089140676 -0.15674123
0.10223968 -0.060474187 -0.1541664
-0.22795919 -0.059378441 -0.1557876
0.11963334 -0.047472067 -0.15725559
0.17773724 -0.046428639 -0.15348263
-0.22031114 -0.030943725 -0.15725116
0.13797432 -0.032886058 -0.15420702
-0.25240582 -0.094103754 -0.14953548
-0.23756307 -0.091234222 -0.14128999
0.1487015 -0.080463976 -0.14979701
-0.27976584 -0.077023789 -0.14129001
-0.24609235 -0.07779447 -0.14210586
-0.23472898 -0.077952854 -0.14128999
-0.21711697 -0.076502986 -0.14738455
0.13248554 -0.07590016 -0.14219195
0.15553202 -0.072347306 -0.14979701
-0.22968335 -0.065053269 -0.14149719
-0.27305499 -0.0527336 -0.14326563
0.11876671 -0.050240029 -0.14109012
-0.28446662 -0.048291314 -0.14264594
-0.2731455 -0.041539513 -0.14128999
-0.21324626 -0.043934751 -0.14128999
0.17017287 -0.042184949 -0.14979701
-0.26431257 -0.034088064 -0.14283979
-0.2432581 -0.03363587 -0.14214779
-0.23090814 -0.038897227 -0.14128999
-0.26465142 -0.026607856 -0.14128999
-0.25575823 -0.025253464 -0.14128999
-0.22740367 -0.027037375 -0.14129001
-0.2476656 -0.017381081 -0.14865071
-0.23397703 -0.071561478 -0.13246264
0.14793284 -0.076296724 -0.13879079
0.11813014 -0.055080052 -0.13648967
0.15285745 -0.036233701 -0.13357377
-0.26697087 -0.070432976 -0.12477707
0.15050115 -0.034943521 -0.12363326
-0.24400526 -0.077463709 -0.11641537
0.14660102 -0.076848246 -0.11081121
0.152288 -0.074380115 -0.11935302
0.16052435 -0.065645359 -0.11658454
0.13414444 -0.033589236 -0.11281824
0.14939654 -0.034485985 -0.11109094
-0.27212456 -0.052137628 -0.10730711
0.11833453 -0.053526003 -0.10295682
0.13830164 -0.032842983 -0.10978004
0.14824688 -0.034009784 -0.10681027
0.14160383 -0.077527285 -0.091339953
-0.30241928 -0.0039036621 -0.092843801
-0.22243482 -0.003589608 -0.092843801
-0.16996379 -0.00026162528 -0.092843801
-0.091950431 -0.0032920768 -0.092843801
0.012878731 -0.0051260898 -0.091597378
0.11454749 -0.0051260898 -0.091194421
0.2153666 -0.0021172788 -0.092843801
0.22308247 -0.0051260898 -0.090787902
0.23376417 -0.0032587198 -0.092843801
0.24769872 -0.00038118943 -0.092843801
0.30194342 -0.0042307796 -0.092843801
-0.30189666 0.0072803819 -0.092843801
-0.2617242 0.00081000826 -0.092843801
-0.2447968 0.0088533591 -0.092843801
-0.22913013 0.0080356123 -0.092843801
-0.20419446 0.0031144125 -0.092843801
-0.16964765 0.0098997653 -0.092843801
-0.1154168 0.0065843984 -0.092843801
-0.093577191 0.0094002904 -0.092843801
-0.084436312 0.001200904 -0.092843801
-0.020299226 0.0088287508 -0.092843801
-0.019918472 0.0077234488 -0.092843801
0.041714009 0.001673632 -0.092843801
0.059841555 0.00065999525 -0.092843801
0.21899468 0.0056650434 -0.092843801
0.23561671 0.0038891872 -0.092843801
0.25644335 0.0070067155 -0.092843801
0.26539147 0.0022942028 -0.092843801
0.32505184 0.0055907192 -0.092843801
-0.35499781 0.014770095 -0.092512801
-0.16495091 0.016624739 -0.092843801
-0.15745862 0.013469578 -0.092843801
-0.087680817 0.019485477 -0.092843801
-0.075031348 0.016119035 -0.092843801
0.033619568 0.018264942 -0.092843801
0.046474814 0.011278642 -0.092843801
0.065186322 0.016377229 -0.092843801
0.09312664 0.012483946 -0.092843801
0.13432607 0.011160002 -0.092843801
0.14623454 0.011502831 -0.092843801
0.26999456 0.013629723 -0.092843801
0.28711289 0.019469071 -0.092843801
0.35720161 0.015547064 -0.091947474
-0.34018642 0.027126489 -0.092512801
0.030691862 0.022930233 -0.092843801
0.1018315 0.02202658 -0.092843801
0.34960774 0.028452838 -0.092843801
0.36885649 0.021776771 -0.091900907
-0.37886614 0.035820499 -0.092512801
-0.32545668 0.033616047 -0.092155002
0.33101058 0.035177112 -0.092843801
0.34420389 0.036544301 -0.092843801
-0.36530733 0.044322472 -0.092512801
-0.26000649 -0.035673708 -0.084699392
-0.29954857 -0.0051260898 -0.080546312
-0.26449689 -0.0051260898 -0.089133568
-0.20057002 -0.0051260898 -0.082105741
-0.13220334 -0.0051260898 -0.086857975
-0.11816851 -0.0051260898 -0.088954434
-0.095164753 -0.0051260898 -0.088119745
-0.05042471 -0.0051260898 -0.087168187
0.0095815435 -0.0051260898 -0.086926937
0.065923974 -0.0051260898 -0.084148735
0.098090276 -0.0051260898 -0.084533125
0.10551967 -0.0051260898 -0.083968729
0.11242451 -0.0051260898 -0.087054037
0.17737255 -0.0051260898 -0.088688977
-0.31575096 0.0027372395 -0.084157616
0.304423 0.01416393 -0.086564347
0.34793755 0.010595292 -0.08745198
-0.36791971 0.02132811 -0.088148892
-0.23773578 0.023878701 -0.085923567
0.0097870678 0.023878699 -0.0805602
0.042597026 0.023878699 -0.088583119
0.062153675 0.023878699 -0.089481011
0.095907919 0.023878699 -0.085668162
0.13026664 0.023878699 -0.082127646
0.22390838 0.023878699 -0.089108907
0.30528843 0.022259591 -0.081788756
0.39384508 0.035133611 -0.086598903
0.40281624 0.048407912 -0.083623514
-0.35460135 0.050751887 -0.083265752
0.14138724 -0.077555813 -0.071425378
-0.22898731 -0.063372314 -0.073268868
-0.27216035 -0.05910109 -0.072116427
-0.22800668 -0.059739098 -0.074393004
-0.25506344 -0.0051260898 -0.073006727
-0.1858198 -0.0051260898 -0.07790219
-0.11266119 -0.0051260898 -0.070682511
-0.10966529 -0.0051260898 -0.072328739
-0.050347943 -0.0051260898 -0.073538125
-0.027950354 -0.0051260898 -0.078632787
0.10042704 -0.0051260898 -0.078790307
0.11897929 -0.0051260898 -0.079173915
-0.33719838 0.0049068239 -0.078508802
-0.3605012 0.017362727 -0.075524561
-0.31009287 0.013322781 -0.071512148
-0.37429711 0.024736982 -0.070503086
-0.29405606 0.023878699 -0.071036726
-0.25651115 0.023878697 -0.078291558
-0.19458202 0.023878699 -0.074295722
-0.16588634 0.023878701 -0.074067354
-0.13801789 0.023878699 -0.074752636
-0.11797682 0.023878699 -0.079518259
-0.096605986 0.023878699 -0.075222708
-0.085929103 0.023878699 -0.076941073
-0.072457567 0.023878701 -0.074732631
0.07299272 0.023878699 -0.071748972
0.09246891 0.023878699 -0.077556871
0.12296495 0.023878697 -0.072814301
0.13422044 0.023878699 -0.077241838
0.19886138 0.023878701 -0.070779189
0.23580405 0.023878699 -0.074088939
0.24471371 0.023878697 -0.079957679
0.38954839 0.032837026 -0.073999904
0.34277675 0.044379354 -0.073612623
0.4090035 0.043235976 -0.077293172
0.41148013 0.048208468 -0.078613259
-0.37132505 0.059690896 -0.074192822
-0.41189426 0.066671506 -0.072278187
0.37868005 0.063570514 -0.078602076
0.13186036 -0.07564126 -0.065873481
-0.27193901 -0.060781524 -0.063087806
-0.24852717 -0.033395246 -0.064352378
-0.32048222 -0.0040283538 -0.064781062
-0.31157172 -0.0048334948 -0.061580006
-0.23985855 -0.0051260898 -0.064123295
-0.15140992 -0.0051260898 -0.065215036
-0.12030813 -0.0051260898 -0.06608668
-0.11252598 -0.0051260898 -0.065768979
-0.041740432 -0.0051260898 -0.06100376
-0.036018863 -0.0051260898 -0.067306444
0.034852475 -0.0051260898 -0.064740404
0.058236923 -0.0051260898 -0.062561944
0.1095834 -0.0051260898 -0.068769619
0.13575746 -0.0051260898 -0.064889759
0.21475036 -0.0051260898 -0.065136567
0.24044316 -0.0051260898 -0.062483758
0.28309152 -0.0051260898 -0.068333596
0.29365113 -0.0051260898 -0.068937786
-0.1874705 0.023878697 -0.066012904
-0.015256703 0.023878701 -0.06104248
0.051701311 0.023878701 -0.068036929
0.20600244 0.023878699 -0.067789577
0.23613107 0.023878697 -0.069257639
-0.36945376 0.058690369 -0.067224279
-0.2675792 -0.069640167 -0.053878821
-0.2702136 -0.046009712 -0.059718095
-0.22837158 -0.049624927 -0.051707089
-0.31862539 -0.0023355451 -0.056684989
-0.30468199 -0.0015378925 -0.059822991
-0.099836476 -0.0051260898 -0.051635221
-0.088093616 -0.0051260898 -0.056844976
-0.06603571 -0.0051260898 -0.056380358
-0.012459829 -0.0051260898 -0.057229944
0.14415202 -0.0051260898 -0.051559065
0.17336366 -0.0051260898 -0.054538988
0.29112032 -0.0051260898 -0.058722772
0.33455157 0.0034402958 -0.05079459
-0.35124546 0.012415332 -0.056227874
-0.30468199 0.011572493 -0.057140097
0.35807186 0.016012222 -0.059879467
-0.27063209 0.023878697 -0.055496816
-0.25323537 0.023878699 -0.058244251
-0.24527496 0.023878697 -0.055638973
-0.18084331 0.023878697 -0.054126643
-0.17077431 0.023878701 -0.050541051
-0.086566716 0.023878699 -0.051425263
-0.0077265948 0.023878699 -0.0594097
0.029193766 0.023878699 -0.055217329
0.19035806 0.023878699 -0.052423589
0.30613676 0.024794728 -0.057076324
-0.40110403 0.039065659 -0.051502507
-0.42098564 0.049692623 -0.055083983
0.40755218 0.04246033 -0.059487328
0.41357195 0.045677863 -0.05082576
0.3866984 0.067856178 -0.059721686
0.42384642 0.084044792 -0.051103804
-0.26221615 -0.07460551 -0.048738785
0.12498195 -0.071228944 -0.044885136
0.12243603 -0.042134065 -0.040724285
-0.30468199 -0.0040173978 -0.041871764
-0.24721053 -0.0051260898 -0.047683939
-0.16873823 -0.0051260898 -0.045995377
-0.15120535 -0.0051260898 -0.047536645
-0.088553771 -0.0051260898 -0.045602538
-0.064478017 -0.0051260898 -0.045300081
-0.031816743 -0.0051260898 -0.044466361
0.021028545 -0.0051260898 -0.044781134
0.044752531 -0.0051260898 -0.042658307
0.13312064 -0.0051260898 -0.044097055
0.15446758 -0.0051260898 -0.045386702
0.25934353 -0.0051260898 -0.046140965
0.27660665 -0.0051260898 -0.041389149
0.30610743 -0.0050615012 -0.047522686
-0.35441643 0.014110272 -0.04292509
-0.31259477 0.028298346 -0.047651067
-0.2558898 0.023878699 -0.041735753
-0.20191029 0.023878697 -0.049555603
-0.19602956 0.023878699 -0.044225201
-0.12350561 0.023878699 -0.045189492
-0.11867966 0.023878701 -0.047596626
-0.014260098 0.023878697 -0.043836672
0.031285726 0.023878699 -0.042193078
0.090421349 0.023878699 -0.045088097
0.14363369 0.023878699 -0.045236412
0.19735609 0.023878701 -0.045182932
0.20659535 0.023878699 -0.045210447
0.27627286 0.023878699 -0.049908623
0.30485111 0.024107534 -0.043293133
0.37170959 0.023301769 -0.041810554
-0.39422363 0.035388071 -0.047815621
-0.31631875 0.030288873 -0.047036514
-0.43616286 0.057804801 -0.04345778
-0.37546521 0.06190379 -0.045523029
0.11886953 -0.060718097 -0.038428117
0.16213737 -0.061751559 -0.032418191
-0.27247858 -0.056684937 -0.033730589
-0.23844962 -0.036457963 -0.036423527
0.16450925 -0.012277499 -0.033428501
-0.32400897 -0.0021432277 -0.038817167
-0.26773113 -0.0051260898 -0.034348588
-0.24362054 -0.0051260898 -0.030778248
-0.10082701 -0.0051260898 -0.039958023
0.019238595 -0.0051260898 -0.038875282
0.02909321 -0.0051260898 -0.033992358
0.13609393 -0.0051260898 -0.039133895
0.15239841 -0.0062849922 -0.033428501
0.16876121 -0.0044992361 -0.033428501
0.26320675 -0.0051260898 -0.030443501
0.28259364 -0.0051260898 -0.03136909
0.31801361 -0.0015475746 -0.037022084
0.32047471 -0.0040840134 -0.030512642
0.33771348 0.0051303762 -0.037499722
-0.24219345 0.023878699 -0.03550861
-0.23886523 0.023878697 -0.031361796
-0.22157994 0.023878699 -0.031300679
-0.17652029 0.023878699 -0.037665844
-0.13041854 0.023878699 -0.035196047
-0.11866722 0.023878699 -0.033634186
-0.095226645 0.023878699 -0.039381888
0.083049126 0.023878697 -0.03338499
0.14031228 0.023878701 -0.034561686
-0.38776302 0.068477198 -0.031627391
0.38010585 0.064332321 -0.038237054
0.43852225 0.074350193 -0.037139747
-0.41414076 0.082576483 -0.030482933
-0.24682303 -0.077890724 -0.020752512
0.16009748 -0.066534199 -0.029477157
0.16281939 -0.058342673 -0.025544636
0.12249897 -0.042052045 -0.02323404
-0.26326644 -0.037711166 -0.025965825
-0.27741688 -0.010061303 -0.0249219
-0.20192587 -0.011859745 -0.0249219
-0.31834137 -0.0021090813 -0.02402412
-0.14674012 -0.0051260898 -0.029541865
-0.11334726 -0.0051260898 -0.021074953
-0.042563923 -0.0051260898 -0.023642696
-0.016854594 -0.0051260898 -0.025479149
0.0015529115 -0.0051260898 -0.021131925
0.015860111 -0.0051260898 -0.023767963
0.22246033 -0.0051260898 -0.025851356
0.29673004 -0.0051260898 -0.029857848
0.30954257 -0.0049297777 -0.02491069
-0.30468199 0.0087364959 -0.026936596
0.35094795 0.012204424 -0.021476436
-0.37941432 0.02747225 -0.027473092
-0.30429474 0.023878701 -0.025829133
-0.28516021 0.023878699 -0.021352477
-0.18367422 0.023878697 -0.026272662
-0.090701744 0.023878699 -0.020283803
-0.072266832 0.023878699 -0.021932214
-0.049878512 0.023878699 -0.026846303
0.011592038 0.023878701 -0.027478088
0.058059856 0.023878699 -0.020180738
0.23338953 0.023878699 -0.024468288
0.27196255 0.023878697 -0.023322195
0.28345361 0.023878701 -0.022522245
0.38092023 0.028225018 -0.029444832
-0.3958782 0.036272481 -0.024219172
0.42623055 0.052444033 -0.026645821
0.43216524 0.055616226 -0.023625126
0.39963168 0.074769177 -0.022265961
0.40170443 0.075877085 -0.021228524
-0.43677205 0.083323158 -0.02899215
0.12955727 -0.074687511 -0.018284488
-0.27248967 -0.05491003 -0.017420053
-0.26763847 -0.041947808 -0.019332122
-0.23117548 -0.043600403 -0.01707546
0.16257107 -0.049948551 -0.012280127
-0.23678032 -0.037928075 -0.015764726
-0.25952566 -0.018017201 -0.017276404
-0.31653079 -0.0046228906 -0.011511041
0.051133048 -0.0051260898 -0.015231911
0.1126572 -0.0051260898 -0.019704798
0.19440931 -0.0051260898 -0.013878401
0.28865254 -0.0051260898 -0.017170329
0.32420969 -0.0020876057 -0.015844882
-0.31392467 0.0061539714 -0.016589478
-0.34839761 0.010893065 -0.011369754
0.35120398 0.012341274 -0.019321438
-0.37019584 0.022544745 -0.019676749
-0.28692245 0.023878699 -0.012072923
-0.20245644 0.023878699 -0.017348766
-0.091856115 0.023878699 -0.017455854
-0.036430523 0.023878699 -0.010456577
0.27121902 0.023878697 -0.017603647
0.37228751 0.023610841 -0.016784493
0.38234892 0.028988749 -0.013965972
0.32558787 0.035191644 -0.017689709
-0.36144766 0.054411083 -0.013550296
-0.35891345 0.053056479 -0.018924685
-0.44493389 0.074671775 -0.019830178
-0.25983661 -0.075907119 -0.0017378964
-0.24929056 -0.078215748 -0.0030767582
-0.23936871 -0.075543642 -0.0070687309
0.12286089 -0.06859643 -0.0027822256
0.11669129 -0.041177779 -0.0026273045
0.1183494 -0.036406446 -0.0066135773
-0.2708239 -0.018017201 -0.007119244
0.10986421 -0.0173505 -0.0015072133
0.15297861 -0.01901116 -0.0038151306
-0.31758356 -0.0045781829 -0.0055743009
-0.30736604 -0.0050121024 -0.0016607828
-0.19547169 -0.0051260898 -0.0028693932
-0.11199167 -0.0051260898 -0.0035541288
-0.02339258 -0.0051260898 -0.00048628263
0.0083186794 -0.0051260898 -0.0062380079
0.13894188 -0.0051260898 -0.0075045838
0.15199924 -0.0051260898 -0.001617739
0.18992497 -0.0051260898 -0.003978149
0.26544234 -0.0051260898 -0.0099404957
0.29699862 -0.0051260898 -0.002206035
0.32556134 -0.0013651389 -0.0044327751
0.33561268 0.0040074699 -0.0055012144
-0.31094059 0.011736775 -0.0075115771
0.35151476 0.012507376 -0.0074494407
-0.29423219 0.023878701 -0.0015154257
-0.28377855 0.023878699 -0.0071237981
-0.051220894 0.023878699 -0.0021228641
-0.045355331 0.023878699 -0.0082730763
0.015686586 0.023878699 -0.0055758096
0.032034039 0.023878701 -0.002014149
0.091386326 0.023878699 -0.003638804
0.19864006 0.023878699 -0.00050740689
0.21880126 0.023878699 -0.0086863693
0.24505159 0.023878699 -0.0058883764
0.40436423 0.040756173 -0.0018007914
-0.371959 0.060029484 -0.0078740446
0.43074846 0.091401555 -0.0062349588
-0.24347346 -0.077243485 0.0039207637
0.14783233 -0.076338343 0.0036241412
-0.22624117 -0.037351362 0.0054064253
0.12422889 -0.0397975 0.0046403781
0.13988353 -0.03263478 0.00011153519
0.15425637 -0.037643921 0.0043007666
0.11580442 -0.024126099 0.0035252119
-0.26661938 -0.018017201 0.0068925382
-0.21770506 -0.018017201 0.0088721365
0.16358626 -0.0173505 0.0024274802
-0.30270204 -0.0051260898 0.0065075299
-0.28661942 -0.0051260898 0.0094908439
-0.16374144 -0.0051260898 0.0081691518
-0.12606804 -0.0051260898 0.0049256412
-0.086764909 -0.0051260898 0.0054383227
0.066085629 -0.0051260898 0.00077212323
0.11702096 -0.0051260898 0.004123237
0.30639195 -0.0050505903 0.0008584857
-0.30468199 0.010865668 0.0024497472
-0.37517637 0.025206974 0.0012860456
-0.053883746 0.023878701 0.0089008212
-0.025429104 0.023878699 0.0055587096
-0.013101837 0.023878699 0.0047624558
0.060964361 0.023878699 0.0040365644
0.17854522 0.023878697 0.009300217
0.18944293 0.023878701 0.0046828929
0.20693977 0.023878697 0.0031335671
0.23590228 0.023878697 0.0067301914
0.24650866 0.023878699 0.0066195354
-0.39658177 0.036648542 0.0028149374
0.38427565 0.030018628 0.0083458014
-0.34854174 0.047512561 0.0076225363
-0.33896652 0.042394444 6.9624744e-05
0.41721189 0.047623429 0.0031385571
-0.35513151 0.051035255 0.00061730295
-0.44896659 0.074048124 0.0024180075
-0.44257873 0.085966289 0.009285531
0.43492115 0.091768011 0.0089005856
-0.26014966 -0.075777471 0.010228366
-0.23864368 -0.075201631 0.014777452
-0.23236457 -0.042050738 0.01364322
0.12356788 -0.040658966 0.012495354
0.1489377 -0.045146883 0.016507389
0.16178481 -0.047573797 0.015563741
-0.26377007 -0.039591517 0.011573582
0.12567182 -0.035154041 0.019926807
0.097384647 -0.0173505 0.011856938
0.17631499 -0.012956834 0.01903693
-0.31739902 -0.0041389526 0.014222402
-0.13150898 -0.0051260898 0.010485857
-0.11995346 -0.0051260898 0.015958907
-0.089342088 -0.0051260898 0.019789552
-0.043744713 -0.0051260898 0.019757446
-0.030653924 -0.0051260898 0.012232563
-0.029706184 -0.0051260898 0.010094994
-0.00084268302 -0.0051260898 0.013987614
0.012200846 -0.0051260898 0.0129431
0.061524842 -0.0051260898 0.017348405
0.1027576 -0.0051260898 0.016599625
0.18040422 -0.0051260898 0.01298711
0.20061246 -0.0051260898 0.015070625
0.28317279 -0.0051260898 0.010694042
0.31452215 0.0049845092 0.015423745
-0.28173956 0.023878697 0.010699833
-0.26775834 0.023878699 0.019167997
-0.24323088 0.023878699 0.013743661
-0.1836583 0.023878699 0.019644063
-0.10692802 0.023878699 0.01118197
-0.036439475 0.023878699 0.014568592
-0.018948972 0.023878699 0.011757623
0.012290455 0.023878699 0.017202828
0.088201419 0.023878701 0.012303054
0.16222052 0.023878699 0.017218903
0.1749838 0.023878699 0.013135415
-0.39361429 0.035062388 0.016515896
0.34092247 0.043388236 0.011601156
0.43803698 0.058754753 0.01226512
-0.38966289 0.069492444 0.010864863
-0.39582425 0.072785787 0.017975401
-0.42064214 0.086051635 0.012880897
-0.24389139 -0.049916096 0.020403331
-0.23173577 -0.046959497 0.026001716
-0.23363599 -0.034923486 0.027459379
0.12413908 -0.039914548 0.02353083
-0.22871974 -0.018017201 0.022858135
0.10707174 -0.0173505 0.027281869
0.13392788 -0.0173505 0.025093757
-0.29303491 -0.0051260898 0.029005596
-0.20079231 -0.0051260898 0.0241675
-0.15382564 -0.0051260898 0.028355636
-0.077727571 -0.0051260898 0.020202901
-0.049951978 -0.0051260898 0.024300722
-0.026805215 -0.0051260898 0.02086119
0.053245675 -0.0051260898 0.022722268
0.072940297 -0.0051260898 0.020722784
0.16411164 -0.0051260898 0.025429597
0.17489618 -0.0051260898 0.024519667
0.1850846 -0.0051260898 0.027364068
0.21948697 -0.0051260898 0.020207558
0.24543117 -0.0051260898 0.027107665
0.27622232 -0.0051260898 0.025682285
0.28162223 -0.0051260898 0.02054522
0.29669675 -0.0051260898 0.029667301
0.31624842 -0.0046726419 0.027123567
0.32636559 -0.00093525159 0.022965658
0.36312038 0.018710785 0.028231904
-0.37101418 0.022982178 0.024606463
-0.29780841 0.023878699 0.027864058
-0.19861838 0.023878701 0.026247829
-0.16856678 0.023878699 0.020913471
-0.071006149 0.023878699 0.020777868
-0.068997711 0.023878699 0.023150126
-0.030924525 0.023878699 0.023550304
0.12623157 0.023878699 0.026385065
0.18696466 0.023878699 0.020094337
0.19086906 0.023878699 0.027778942
0.30604407 0.024745191 0.027481291
-0.41669953 0.047401659 0.022601847
-0.34363517 0.044889912 0.027292598
0.40911898 0.079840243 0.020750415
-0.44158757 0.085297205 0.020113528
0.14961053 -0.075601965 0.03409265
-0.23216838 -0.069204316 0.034622312
-0.2721121 -0.059467513 0.03994973
-0.22818503 -0.050416969 0.030785829
0.12728623 -0.037179451 0.032360218
-0.20289561 -0.018017201 0.033308972
0.092522897 -0.016368229 0.030025588
0.10743207 -0.0173505 0.033561919
0.13006699 -0.0173505 0.039114326
-0.29221565 -0.0051260898 0.036971949
-0.16922688 -0.0051260898 0.039151184
-0.14696136 -0.0051260898 0.03490762
-0.092782594 -0.0051260898 0.036127172
-0.058529854 -0.0051260898 0.036165342
0.14680447 -0.0051260898 0.030530753
0.17575559 -0.0051260898 0.033652775
0.23889461 -0.0051260898 0.03907337
0.31656083 -0.0046606623 0.033087358
-0.31292734 0.008019859 0.03152784
0.304423 0.0056148702 0.032753009
-0.34682328 0.010051554 0.036392607
0.30705935 0.018946474 0.030643849
-0.36995688 0.022417033 0.03665537
-0.25732177 0.023878699 0.03100292
-0.21735945 0.023878701 0.038501728
-0.19723038 0.023878701 0.03145704
-0.18129802 0.023878699 0.038265891
-0.15576233 0.023878699 0.034342252
-0.076794319 0.023878699 0.03034424
0.086293317 0.023878699 0.031270556
0.13931654 0.023878699 0.030188303
0.19860137 0.023878697 0.03564924
0.20879762 0.023878699 0.033287738
0.23220003 0.023878699 0.034071837
0.25451881 0.023878699 0.034701116
0.26028726 0.023878697 0.036887798
0.29262254 0.023878697 0.032054417
0.31737232 0.030800302 0.03007143
0.32043955 0.032439783 0.033254027
0.39994276 0.03839289 0.038102552
-0.40620059 0.041789897 0.030759677
0.41695374 0.04748572 0.03762006
-0.43630463 0.08927536 0.033527553
0.13181691 -0.075623259 0.049449299
-0.23016173 -0.066208616 0.044267587
0.16081896 -0.064934187 0.047315739
0.11828977 -0.056310833 0.04690665
0.16304365 -0.056640178 0.04245352
-0.22923118 -0.047549158 0.041169349
0.12379844 -0.040358484 0.042238414
-0.26465559 -0.012004945 0.049201898
0.15153073 -0.012997476 0.040695202
-0.18749487 -0.0051260898 0.040992714
-0.16389872 -0.0051260898 0.048659328
-0.081222996 -0.0051260898 0.049167763
-0.047187407 -0.0051260898 0.042096205
0.055955358 -0.0051260898 0.042535029
0.075345844 -0.0051260898 0.043768279
0.081057146 -0.0051260898 0.045384288
0.10394166 -0.0051260898 0.043114338
0.13852566 -0.0051260898 0.045323558
0.14843136 -0.0051260898 0.049884483
0.15936369 -0.0088861035 0.040695198
0.18388572 -0.0051260898 0.040376376
0.19675125 -0.0051260898 0.048122771
0.20149703 -0.0051260898 0.046737507
0.24402961 -0.0051260898 0.047548667
-0.33412898 0.0032661515 0.042572666
-0.30468199 0.006183025 0.045860637
0.304423 0.0099372678 0.047898516
0.34604836 0.0095855072 0.044068497
-0.30468199 0.010436529 0.040031955
0.34855622 0.010926008 0.042078193
-0.30468199 0.020744039 0.048434198
-0.20265165 0.023878699 0.042697489
-0.19293649 0.023878699 0.040452167
0.031753961 0.023878699 0.043088563
0.083286308 0.023878699 0.0469312
0.18580981 0.023878699 0.049270049
0.37242398 0.023683703 0.049939156
-0.32462645 0.034729466 0.045728572
0.41953436 0.048865106 0.04367185
0.35701448 0.051989656 0.047802199
0.44523582 0.062602647 0.040321413
-0.25603396 -0.077481844 0.054545078
-0.23440358 -0.071948729 0.057176113
0.11824618 -0.055979475 0.057179894
-0.32624397 -0.00094856555 0.053544611
-0.31461045 -0.0047044451 0.055253744
-0.27390921 -0.0051260898 0.054267038
-0.25229123 -0.0051260898 0.056603514
-0.24175249 -0.0051260898 0.052950051
0.013171576 -0.0051260898 0.058063876
0.037324391 -0.0051260898 0.055653837
0.18870685 -0.0051260898 0.050245449
0.19287629 -0.0051260898 0.051463127
0.24385463 -0.0051260898 0.050327204
0.28710604 -0.0051260898 0.056875616
-0.34057409 0.0067112157 0.057074912
-0.36254668 0.018456098 0.052261014
-0.31016433 0.013189088 0.050636001
-0.28373432 0.023878699 0.050808277
-0.27537119 0.023878699 0.053682417
-0.087326966 0.023878699 0.057551913
0.030255441 0.023878697 0.053296186
0.1453622 0.023878701 0.051440291
0.19127679 0.023878699 0.055875041
0.27078253 0.023878699 0.058486119
0.28283942 0.023878699 0.05509086
0.38622594 0.031061057 0.051900774
-0.41233739 0.045070097 0.053846166
0.35268134 0.049673527 0.052475758
-0.40622714 0.078346677 0.058233831
0.42878348 0.079995289 0.057990849
0.41384986 0.082369231 0.054288395
-0.23545533 -0.038755156 0.069004461
-0.31056339 -0.0048763165 0.069218203
-0.29397658 -0.0051260898 0.069316939
-0.2624377 -0.0051260898 0.067159757
-0.11479838 -0.0051260898 0.062379219
0.1633331 -0.0051260898 0.065776147
0.26965636 -0.0051260898 0.062153034
0.28467554 -0.0051260898 0.060247764
-0.30761105 0.017965991 0.065001205
-0.30468199 0.020197907 0.067598313
-0.2799353 0.023878697 0.068487287
-0.16039224 0.023878699 0.064724974
-0.077220857 0.023878701 0.065981209
-0.045254212 0.023878701 0.068036035
0.0633507 0.023878701 0.060025357
0.15637287 0.023878699 0.069163121
0.18524717 0.023878699 0.064675234
0.25832221 0.023878701 0.06907057
0.2877036 0.023878697 0.060536936
0.30627513 0.024868678 0.060771018
-0.39285359 0.034655795 0.067141831
0.31635299 0.030255467 0.062178459
-0.34547305 0.045872286 0.060968116
-0.42965639 0.054327223 0.068418287
0.35769114 0.052351352 0.063055664
0.43122828 0.058358468 0.069838904
-0.38163787 0.06520322 0.064090118
-0.39716753 0.073504522 0.063513249
0.3963291 0.073004261 0.069804132
-0.41200486 0.08143501 0.068735085
0.41882411 0.085028104 0.065983653
-0.26290861 -0.074074186 0.070959732
0.13260201 -0.075948387 0.070572294
-0.22755198 -0.055224057 0.078499138
0.1237617 -0.040406369 0.074599698
-0.2547279 -0.033812568 0.072975419
0.13012813 -0.035252824 0.072249144
-0.22660166 -0.0051260898 0.075789802
-0.21614486 -0.0051260898 0.075293601
-0.12879702 -0.0051260898 0.075926326
-0.10651556 -0.0051260898 0.070094548
-0.068403676 -0.0051260898 0.078672752
0.031847052 -0.0051260898 0.072894633
0.053762887 -0.0051260898 0.075137272
0.15195879 -0.0051260898 0.072736368
0.23221272 -0.0051260898 0.075952575
0.25905192 -0.0051260898 0.078270711
-0.35336846 0.013550114 0.072648123
-0.30756429 0.018053429 0.074688137
0.304423 0.018013189 0.073089518
0.31016949 0.013127775 0.07186795
-0.37937626 0.027451906 0.078473188
-0.36925182 0.022040162 0.076333933
-0.067752406 0.023878697 0.072004497
0.14331788 0.023878701 0.078933865
-0.39078528 0.033550255 0.070002325
-0.42539215 0.061847523 0.073836811
-0.38592887 0.067496762 0.076800123
-0.37691042 0.062676042 0.071575291
-0.41912672 0.077233285 0.072040908
0.39605305 0.072856627 0.079970159
0.41426688 0.080364779 0.074606128
0.12439445 -0.070595063 0.086043581
-0.27189797 -0.061093092 0.080314696
0.11910251 -0.061423004 0.0873693
0.15617573 -0.038780309 0.088799357
-0.317399 -0.00034600031 0.089040987
-0.28054476 -0.0051260898 0.080298528
-0.27541137 -0.0051260898 0.087880276
-0.19530621 -0.0051260898 0.086596765
-0.073564917 -0.0051260898 0.082046181
-0.067906417 -0.0051260898 0.085931957
-0.0085210465 -0.0051260898 0.080547601
0.040339932 -0.0051260898 0.088676363
0.11540097 -0.0051260898 0.083687358
0.12333001 -0.0051260898 0.080972582
0.17502436 -0.0051260898 0.087873161
0.20183226 -0.0051260898 0.087090239
0.304423 0.0034111748 0.083566926
0.34546372 0.0092730159 0.085255839
-0.35535777 0.014613447 0.088459536
-0.31179458 0.010139099 0.087138698
-0.29483899 0.023878699 0.08822377
-0.12943031 0.023878699 0.082104951
-0.1160146 0.023878699 0.084696129
0.0045626257 0.023878697 0.080792181
0.044834241 0.023878699 0.087027773
0.26933864 0.023878701 0.080571644
0.28569067 0.023878699 0.080785379
0.36560977 0.020041404 0.083845064
-0.32830364 0.036694977 0.0864015
0.3336091 0.039479114 0.082838148
-0.42093155 0.049663756 0.083545163
0.33560818 0.040547661 0.088228643
-0.40885448 0.069723099 0.084665753
0.3741982 0.06117462 0.081734471
-0.40856135 0.076343149 0.082164928
0.39299965 0.071224444 0.086372063
-0.22893503 -0.063246086 0.091956377
-0.23286223 -0.041402165 0.091671899
-0.22907624 -0.047923286 0.09225186
0.11908073 -0.048805915 0.09361285
-0.24108262 -0.0051260898 0.097634606
-0.23806012 -0.0051260898 0.098900095
-0.17415345 -0.0051260898 0.099195749
0.17127115 -0.0051260898 0.093620531
0.22092983 -0.0051260898 0.091510989
0.27801818 -0.0051260898 0.091190338
0.29552618 -0.0051260898 0.09987741
0.30493277 -0.0041319001 0.09742675
0.3553364 0.014550105 0.096412227
-0.37050501 0.022709999 0.09980008
-0.22547792 0.023878699 0.098287776
-0.14247356 0.023878699 0.090599455
-0.11385757 0.023878699 0.094054058
0.015152365 0.023878699 0.098107375
0.026265677 0.023878699 0.094948016
0.22262232 0.023878699 0.094617426
-0.38378736 0.036110982 0.098775342
0.39144906 0.033852905 0.092848711
0.34856471 0.047473121 0.092163533
-0.39528304 0.051255152 0.09743014
-0.35377434 0.050309453 0.095606446
0.3657971 0.056684121 0.096228331
0.37743464 0.062904559 0.096708931
0.396139 0.065745175 0.093008175
0.12168771 -0.043109335 0.10091188
-0.26535749 -0.039315723 0.10006734
-0.24516349 -0.034132861 0.10948756
-0.23808311 -0.036739137 0.10074228
-0.30961037 -0.0010109624 0.10389949
-0.29832932 -0.0051260898 0.10057411
0.013470866 -0.0024825113 0.103745
0.068973087 -0.0051260898 0.10366004
0.10950106 -0.0051260898 0.10347266
0.16803193 -0.0043570562 0.103745
0.184403 -0.0040928442 0.103745
0.21241529 -0.0051260898 0.10122032
0.22695805 -0.0017143514 0.103745
0.2427381 -0.0051260898 0.10349905
0.31163579 -0.0025149088 0.103745
-0.31679273 0.00078821881 0.1002316
-0.24764644 0.0088953488 0.103745
-0.14212844 0.0040011378 0.103745
-0.095004626 0.0019623805 0.103745
-0.080158725 0.0011450691 0.103745
-0.017807037 0.0037129689 0.103745
0.0029444788 0.0065141451 0.103745
0.07557568 0.00072351325 0.103745
0.10375988 0.0035410968 0.103745
-0.27309936 0.016833983 0.103745
-0.25858587 0.019708928 0.103745
-0.20735309 0.011414506 0.103745
-0.1281057 0.014727107 0.103745
-0.11057497 0.014035427 0.103745
-0.095762283 0.01597468 0.103745
-0.030725824 0.012875995 0.103745
-0.015715003 0.019172974 0.103745
0.038929507 0.012788883 0.103745
0.046349868 0.019576423 0.103745
0.064595267 0.017917205 0.103745
0.099009916 0.01120222 0.103745
0.3109746 0.011621538 0.10057124
0.32667005 0.014118167 0.103745
-0.3545346 0.028312223 0.104076
-0.30445772 0.02233992 0.10405833
-0.02452822 0.020968188 0.103745
0.010072134 0.020520102 0.103745
0.19602525 0.022840975 0.103745
0.24830307 0.020020604 0.103745
0.37501711 0.028187256 0.10374501
0.32061589 0.032534063 0.10221568
-0.36692685 0.043814696 0.104076
0.36915353 0.043504775 0.103745
0.37398201 0.046983816 0.103745
-0.37532496 0.061805509 0.10228765
0.13428906 -0.076647013 0.11608406
0.14946571 -0.075661942 0.11932993
-0.23410055 -0.039794538 0.11408706
-0.26282278 -0.074140027 0.12864085
0.13794605 -0.07728678 0.12576859
0.14512065 -0.077064119 0.12649898
-0.26724231 -0.041431569 0.1282873
-0.2512722 -0.033358034 0.12662859
-0.24607389 -0.033717986 0.12173381
0.13409424 -0.033610024 0.12059099
0.15337545 -0.036734574 0.12506661
0.15118068 -0.074951738 0.13330288
0.14340335 -0.032886282 0.13795115
0.15449554 -0.075616628 0.14129101
0.16319309 -0.078352481 0.14129101
0.16399878 -0.066317752 0.14162648
-0.25016865 -0.05940425 0.14876001
0.14608008 -0.05866573 0.14025301
0.15255079 -0.059948094 0.14025301
-0.23866788 -0.044217221 0.14876001
-0.251636 -0.033405885 0.14041685
-0.24468359 -0.03883297 0.14876001
0.11470282 -0.034602612 0.14129101
0.14657058 -0.093859583 0.15396319
0.11894964 -0.087837324 0.15515415
0.13974956 -0.078350902 0.15592349
-0.28790566 -0.060885794 0.15995333
-0.26548758 -0.040098466 0.15611313
0.16047448 -0.044724096 0.15477082
-0.21613599 -0.037712641 0.15716231
0.14667434 -0.034334175 0.15822744
-0.26819801 -0.0227843 0.15406573
0.12670827 -0.091809653 0.16767189
-0.27213341 -0.061869621 0.16706192
0.16276897 -0.06128981 0.16645673
0.17848673 -0.051268131 0.16800958
0.12006079 -0.047839597 0.16501597
-0.21855289 -0.034384191 0.16709256
0.10895224 -0.034039758 0.16882998
0.14626318 -0.034089275 0.16212538
0.13947587 -0.017447008 0.1673971
-0.23492312 -0.092005268 0.17805357
0.14227761 -0.094424888 0.1740354
0.15489787 -0.091505185 0.17626515
-0.22663784 -0.087226279 0.17221251
0.15320688 -0.084194109 0.17996401
-0.24455017 -0.078417987 0.17176515
0.11135681 -0.066520803 0.17996401
0.12209474 -0.064990461 0.17996401
0.16296668 -0.062788881 0.17996401
-0.27222031 -0.052012365 0.1710483
0.10783571 -0.053072385 0.17996401
0.16276911 -0.052452609 0.17996401
-0.28715801 -0.046757609 0.17920177
-0.26855013 -0.043697618 0.17301069
0.17685704 -0.043730013 0.17174999
-0.26405877 -0.039002299 0.17983025
0.11047158 -0.032059442 0.17696691
0.14151956 -0.03346502 0.17022857
0.15805784 -0.021791868 0.17172801
-0.25902617 -0.019204035 0.17215961
0.13711938 -0.017757259 0.17733483
-0.2441861 -0.094596714 0.1815885
-0.24169689 -0.073289357 0.188471
-0.23605731 -0.073900595 0.18662106
-0.21855047 -0.073998198 0.18847102
-0.28789917 -0.060934968 0.18480736
-0.27141535 -0.065817133 0.18847099
-0.23244381 -0.067701496 0.188471
-0.26672447 -0.056691587 0.188471
-0.21153536 -0.053468391 0.18135573
