# .PCD v0.7 - Point Cloud Data file format
VERSION 0.7
FIELDS x y z
SIZE 4 4 4
TYPE F F F
COUNT 1 1 1
WIDTH 1287
HEIGHT 1
VIEWPOINT 0 0 0 1 0 0 0
POINTS 1287
DATA ascii
0.063584894 -0.039064966 -0.015977409
0.074280813 -0.039147135 -0.015053998
0.085775845 -0.039205879 -0.014393867
0.096021421 -0.039155334 -0.014961823
0.10439274 -0.039250858 -0.013888425
0.11481883 -0.039181627 -0.014666393
0.12500663 -0.039105173 -0.015525597
0.13414194 -0.039112415 -0.015444161
0.14578781 -0.039126523 -0.015285673
0.15394045 -0.039161708 -0.014890268
0.16539289 -0.03928858 -0.013464519
0.17316432 -0.039151534 -0.015004523
0.18453327 -0.039178688 -0.014699389
0.19580036 -0.039031055 -0.016358467
0.20594594 -0.039147854 -0.015045913
0.21529037 -0.039127789 -0.015271329
0.22451563 -0.039118625 -0.015374396
0.23532724 -0.039152838 -0.014989921
0.24441089 -0.039159313 -0.014917165
0.25507462 -0.039060697 -0.016025411
0.26437148 -0.039173767 -0.014754694
0.27597269 -0.039051726 -0.01612616
0.28495699 -0.039104901 -0.015528625
0.29507795 -0.039195474 -0.014510782
0.30437729 -0.039170332 -0.014793304
0.31439206 -0.039179958 -0.014685156
0.32604685 -0.035682503 -0.015408624
0.33322412 -0.036955167 -0.014534606
0.34529072 -0.03487825 -0.015202062
0.35448843 -0.032855742 -0.015190844
0.36112377 -0.030565089 -0.016422892
-0.383472 -0.021738684 -0.014452175
-0.37514776 -0.02388332 -0.015421341
-0.36536929 -0.027043905 -0.015327881
-0.35479611 -0.025417518 -0.015952302
-0.34399632 -0.025293501 -0.01596861
-0.33399794 -0.023619946 -0.014813239
-0.3214561 -0.028778005 -0.016139288
-0.31593031 -0.023649447 -0.014123039
0.31624168 -0.023412442 -0.014693789
0.32176587 -0.028543437 -0.013793119
0.332562 -0.025737489 -0.014750738
0.34275848 -0.025149241 -0.015151949
0.35522178 -0.024209527 -0.015952298
0.36517316 -0.026809547 -0.015024612
0.37432316 -0.02473212 -0.015339145
0.38371235 -0.021507191 -0.014682098
-0.41071013 -0.010937179 -0.0141383
-0.40519091 -0.013061421 -0.014810367
-0.39526689 -0.015100094 -0.0151207
-0.38639271 -0.016317435 -0.015730971
-0.37589514 -0.014321093 -0.0159523
-0.36522812 -0.014440713 -0.015952302
-0.35425207 -0.014072617 -0.015530389
-0.34486669 -0.01525108 -0.015080964
-0.33540305 -0.017911684 -0.016270222
-0.32557794 -0.017930727 -0.014867337
-0.31445101 -0.018078046 -0.015352173
-0.30595881 -0.017947119 -0.014897696
-0.29650697 -0.017899614 -0.015315754
-0.28466058 -0.017849427 -0.016039103
-0.27602619 -0.018036805 -0.013338395
-0.2652612 -0.017982628 -0.014119279
-0.25446993 -0.017958004 -0.014474162
-0.24507974 -0.017964434 -0.014381525
-0.23616177 -0.01795519 -0.014514728
-0.22521265 -0.017855333 -0.015953962
-0.21613899 -0.017868128 -0.015769577
-0.20510426 -0.017873034 -0.015698876
-0.1965318 -0.017848566 -0.016051488
-0.18460305 -0.017928092 -0.014905308
-0.17547284 -0.017850004 -0.016030785
-0.16467053 -0.017839979 -0.016175276
-0.15456891 -0.017990714 -0.014002732
-0.14497702 -0.017936455 -0.01478473
-0.13503748 -0.017923711 -0.014968427
-0.12569527 -0.017930988 -0.014863588
-0.11421642 -0.018008394 -0.013747882
-0.10536992 -0.017948451 -0.014611838
-0.094196975 -0.017958567 -0.014466049
-0.085207559 -0.018018886 -0.013596659
-0.07437335 -0.017894214 -0.015393582
-0.065024517 -0.017932175 -0.014846439
-0.054616977 -0.017917763 -0.015054156
-0.046164453 -0.017798742 -0.016769588
-0.035855573 -0.017851714 -0.016006155
-0.025609516 -0.017887237 -0.015494114
-0.015038785 -0.017940743 -0.01472295
-0.0058807353 -0.017830109 -0.016317509
0.0042284736 -0.017950473 -0.014582708
0.015090424 -0.01795025 -0.014585937
0.026230203 -0.017938541 -0.014754679
0.035458017 -0.01788393 -0.015541792
0.044467814 -0.017914791 -0.015096982
0.055210143 -0.017869191 -0.015754186
0.064571291 -0.017878572 -0.015619015
0.07686948 -0.017993703 -0.013959623
0.086606547 -0.017958634 -0.014465091
0.095163561 -0.017937845 -0.014764689
0.10512786 -0.017943544 -0.014682583
0.11513217 -0.01791293 -0.015123819
0.12443183 -0.017892776 -0.015414318
0.13429689 -0.017901564 -0.015287626
0.14411788 -0.017887682 -0.015487687
0.1547268 -0.017908262 -0.015191099
0.16526349 -0.01794186 -0.014706849
0.1764193 -0.01790821 -0.015191874
0.1846121 -0.018056434 -0.013055503
0.19441991 -0.017891236 -0.015436516
0.20453815 -0.01799372 -0.013959439
0.21476254 -0.017989805 -0.014015839
0.22661431 -0.017943483 -0.014683482
0.2357102 -0.017877482 -0.015634706
0.24420322 -0.017862618 -0.015848938
0.25453302 -0.01795776 -0.014477707
0.26529896 -0.017966965 -0.014345021
0.27533701 -0.017911844 -0.015139466
0.28391767 -0.017890524 -0.015446762
0.29450032 -0.017865034 -0.015814167
0.30629548 -0.017964156 -0.014710189
0.31550872 -0.018226704 -0.01490799
0.32485002 -0.017844655 -0.01610788
0.33602199 -0.017735204 -0.015681844
0.34402975 -0.014937695 -0.015101799
0.35536611 -0.013549925 -0.016316522
0.36477226 -0.015359893 -0.015952302
0.37545788 -0.015116625 -0.015952302
0.38565519 -0.015830746 -0.015883727
0.3957749 -0.015590693 -0.015680294
0.40447509 -0.013006698 -0.015311764
0.41138062 -0.010751327 -0.013422474
-0.43434334 -0.0010545207 -0.01479104
-0.42523807 -0.0040396312 -0.01491834
-0.41327965 -0.0052553653 -0.0165483
-0.4044272 -0.0039952998 -0.015952302
-0.39491063 -0.0053200726 -0.015952302
-0.38490495 -0.004062518 -0.015853956
-0.37544638 -0.0033689069 -0.015847597
-0.36484277 -0.0065947045 -0.015329116
-0.3575418 -0.0092201605 -0.016710427
0.35761791 -0.009319352 -0.014283871
0.36435634 -0.0068477313 -0.015348479
0.37469584 -0.0038762027 -0.015866525
0.3846232 -0.0049280873 -0.016092623
0.39467418 -0.0059340061 -0.0159523
0.40406072 -0.0054284013 -0.015952298
0.41581354 -0.0067193289 -0.01564231
0.42444137 -0.0045102509 -0.014853704
0.43334487 -0.001694756 -0.015711617
-0.46118385 0.0094759967 -0.015302286
-0.45447767 0.0069790883 -0.014577456
-0.4441742 0.0045246314 -0.014629272
-0.43653885 0.0036473754 -0.016273396
-0.4239116 0.0041000331 -0.015952302
-0.41496092 0.0050712628 -0.015952297
-0.4047479 0.0062586102 -0.015027727
-0.39494401 0.0043377252 -0.015569236
-0.38505015 0.0015265499 -0.01515351
0.38491377 0.0014805796 -0.015697358
0.39457828 0.0043570977 -0.014732013
0.40405482 0.006908902 -0.015222604
0.41583681 0.004732043 -0.015952302
0.42461047 0.0052563953 -0.015952302
0.43664169 0.0044560246 -0.01579793
0.44483653 0.0043671769 -0.015295594
0.45517787 0.0074465689 -0.015474785
0.46150571 0.0098554846 -0.019248508
-0.48153886 0.018462513 -0.014231442
-0.47623888 0.01591628 -0.014906056
-0.46665135 0.013312973 -0.016185291
-0.45592287 0.014521995 -0.015952302
-0.44516528 0.016363895 -0.0159523
-0.43410039 0.015746687 -0.015674835
-0.42521423 0.015921455 -0.015563536
-0.41494489 0.013277302 -0.015021195
-0.40809995 0.010908303 -0.014214346
0.40741614 0.010697029 -0.015233364
0.41483799 0.012781791 -0.015079211
0.42500749 0.015804972 -0.015918059
0.43443039 0.014994785 -0.015762283
0.44401434 0.014505377 -0.015952302
0.45384669 0.014536067 -0.015952302
0.46601871 0.013674505 -0.015710538
0.47501698 0.015573584 -0.014855339
0.48180592 0.017983643 -0.015520141
-0.48156276 0.024665436 -0.01419998
-0.47636083 0.024708712 -0.015320045
-0.46497044 0.02564133 -0.015952302
-0.45406428 0.025893338 -0.015187234
-0.44605991 0.024832984 -0.015524219
-0.4358702 0.021776555 -0.015003386
0.43648693 0.021832304 -0.015168605
0.4443894 0.024632303 -0.015489953
0.45493543 0.026613675 -0.015478979
0.46381167 0.024833111 -0.0159523
0.47667933 0.024943838 -0.015504832
0.48114422 0.024591539 -0.014025345
-0.48179954 0.033689182 -0.01493954
-0.47496215 0.035497528 -0.014842012
-0.46552753 0.033339683 -0.013874449
-0.45761979 0.03086878 -0.016477797
0.45742089 0.030987848 -0.01911791
0.46537676 0.033293538 -0.015674805
0.47414351 0.035433915 -0.014895857
0.48163572 0.032397095 -0.014679361
-0.47323239 0.040169802 -0.016400704
0.47237882 0.040304344 -0.014004837
-0.33141214 -0.040331334 -0.0011540201
-0.32713503 -0.040168229 -0.0035792941
-0.3157216 -0.040192749 -0.0033037425
-0.30162239 -0.040369235 -0.0013204379
-0.29522806 -0.040258832 -0.0025610907
-0.28367949 -0.040271942 -0.0024137862
-0.27531609 -0.040190708 -0.0033266433
-0.26583552 -0.040198188 -0.0032425763
-0.25457671 -0.040265873 -0.0024819691
-0.24495344 -0.04025368 -0.0026189822
-0.23529418 -0.040339801 -0.0016512029
-0.2244866 -0.040216949 -0.0030317768
-0.21496475 -0.040267549 -0.0024631766
-0.20505334 -0.040254336 -0.002611615
-0.19683111 -0.040235084 -0.0028280017
-0.18497594 -0.040169049 -0.0035700484
-0.17521447 -0.0402744 -0.0023861153
-0.16517811 -0.040255744 -0.002595803
-0.15288475 -0.040243659 -0.0027316273
-0.14685835 -0.040227871 -0.0029089979
-0.13487792 -0.040274739 -0.0023823441
-0.12461576 -0.040309351 -0.0019934364
-0.11362941 -0.040255845 -0.0025946943
-0.10581302 -0.040193271 -0.0032978833
-0.097006693 -0.040168952 -0.0035711422
-0.085477248 -0.040205792 -0.0031571896
-0.075522795 -0.040231388 -0.0028695273
-0.062466543 -0.040118951 -0.0041329977
-0.051885713 -0.04015271 -0.0037536738
-0.045331385 -0.040221229 -0.0029837096
-0.033932578 -0.040239178 -0.0027819681
-0.024633626 -0.040317975 -0.0018965007
-0.016095163 -0.040252294 -0.0026346152
-0.0049835891 -0.040170286 -0.0035561852
0.0058258264 -0.040286221 -0.0022533229
0.014618397 -0.040334634 -0.0017092235
0.024734264 -0.040265389 -0.0024874089
0.036354356 -0.040255789 -0.0025952829
0.046170417 -0.040337589 -0.0016760745
0.055323243 -0.04025327 -0.0026236239
0.065122679 -0.0402596 -0.0025524327
0.076166451 -0.040296238 -0.0021407765
0.083139703 -0.040228449 -0.0029025753
0.094762698 -0.040341429 -0.0016329134
0.10377257 -0.040235586 -0.0028223419
0.11341719 -0.040308651 -0.0020012627
0.12300899 -0.040295221 -0.0021522075
0.13438031 -0.040244333 -0.0027240776
0.14612125 -0.040175401 -0.0034986958
0.15316954 -0.040274996 -0.0023794209
0.16429898 -0.040255539 -0.0025981127
0.17762244 -0.040278759 -0.0023371493
0.18467525 -0.040204458 -0.003172114
0.19498077 -0.040304955 -0.0020428377
0.20447601 -0.040160555 -0.0036655662
0.21577948 -0.040252872 -0.0026280663
0.22576347 -0.040274929 -0.0023802142
0.23509596 -0.040348854 -0.0015494616
0.24741741 -0.040295266 -0.0021516525
0.25319591 -0.040169209 -0.0035682612
0.26425967 -0.040236104 -0.0028165202
0.27618411 -0.040157977 -0.0036944633
0.28362545 -0.040168148 -0.0035801714
0.2944347 -0.040325366 -0.0018134328
0.30568749 -0.040196892 -0.0032571375
0.3162396 -0.040203985 -0.0031775178
0.32454804 -0.04029252 -0.002182534
0.33255255 -0.040201761 -0.0032024509
-0.36177221 -0.031273779 -0.0061742822
-0.35518155 -0.034112122 -0.0040630125
-0.34603643 -0.036245547 -0.0048034885
-0.33424199 -0.036892291 -0.0057695098
-0.32650906 -0.035836831 -0.0059416383
-0.31545112 -0.039756533 -0.0082057789
-0.30315492 -0.039793544 -0.0077898903
-0.29393613 -0.039727617 -0.0085307118
-0.28402907 -0.039813418 -0.0075665703
-0.27433825 -0.039915767 -0.0064163804
-0.26424953 -0.039736953 -0.0084258746
-0.25500458 -0.039887499 -0.0067340438
-0.24518861 -0.03980827 -0.0076243808
-0.23497419 -0.039756447 -0.0082067354
-0.22594196 -0.039786547 -0.007868465
-0.21603946 -0.039804056 -0.0076717041
-0.20520797 -0.039778385 -0.0079602357
-0.19500758 -0.039783768 -0.0078997472
-0.1853895 -0.039846197 -0.0071981787
-0.1745639 -0.039824702 -0.0074396953
-0.16550675 -0.039768867 -0.0080672456
-0.15526108 -0.039729226 -0.0085126003
-0.14513971 -0.039789774 -0.007832231
-0.13541363 -0.0397208 -0.0086073428
-0.12539223 -0.039812323 -0.00757886
-0.11487397 -0.039853759 -0.0071132206
-0.10404562 -0.039817426 -0.0075215148
-0.095127165 -0.039673891 -0.0091345329
-0.074801311 -0.039876278 -0.0068601184
-0.064434282 -0.039790414 -0.0078250347
-0.054645721 -0.03978698 -0.0078636492
-0.04488055 -0.039729476 -0.008509838
-0.035289694 -0.039712008 -0.0087061562
-0.025993928 -0.039746735 -0.0083158799
-0.01671748 -0.039893113 -0.0066709328
-0.0042026849 -0.039729588 -0.0085086245
0.0063593592 -0.039775006 -0.007998188
0.015098691 -0.039741043 -0.0083799111
0.02481937 -0.039722268 -0.0085908752
0.03347256 -0.039821643 -0.0074741147
0.045251716 -0.039809011 -0.0076160529
0.056734305 -0.039796021 -0.0077620475
0.064717665 -0.039796021 -0.0077620735
0.075504445 -0.039901473 -0.0065769888
0.086027429 -0.039741565 -0.0083740447
0.092559442 -0.039784729 -0.0078889448
0.10817757 -0.039701276 -0.0088267131
0.11443254 -0.039895888 -0.00663976
0.12737426 -0.039698247 -0.0088607641
0.13599901 -0.03980612 -0.0076485123
0.14447802 -0.039899006 -0.0066046622
0.15503947 -0.03982747 -0.0074086362
0.16421865 -0.03984914 -0.0071651228
0.17464723 -0.039799124 -0.007727175
0.18324423 -0.039770372 -0.0080502639
0.19718051 -0.039881945 -0.0067964573
0.20352255 -0.039756872 -0.0082019893
0.21459827 -0.039836757 -0.0073042708
0.22511867 -0.039773069 -0.0080199502
0.2353508 -0.0399023 -0.0065676896
0.24574569 -0.039812021 -0.0075822389
0.25623444 -0.039727792 -0.008528796
0.26611364 -0.039810691 -0.0075971675
0.27625641 -0.039880183 -0.0068162666
0.28442201 -0.039806619 -0.0076429769
0.29699266 -0.039788861 -0.0078425072
0.30606985 -0.039859686 -0.0070466325
0.31604338 -0.039808553 -0.0076211863
0.32610965 -0.036253914 -0.0062870709
0.33360487 -0.03796877 -0.0047802138
0.34518573 -0.035970088 -0.0049320245
0.35489893 -0.034069024 -0.0058356221
0.36261731 -0.031098105 -0.004622465
-0.38238654 -0.023268303 -0.0036732666
-0.37497151 -0.026138581 -0.0046701529
-0.36814782 -0.028902985 -0.0043031536
-0.34086287 -0.02340777 -0.0052634543
-0.33433026 -0.023705747 -0.0044766101
-0.32086879 -0.029610278 -0.00086462707
-0.31585699 -0.024496276 -0.0059628394
0.31572697 -0.023996962 -0.0057960604
0.32122692 -0.028635457 -0.0076380563
0.33336118 -0.02464327 -0.0044234153
0.34177315 -0.025597839 -0.0055970699
0.36664209 -0.029556617 -0.0039094845
0.37525064 -0.026008224 -0.0050081108
0.38520694 -0.022029985 -0.0049663018
0.390306 -0.0201704 -0.0030884978
-0.41303369 -0.010915212 -0.0046666102
-0.40430784 -0.014472996 -0.0039599086
-0.39468768 -0.018283332 -0.0043505337
-0.35427588 -0.011321532 -0.0048249997
-0.34457302 -0.015132131 -0.0057654902
-0.33601591 -0.01807229 -0.0047309222
-0.32534966 -0.018589072 -0.0053786039
-0.3159472 -0.018557256 -0.005837162
-0.30524257 -0.018690802 -0.0039123632
-0.29447845 -0.01850573 -0.006579787
-0.28480163 -0.018614423 -0.0050131814
-0.274481 -0.01860352 -0.0051703388
-0.2648612 -0.018572338 -0.0056197611
-0.25622743 -0.018666621 -0.0042608893
-0.24514116 -0.018628705 -0.0048073721
-0.23521352 -0.01859534 -0.0052882442
-0.22438598 -0.018597817 -0.0052525192
-0.21549048 -0.018649122 -0.0045130798
-0.20469692 -0.018718334 -0.0035155518
-0.19441865 -0.018534508 -0.0061650281
-0.18450695 -0.018595602 -0.0052844412
-0.17558953 -0.018628091 -0.0048162164
-0.16443415 -0.018622678 -0.0048942114
-0.15481822 -0.018554712 -0.0058738412
-0.14415148 -0.018592641 -0.0053271474
-0.13443437 -0.018614553 -0.0050113369
-0.12543152 -0.01866021 -0.0043532858
-0.11509056 -0.018529728 -0.0062339292
-0.10543683 -0.018584933 -0.0054382347
-0.094117515 -0.018624682 -0.0048653274
-0.084010229 -0.018585248 -0.0054337047
-0.075478919 -0.018708916 -0.0036512709
-0.064909428 -0.018571487 -0.0056320457
-0.055280939 -0.018532859 -0.0061887694
-0.044852596 -0.018680327 -0.0040633394
-0.035400406 -0.018546503 -0.0059921704
-0.024325309 -0.018589037 -0.0053791245
-0.01482843 -0.018656928 -0.0044005783
-0.0053655864 -0.018610148 -0.0050748056
0.0039720298 -0.018712467 -0.0036001166
0.015138082 -0.018627916 -0.0048187431
0.025902061 -0.018603446 -0.0051714177
0.035547309 -0.018656358 -0.0044087945
0.045894336 -0.018574096 -0.005594417
0.055799335 -0.018599331 -0.0052307243
0.064295039 -0.018589785 -0.0053683431
0.075151458 -0.018598126 -0.00524808
0.085368007 -0.018624082 -0.0048739533
0.094050296 -0.018547857 -0.005972656
0.10557532 -0.018622492 -0.0048969239
0.11539129 -0.018509407 -0.0065267971
0.12403701 -0.018599115 -0.0052338466
0.13580339 -0.018616147 -0.0049883546
0.14558688 -0.018471528 -0.0070727598
0.15536992 -0.018667551 -0.004247481
0.16474482 -0.018604793 -0.0051520211
0.17456587 -0.018672779 -0.0041721277
0.18781886 -0.018560702 -0.0057874983
0.19446534 -0.018436972 -0.0075707952
0.20514958 -0.018693734 -0.0038700653
0.21501622 -0.018683357 -0.0040196758
0.22483815 -0.018590678 -0.0053554373
0.23449335 -0.018681483 -0.0040466716
0.2454596 -0.018686263 -0.0039777975
0.25494203 -0.018635087 -0.0047153877
0.26352423 -0.018588863 -0.0053816028
0.27494454 -0.018681845 -0.0040414566
0.28520718 -0.018578101 -0.0055367099
0.29569227 -0.018643638 -0.0045921379
0.30577484 -0.01861858 -0.0049532815
0.31485316 -0.018670734 -0.0058499184
0.32490864 -0.018587368 -0.0054031727
0.33572671 -0.018324364 -0.0047876434
0.34420863 -0.015354439 -0.004924621
0.35292271 -0.011775567 -0.0061758203
0.39588618 -0.017675543 -0.0058335639
0.40489534 -0.014136294 -0.0051637432
0.41275668 -0.011080826 -0.0042362432
-0.44048998 -0.00021826196 -0.0016935223
-0.4358075 -0.0018328985 -0.0043896022
-0.42565948 -0.0059379875 -0.0039074738
-0.41779056 -0.00882228 -0.0066538262
-0.38120329 -0.00041782565 -0.0066111139
-0.37554222 -0.0028332958 -0.0045878775
-0.36550215 -0.0068871784 -0.0040780311
-0.35877487 -0.0095518753 -0.0044261757
0.35800782 -0.0096735219 -0.0070879175
0.36541721 -0.0068238429 -0.0055640433
0.37617344 -0.0025196292 -0.0055906051
0.38133234 -0.00058506138 -0.0038663838
0.41738489 -0.0091044493 -0.0055436995
0.42510039 -0.0059222984 -0.0065479469
0.43661651 -0.0014698716 -0.0049432167
-0.4629387 0.0090772919 -0.0050001726
-0.45420057 0.0057260436 -0.0065012979
-0.4463912 0.0025495891 -0.0059486418
-0.40371653 0.0084626898 -0.0049499972
-0.39561662 0.0052651139 -0.0055143842
-0.38661042 0.0016463943 -0.0052935565
0.38743708 0.0018907452 -0.0043223561
0.39479119 0.0050185057 -0.0068162521
0.40313253 0.0082704406 -0.0056871711
0.44328976 0.0011637459 -0.0045727617
0.45479789 0.0057943626 -0.0048619672
0.46295968 0.008975694 -0.0039937515
-0.48257852 0.017316453 -0.0057475059
-0.4754838 0.014938405 -0.0043118368
-0.46838245 0.011400627 -0.0065245936
-0.43156978 0.019621661 -0.0051973909
-0.42538962 0.017152727 -0.0052368711
-0.41458768 0.012865763 -0.0056851036
-0.40878341 0.010704695 -0.0078318967
0.40852532 0.010388501 -0.005166423
0.4154385 0.013156837 -0.0052101864
0.42478645 0.016918244 -0.0055109798
0.43133181 0.019332809 -0.0027891698
0.46773893 0.011147595 -0.0067120837
0.47485995 0.013790163 -0.0045650015
0.48307848 0.017466053 -0.0040671155
-0.48213801 0.024385341 -0.004010547
-0.47715268 0.025623264 -0.0041347444
-0.45284292 0.02809868 -0.004774292
-0.44472882 0.024869723 -0.0049943062
-0.43676692 0.021690195 -0.0050611715
0.43562889 0.021208126 -0.0048850989
0.44526803 0.025034927 -0.004502635
0.45363444 0.02833469 -0.0038794933
0.47774974 0.025244534 -0.005504129
0.48158005 0.024694553 -0.0051455526
-0.48241901 0.033821747 -0.0048559285
-0.47568929 0.034935288 -0.0052705314
-0.46500042 0.032946464 -0.0045756353
-0.45846078 0.030430622 -0.0059110024
0.45865986 0.030492565 -0.0058583277
0.46496508 0.03287733 -0.0040227496
0.47526598 0.035419662 -0.0049009793
0.48224893 0.033404998 -0.0059697283
0.47285736 0.040132403 -0.0066693327
-0.33195317 -0.04020061 0.0025068736
-0.32448563 -0.040218048 0.0030208135
-0.31646818 -0.040305894 0.0020336625
-0.30528185 -0.040139023 0.003908827
-0.29590976 -0.040243331 0.0027367126
-0.28446415 -0.040295694 0.0021482767
-0.27615151 -0.040255282 0.0026023877
-0.26407227 -0.040289428 0.0022186991
-0.25529918 -0.040320322 0.0018715584
-0.24253166 -0.040293772 0.0021698703
-0.23343539 -0.040265117 0.0024918441
-0.22456375 -0.040251013 0.0026503981
-0.21387729 -0.040169362 0.0035678819
-0.20252831 -0.040328778 0.0017764973
-0.1960635 -0.040304542 0.0020488561
-0.18453608 -0.040286638 0.002250059
-0.17379962 -0.040208999 0.003122522
-0.16611442 -0.040224016 0.0029537429
-0.15269408 -0.040215407 0.0030504593
-0.14439136 -0.04027966 0.002328492
-0.13656352 -0.040297493 0.002128073
-0.12594576 -0.040172029 0.0035379494
-0.11477935 -0.040250052 0.0026611732
-0.10468681 -0.040190622 0.0033290032
-0.09363246 -0.040285129 0.0022669907
-0.084427543 -0.040292796 0.0021808494
-0.074832998 -0.040245898 0.0027078518
-0.067225032 -0.040341761 0.0016306067
-0.056214739 -0.040236536 0.0028130247
-0.045283884 -0.040208839 0.0031242759
-0.035523001 -0.040245663 0.0027104889
-0.024179973 -0.040248986 0.0026731398
-0.016347142 -0.040257256 0.002580208
-0.0063284431 -0.040252574 0.0026327854
0.0045152814 -0.040204789 0.0031697806
0.015750384 -0.040177755 0.0034735822
0.024485219 -0.040309694 0.0019909618
0.035247166 -0.040140882 0.0038879486
0.043452661 -0.040150333 0.0037817275
0.05363689 -0.040310383 0.0019831862
0.064597398 -0.040221471 0.0029823449
0.076895453 -0.040232893 0.0028540122
0.083230488 -0.040310778 0.0019787557
0.093786612 -0.040256098 0.0025932465
0.10731314 -0.040236868 0.0028093373
0.11544545 -0.040203281 0.0031867907
0.12323973 -0.040170565 0.0035543609
0.13547753 -0.040213823 0.0030683214
0.14610575 -0.040285554 0.0022622191
0.15452607 -0.040266171 0.0024800042
0.16508931 -0.04025339 0.0026237005
0.17444891 -0.040218923 0.0030109338
0.18622556 -0.040186696 0.0033731286
0.19442163 -0.040301085 0.0020877081
0.20502694 -0.040307429 0.0020164656
0.21593854 -0.040281132 0.0023118779
0.22471894 -0.040181894 0.0034270696
0.23512889 -0.040207487 0.0031394588
0.24314544 -0.040335234 0.0017039489
0.25582188 -0.040221833 0.0029782823
0.2634905 -0.040176895 0.003483278
0.27484852 -0.040228501 0.0029034107
0.28673491 -0.040316001 0.0019200721
0.295647 -0.040268105 0.0024583158
0.30529845 -0.040221896 0.0029775684
0.31603873 -0.040240668 0.0027666423
0.32418361 -0.040235244 0.002827595
0.33301294 -0.04016868 0.0032118279
-0.36188614 -0.031262282 0.005819038
-0.35483828 -0.034107529 0.0055445707
-0.34477004 -0.036772475 0.0038485168
-0.33381248 -0.037150461 0.0050678072
-0.32515275 -0.034996975 0.005139885
-0.31510034 -0.039804313 0.0076700826
-0.30407751 -0.03975882 0.0081813261
-0.29331511 -0.039727457 0.0085337739
-0.28343061 -0.039792858 0.0077988356
-0.27506822 -0.03979218 0.0078064394
-0.26307276 -0.039732512 0.0084769772
-0.25605825 -0.039834857 0.0073268474
-0.24585871 -0.039768122 0.0080768028
-0.23517708 -0.039726615 0.0085432148
-0.22452168 -0.039771795 0.0080354773
-0.21468686 -0.039760012 0.0081679504
-0.20598412 -0.039787047 0.0078640869
-0.19405751 -0.039809067 0.0076166675
-0.18455547 -0.039758097 0.0081894165
-0.1759955 -0.039773326 0.0080182543
-0.16639413 -0.039837174 0.0073008351
-0.15245493 -0.039836753 0.0073056063
-0.14632551 -0.039829377 0.00738844
-0.13381028 -0.039769419 0.0080622546
-0.12325303 -0.0398384 0.0072870245
-0.11504403 -0.03977783 0.0079677124
-0.10363589 -0.039856188 0.0070871599
-0.096172288 -0.039870013 0.0069318181
-0.085537896 -0.03978911 0.0078409398
-0.076112181 -0.039787922 0.0078542782
-0.064588845 -0.039709356 0.0087371198
-0.053376634 -0.039848123 0.0071777916
-0.044139933 -0.03980216 0.0076942584
-0.033290975 -0.039796665 0.0077560758
-0.025851648 -0.039833378 0.007343486
-0.015671737 -0.039881356 0.0068043196
-0.0050225151 -0.039800353 0.0077145626
0.0059976541 -0.039673258 0.0091427909
0.01446273 -0.039791577 0.0078132432
0.025311096 -0.039861422 0.0070283329
0.035645653 -0.039731026 0.0084936628
0.044236664 -0.039803028 0.0076845549
0.05436651 -0.039817553 0.0075213346
0.065255128 -0.03976173 0.0081486208
0.074282527 -0.039812528 0.0075777709
0.085213326 -0.039834648 0.0073292279
0.093143664 -0.039828219 0.0074014529
0.10580736 -0.039792888 0.0077984813
0.1151095 -0.039714884 0.0086750481
0.12488792 -0.039799195 0.0077275895
0.13616654 -0.039706971 0.0087639512
0.14462546 -0.039814062 0.0075605493
0.15495878 -0.039787244 0.0078619337
0.16495332 -0.039761472 0.0081515294
0.17540826 -0.039882064 0.0067963484
0.18381289 -0.039783753 0.0079011247
0.19381112 -0.039770529 0.0080497442
0.20481271 -0.039750792 0.008271575
0.21364899 -0.03982769 0.0074074077
0.22554226 -0.039815389 0.0075456309
0.23309325 -0.039766606 0.0080937892
0.24542989 -0.039914679 0.0064298855
0.25486287 -0.039757181 0.0081997933
0.26362357 -0.039802369 0.0076919426
0.27452993 -0.039757393 0.0081973514
0.2868652 -0.039815359 0.0075459634
0.29485467 -0.039808083 0.007627693
0.30356446 -0.039745178 0.0083345892
0.31607297 -0.039757565 0.0081954263
0.32573822 -0.035866562 0.0055196383
0.33381215 -0.036992721 0.00438475
0.34479859 -0.035119127 0.0046627815
0.35415572 -0.034507394 0.0043636649
0.36220884 -0.031229768 0.0049546007
-0.38379633 -0.022583254 0.0049380776
-0.37401146 -0.026504258 0.0048615984
-0.36732715 -0.02908062 0.0058755577
-0.34191999 -0.026354417 0.0040098783
-0.3343344 -0.025371689 0.0032543784
-0.3211574 -0.029410627 0.0061138063
-0.31714994 -0.025732612 0.0056755915
0.31603584 -0.024278747 0.0055972147
0.32131365 -0.029023694 0.004124274
0.33529431 -0.023881139 0.0024690123
0.34160623 -0.025658561 0.0048895511
0.36742797 -0.02912287 0.0051571908
0.37532166 -0.026029378 0.0044916314
0.38454491 -0.022183726 0.0061264108
-0.41259554 -0.011013568 0.0054688663
-0.40400639 -0.014494907 0.0049892967
-0.39537752 -0.017901452 0.0054562804
-0.35375503 -0.011550229 0.0045541818
-0.34635136 -0.014550442 0.004032888
-0.33525762 -0.018559225 0.0038461334
-0.32476369 -0.018631576 0.0047673229
-0.31590781 -0.01865123 0.0057809958
-0.30535191 -0.018714458 0.0040946407
-0.29473889 -0.018599818 0.0052250149
-0.28483665 -0.018556656 0.0058470736
-0.27458721 -0.018673167 0.0041678613
-0.26483127 -0.018695323 0.0038485508
-0.25452334 -0.018666541 0.0042633573
-0.24455759 -0.018581264 0.0054924204
-0.2355044 -0.018589826 0.005369056
-0.22624075 -0.018582599 0.0054731928
-0.21433859 -0.018588657 0.0053858939
-0.20539621 -0.018514497 0.0064546773
-0.19480564 -0.018694265 0.0038637603
-0.18462008 -0.01858383 0.0054554385
-0.17551377 -0.018599872 0.0052242572
-0.16508193 -0.018645475 0.0045670001
-0.15427868 -0.018658333 0.0043816837
-0.14489697 -0.018503709 0.0066102203
-0.13426861 -0.018596856 0.0052677211
-0.12496546 -0.018609809 0.0050810287
-0.11647525 -0.018703643 0.0037286198
-0.10617631 -0.018527512 0.0062671509
-0.096894912 -0.018747775 0.0030925786
-0.084955327 -0.018541174 0.0060702045
-0.074400052 -0.018569885 0.0056564249
-0.065985233 -0.018635653 0.0047085611
-0.055555608 -0.018557442 0.0058357618
-0.044319969 -0.018598022 0.0052509005
-0.033987004 -0.018590162 0.0053641996
-0.024312407 -0.018619798 0.0049370965
-0.014089949 -0.018614102 0.0050191651
-0.0048182234 -0.018534871 0.0061610509
0.0048755314 -0.018562468 0.0057633664
0.014294811 -0.018567167 0.0056955996
0.025241274 -0.018634643 0.0047231107
0.034344781 -0.018551888 0.0059158462
0.046979029 -0.018575596 0.0055741151
0.055460602 -0.018567521 0.0056904834
0.065047085 -0.018704841 0.0037113728
0.074211739 -0.018581402 0.0054904604
0.085261814 -0.018626474 0.0048408159
0.094660364 -0.018660856 0.0043452964
0.1049061 -0.018627146 0.00483116
0.11546057 -0.018594809 0.0052972138
0.12525968 -0.018558109 0.0058261366
0.1357564 -0.018621055 0.0049189022
0.14534248 -0.018629678 0.0047946684
0.15451357 -0.018549735 0.0059467996
0.1675134 -0.018537588 0.0061219158
0.17450334 -0.018673735 0.0041597108
0.18363027 -0.018664617 0.0042911093
0.19490203 -0.018559242 0.0058098459
0.20618665 -0.018595589 0.0052859834
0.21471974 -0.018637037 0.0046885908
0.22522469 -0.018671377 0.0041937004
0.2328953 -0.018640896 0.0046329792
0.24426232 -0.01864663 0.0045503192
0.2551125 -0.018530259 0.0062275496
0.26428455 -0.018686529 0.0039753155
0.2743153 -0.018727047 0.0033913576
0.28555858 -0.01866487 0.004287445
0.29452267 -0.018633805 0.0047351844
0.30632624 -0.018591924 0.0054523093
0.3147541 -0.018626202 0.0055060675
0.32459202 -0.018671662 0.0041895881
0.33614916 -0.018378915 0.004942338
0.34450606 -0.0152057 0.0053243954
0.35383147 -0.011428209 0.0059616482
0.38988355 -0.019915177 0.0075176195
0.39467353 -0.018273501 0.0046553137
0.40544772 -0.013840915 0.0059417803
0.41135505 -0.011638043 0.0042725275
-0.43514231 -0.0021375355 0.0039867782
-0.42442364 -0.0062911906 0.0053798277
-0.41798535 -0.0088382643 0.0056727575
-0.38137874 -0.00043457825 0.0054500313
-0.37620059 -0.0025446475 0.0049288496
-0.3648141 -0.0071678064 0.0040071774
-0.35847831 -0.0095902793 0.0055010444
0.3592388 -0.0091395006 0.007647031
0.36508226 -0.0070849629 0.0038633086
0.37512168 -0.0030052238 0.0047238432
0.38171244 -0.00043056346 0.0039012539
0.41707614 -0.0091019329 0.0068599875
0.42533293 -0.0059705875 0.0050733732
0.43504801 -0.002058526 0.0053484142
0.44033396 -0.0003001967 0.001632794
-0.46277612 0.0089190369 0.0040275222
-0.45450339 0.0056871781 0.0048308005
-0.44467506 0.0018364991 0.0056697074
-0.43947178 9.6026808e-05 0.0092261638
-0.40417296 0.0086205937 0.0046225563
-0.39584711 0.0052662189 0.0042975727
-0.3869932 0.00167524 0.0036329119
0.38526365 0.0010751055 0.0050429283
0.39439902 0.0047289571 0.0050425641
0.40404564 0.008552555 0.0045771478
0.43984762 0.00027629454 0.0096818851
0.44520143 0.0019770693 0.0050823581
0.4554452 0.0059981006 0.0042868797
0.46311709 0.0090449862 0.0040611667
-0.48242781 0.017486457 0.0064990828
-0.47489357 0.014129585 0.0055929269
-0.46711329 0.010769723 0.0052380292
-0.43084374 0.019226816 0.0038019165
-0.4250249 0.017030509 0.0055555073
-0.41393182 0.012516874 0.0045290673
-0.40892282 0.010626825 0.0060464265
0.4087255 0.010250703 0.0022524628
0.41533747 0.013102975 0.0050321687
0.42594808 0.017480621 0.0068215337
0.43125311 0.01957087 0.0063985419
0.46745756 0.011073831 0.0071176016
0.47492173 0.014519753 0.003966745
0.48193014 0.016693057 0.0045527359
-0.48215127 0.024580959 0.0045586298
-0.47763839 0.023872754 0.0052834786
-0.45412791 0.028634399 0.0050670793
-0.44504812 0.024953023 0.0044019562
-0.43616334 0.021451229 0.0050960872
0.4369489 0.021742105 0.0049675275
0.44556138 0.025173783 0.0047930726
0.45306036 0.028113548 0.0039947326
0.47751912 0.023881864 0.0049727964
0.4823457 0.024843575 0.0040214765
-0.48245686 0.033773839 0.0061827656
-0.4751367 0.036085274 0.0055861869
-0.46506253 0.032968592 0.0045403368
-0.45815614 0.030392718 0.0070353714
0.4581148 0.030327251 0.0065651825
0.46476084 0.032781594 0.0038364937
0.47519106 0.035733357 0.0047344286
0.48215047 0.033340033 0.0052123857
0.47280243 0.040201768 0.0078613739
-0.36174631 -0.030758876 0.011656505
-0.35549548 -0.032543629 0.016127262
-0.34516639 -0.035020426 0.014041549
-0.33380887 -0.036650289 0.015127421
-0.3263512 -0.035949964 0.0146299
-0.31355023 -0.039219126 0.014246044
-0.30513719 -0.03919062 0.014566372
-0.2960327 -0.039105978 0.015517544
-0.28406399 -0.039243829 0.013968435
-0.275895 -0.039136074 0.015179318
-0.26417932 -0.039162617 0.014881079
-0.25424147 -0.039153069 0.01498838
-0.24472782 -0.039268088 0.013695903
-0.2347599 -0.03915523 0.014964045
-0.22382204 -0.039165758 0.014845756
-0.21547295 -0.039087787 0.015721928
-0.20344788 -0.03912491 0.01530478
-0.19488561 -0.039125253 0.015300891
-0.18505327 -0.039032679 0.016341187
-0.17461497 -0.0392083 0.014367661
-0.16407421 -0.039146267 0.015064761
-0.15272065 -0.0391283 0.015266689
-0.14485459 -0.039174095 0.01475213
-0.1351292 -0.039096165 0.015627824
-0.12520614 -0.039150242 0.015020094
-0.11550916 -0.039175082 0.01474104
-0.10532679 -0.039292213 0.013424767
-0.094633989 -0.039143123 0.015100104
-0.086294651 -0.039198797 0.014474434
-0.07551033 -0.039205316 0.014401237
-0.064564593 -0.039085906 0.015743107
-0.055480905 -0.039260253 0.01378391
-0.045686528 -0.039134331 0.015198934
-0.035435766 -0.039058559 0.016050413
-0.02597731 -0.039275829 0.013608848
-0.014770117 -0.039163008 0.014876666
-0.0055722059 -0.039140888 0.015125247
0.0049350001 -0.039172955 0.014764992
0.01425615 -0.039030872 0.016361479
0.023798136 -0.039214134 0.014302132
0.035566565 -0.039278474 0.013579124
0.045632996 -0.039249998 0.013899179
0.054056048 -0.039158285 0.014929731
0.065395325 -0.039157532 0.014938215
0.075507939 -0.039129622 0.015251829
0.084787793 -0.039158214 0.014930509
0.095823213 -0.039163344 0.014872836
0.10399612 -0.039038531 0.016275445
0.11390737 -0.039128326 0.015266416
0.12441042 -0.039160773 0.01490174
0.13588206 -0.039024651 0.016431417
0.14552838 -0.039167836 0.014822415
0.1554037 -0.039090652 0.015689738
0.1636444 -0.039203193 0.014425123
0.17613429 -0.039288323 0.013468445
0.18430521 -0.039207913 0.014372081
0.19464646 -0.039264631 0.013734725
0.20455159 -0.039076257 0.015851524
0.21419081 -0.039027888 0.016395045
0.2255021 -0.039218806 0.014249632
0.23425069 -0.039145347 0.015075106
0.24497779 -0.039192315 0.014547318
0.25650707 -0.039262354 0.013760196
0.26466581 -0.038980257 0.016930291
0.27491114 -0.039142191 0.015110551
0.28497142 -0.039150294 0.015019504
0.29671985 -0.039041188 0.016245566
0.30591801 -0.039220095 0.014235167
0.31455386 -0.039138261 0.01515479
0.32591507 -0.035027031 0.015206659
0.33401591 -0.037181694 0.015857741
0.34466916 -0.035289381 0.015404881
0.35487869 -0.032659303 0.015939163
0.36192909 -0.030383015 0.01435315
-0.38410389 -0.021361178 0.015093517
-0.37482524 -0.024555478 0.014141056
-0.36561728 -0.02674127 0.016184082
-0.35417399 -0.025459347 0.015952798
-0.34475103 -0.025583709 0.015480698
-0.33252704 -0.025304301 0.015222117
-0.32188213 -0.029480163 0.012876842
-0.31691721 -0.024480233 0.015216804
0.31603926 -0.02324382 0.014919464
0.32197365 -0.028507508 0.016100071
0.33345389 -0.023727328 0.015738172
0.34358642 -0.025047876 0.015504688
0.35417217 -0.025676837 0.015952798
0.36623344 -0.02623429 0.016272809
0.37467408 -0.02436919 0.015303045
0.38341147 -0.021704761 0.015766872
-0.4118607 -0.010552742 0.013347519
-0.4049736 -0.013200917 0.014217057
-0.39416847 -0.015900385 0.016084004
-0.38632905 -0.015253773 0.015871376
-0.37641194 -0.016054651 0.015952798
-0.36466861 -0.015023597 0.015952798
-0.3543348 -0.013884406 0.01605721
-0.34488741 -0.015089837 0.015558784
-0.33606657 -0.017783286 0.015467269
-0.32403833 -0.017910849 0.015154813
-0.31447434 -0.018199529 0.015465075
-0.30491856 -0.017980356 0.014426554
-0.29649317 -0.017999085 0.013883145
-0.28611571 -0.017868662 0.015762798
-0.27365199 -0.017841656 0.01615206
-0.26532027 -0.01792221 0.014991079
-0.25498337 -0.017920744 0.015012247
-0.24678569 -0.017849047 0.01604555
-0.23489214 -0.017931122 0.014862618
-0.22577675 -0.017904935 0.015240056
-0.21389374 -0.017954532 0.014525233
-0.20464149 -0.017905524 0.01523156
-0.19454464 -0.017909518 0.015174009
-0.18562907 -0.017891573 0.015432667
-0.17543983 -0.017862486 0.015851861
-0.16488791 -0.01789823 0.015336675
-0.15525199 -0.017877156 0.015640428
-0.14409877 -0.018019566 0.013587924
-0.13467717 -0.017926708 0.014926243
-0.12376045 -0.017867964 0.015772928
-0.11663911 -0.017815674 0.01652653
-0.10492884 -0.017820712 0.016453922
-0.094811574 -0.017812254 0.016575847
-0.084406897 -0.017873166 0.015697906
-0.075793311 -0.017910251 0.015163414
-0.064383611 -0.017901633 0.015287654
-0.054747805 -0.018009333 0.013735438
-0.045241673 -0.01784757 0.016066862
-0.034140952 -0.017923784 0.0149684
-0.025194561 -0.017940724 0.014724269
-0.014460924 -0.01790889 0.015183028
-0.0047905175 -0.017940404 0.014728887
0.0061443676 -0.017926203 0.01493353
0.015850302 -0.017944302 0.01467268
0.026041156 -0.017972205 0.01427048
0.035162661 -0.017836338 0.016228717
0.044409238 -0.017917138 0.015064189
0.055427887 -0.017962174 0.014415121
0.064663641 -0.01796321 0.014400178
0.074291244 -0.01791933 0.015032598
0.084112354 -0.017949572 0.014596725
0.095661402 -0.017932896 0.014837075
0.10519835 -0.018059788 0.013008247
0.11504283 -0.017949285 0.014600863
0.12641792 -0.017840603 0.016167242
0.1331284 -0.017909447 0.015175024
0.14532857 -0.017983491 0.014107887
0.15457241 -0.017903369 0.015262648
0.16501503 -0.017873896 0.015687402
0.17386587 -0.017873215 0.015697218
0.18650199 -0.017894113 0.015396032
0.19605678 -0.017970301 0.014297982
0.20569518 -0.017951908 0.014563059
0.21451499 -0.017955918 0.014505259
0.22466058 -0.01791849 0.01504464
0.23649937 -0.017961929 0.014418629
0.244776 -0.017888017 0.015483895
0.25480804 -0.017958276 0.014471262
0.26439086 -0.017886506 0.015505653
0.2747696 -0.017954336 0.014528064
0.28523523 -0.017922156 0.014991883
0.2944814 -0.017906183 0.015222039
0.30477294 -0.017889282 0.015466353
0.31470057 -0.018099172 0.01542974
0.32460222 -0.01787306 0.015699444
0.33565256 -0.017657777 0.014352192
0.34377539 -0.01594748 0.015005521
0.35413405 -0.013678023 0.015383936
0.36474735 -0.014153941 0.015952798
0.3755042 -0.014288046 0.015952798
0.385672 -0.016403252 0.01608132
0.39550671 -0.015438383 0.015100759
0.40405738 -0.012967839 0.015303431
0.41113323 -0.010668233 0.015323352
-0.43197495 -0.0023027821 0.01456439
-0.42440602 -0.0041701789 0.015983729
-0.41527408 -0.0060611987 0.01635023
-0.40449202 -0.003607288 0.015952798
-0.39549425 -0.0057651335 0.015952798
-0.38570881 -0.0052150497 0.015773606
-0.37495032 -0.0041678501 0.015347292
-0.36409405 -0.0069191013 0.014909211
-0.35771912 -0.0091717914 0.015163278
0.35787851 -0.0091900472 0.015245196
0.36575255 -0.0066885529 0.014989831
0.3750273 -0.0046307114 0.015805854
0.38362134 -0.0054917834 0.015909715
0.39365554 -0.0053286818 0.015952798
0.40529948 -0.0038925135 0.015952798
0.41516528 -0.0064059049 0.015901404
0.42462072 -0.0039461609 0.015172705
0.43316671 -0.0017536852 0.016385429
-0.46215928 0.0095000751 0.012668937
-0.45492226 0.0074564596 0.015547669
-0.44550401 0.0051684123 0.015941065
-0.43446973 0.0037815964 0.015952798
-0.42517045 0.0055234767 0.015952798
-0.41356176 0.0058396286 0.015952798
-0.40329874 0.0065136631 0.015303993
-0.39607412 0.0045950096 0.015040657
-0.38546404 0.0018050574 0.014987003
0.38594815 0.0018235956 0.016217368
0.39547202 0.005160985 0.016262839
0.40367064 0.0068465536 0.016117686
0.41569865 0.0046377471 0.015952798
0.42647797 0.0055363388 0.015952798
0.4362056 0.0046575367 0.016183455
0.44447085 0.0042795418 0.015418625
0.4556556 0.0073780124 0.015630392
0.462073 0.0095677441 0.013878037
-0.48210636 0.018203126 0.014072384
-0.4746483 0.015229166 0.015442021
-0.46533385 0.013294948 0.015583272
-0.45465353 0.014813889 0.015952798
-0.44544184 0.013687422 0.015952798
-0.4361397 0.016390519 0.015487693
-0.42547241 0.01674879 0.016095823
-0.41464362 0.012640994 0.014882669
-0.40937072 0.011352396 0.014247291
0.40746796 0.010700739 0.015275572
0.41626048 0.012997597 0.015618708
0.42501852 0.016297085 0.015357332
0.43513101 0.015830826 0.015483187
0.44533619 0.016017165 0.015952798
0.45433849 0.015634872 0.015952798
0.46599144 0.012390882 0.014998148
0.47487968 0.015206707 0.0150787
0.48134413 0.017609486 0.017362138
-0.48153472 0.025292948 0.01477853
-0.47644195 0.024722761 0.015211879
-0.46420339 0.025810439 0.015952798
-0.45350724 0.026128188 0.015092018
-0.44592482 0.024776157 0.015226017
-0.43523934 0.021614075 0.015228863
0.4358041 0.022006281 0.015543943
0.44375274 0.024200646 0.014951422
0.45502236 0.026108738 0.015886379
0.46469265 0.025425762 0.015952798
0.47566783 0.024914922 0.015173728
0.4809646 0.025136586 0.014621331
-0.48172539 0.033448976 0.015470896
-0.47454965 0.035521779 0.014888508
-0.46420902 0.033082806 0.015931871
-0.45853835 0.031084727 0.014731367
0.45793799 0.030896017 0.015122511
0.46534157 0.033444792 0.015355059
0.47377014 0.035727065 0.015409108
0.48165077 0.032488447 0.014692445
-0.47241962 0.040465303 0.014987627
0.47234744 0.040286988 0.014360647
-0.36021924 -0.030058991 0.025333051
-0.3548643 -0.032202635 0.02531367
-0.34506345 -0.034977883 0.024170231
-0.3334536 -0.036266234 0.024273332
-0.32461813 -0.036153879 0.024128199
-0.31393874 -0.03825926 0.025032369
-0.30467635 -0.038289521 0.024692353
-0.29529846 -0.038308822 0.02447547
-0.28561413 -0.038243648 0.025207853
-0.27498519 -0.038130727 0.026476778
-0.26724088 -0.038169026 0.026046352
-0.25617063 -0.038341854 0.024104254
-0.24408706 -0.038240355 0.025244854
-0.23612878 -0.038260739 0.025015777
-0.22540821 -0.038153801 0.026217461
-0.21501483 -0.038337905 0.024148617
-0.20581792 -0.038287006 0.024720578
-0.19452612 -0.0382821 0.024775688
-0.18490629 -0.038275145 0.02485393
-0.17461215 -0.038178314 0.025942022
-0.16488992 -0.038165875 0.026081761
-0.15437603 -0.038317636 0.024376305
-0.14426845 -0.038301248 0.024560569
-0.13491082 -0.038191039 0.025799025
-0.12473019 -0.038259137 0.025033813
-0.11592966 -0.038310181 0.024460189
-0.10600032 -0.038284544 0.024748232
-0.094900809 -0.038322121 0.024326025
-0.084136695 -0.038203608 0.02565778
-0.075678296 -0.038313333 0.024424788
-0.06402228 -0.038202532 0.025669932
-0.055214513 -0.03825558 0.025073728
-0.045769408 -0.038309455 0.02446828
-0.034812536 -0.038232356 0.025334684
-0.025559353 -0.038278688 0.02481408
-0.016110756 -0.0382226 0.025444327
-0.0042926469 -0.038243465 0.02520985
0.0044115605 -0.038291086 0.024674734
0.014294046 -0.038233485 0.025322024
0.024083491 -0.038330253 0.024234543
0.033165064 -0.038254987 0.025080377
0.044410739 -0.038182713 0.025892597
0.055133022 -0.038254824 0.025082206
0.066343844 -0.038305379 0.024514129
0.076238737 -0.038315944 0.024395423
0.084935561 -0.038186081 0.02585471
0.094696119 -0.038227942 0.025384342
0.1051751 -0.038245559 0.025186338
0.11456108 -0.038318925 0.024361897
0.12483839 -0.038351502 0.023995809
0.13537447 -0.038231757 0.025341468
0.14553258 -0.038144995 0.026316443
0.15482436 -0.038225859 0.025407774
0.1644613 -0.038217109 0.025506087
0.17387803 -0.038212746 0.025555098
0.18453044 -0.038335897 0.024171216
0.19469583 -0.038146935 0.026294623
0.20411743 -0.038290795 0.024678012
0.21612525 -0.038212337 0.025559638
0.22517423 -0.038329713 0.024240689
0.23467402 -0.038287073 0.02471979
0.24544749 -0.038170859 0.02602578
0.25483307 -0.038171854 0.026014598
0.26447812 -0.038273826 0.024868727
0.27536303 -0.038225867 0.025407592
0.28616741 -0.03813963 0.026376706
0.29435012 -0.038324539 0.024298823
0.30558878 -0.038277477 0.024827637
0.31551602 -0.038263947 0.024979692
0.32570586 -0.035454262 0.025407301
0.3338483 -0.036431238 0.024594514
0.34470305 -0.035304874 0.026089473
0.35537162 -0.032032453 0.025118107
-0.38286313 -0.021160115 0.023685135
-0.37493694 -0.024171883 0.025338223
-0.36434469 -0.028452998 0.024873201
-0.34172896 -0.025574176 0.025256081
-0.33252695 -0.025548125 0.024455989
-0.32224309 -0.028339587 0.02686584
-0.31767762 -0.023863014 0.024915576
0.31805673 -0.023982959 0.02379076
0.32210591 -0.027715094 0.024336835
0.33426937 -0.02442128 0.024549263
0.34176448 -0.025575908 0.025137912
0.36525524 -0.028030001 0.025632579
0.37520772 -0.024140803 0.024677837
0.38369608 -0.020773008 0.024393069
-0.40513617 -0.01224684 0.023734868
-0.39550322 -0.015921896 0.025589919
-0.38748211 -0.019249383 0.024345333
-0.3519254 -0.010702813 0.025684323
-0.34515688 -0.013422828 0.025513144
-0.33524984 -0.017464323 0.024075691
-0.32520166 -0.017205613 0.025319092
-0.31339887 -0.017717531 0.024632996
-0.30611998 -0.017321335 0.024255831
-0.29404867 -0.017309075 0.023827929
-0.28454006 -0.017275818 0.024307257
-0.27476096 -0.017240301 0.024819151
-0.26503584 -0.017284606 0.024180578
-0.25492483 -0.017236622 0.024872154
-0.24476653 -0.017288588 0.024123223
-0.23402651 -0.017258367 0.024558738
-0.22556612 -0.017205041 0.025327312
-0.21514139 -0.017183181 0.025642386
-0.20561253 -0.017269759 0.024394602
-0.19577342 -0.017252825 0.024638621
-0.18527061 -0.017224442 0.025047695
-0.17527898 -0.017213689 0.025202719
-0.16568151 -0.017286126 0.02415869
-0.15325771 -0.017116237 0.026607241
-0.14453262 -0.017201737 0.025374947
-0.13551779 -0.01718987 0.02554597
-0.12427986 -0.017241655 0.024799611
-0.11516496 -0.017278105 0.02427431
-0.10443692 -0.017232908 0.024925677
-0.094883122 -0.017300136 0.023956742
-0.085744612 -0.017253596 0.024627507
-0.07642439 -0.017185891 0.025603309
-0.064385816 -0.017246427 0.024730833
-0.054610141 -0.017207259 0.025295358
-0.04605522 -0.017256027 0.024592482
-0.03536937 -0.017302593 0.023921337
-0.02414507 -0.017165111 0.025902813
-0.014983072 -0.017191276 0.02552568
-0.0048014722 -0.017185571 0.025607927
0.0047177114 -0.017210118 0.02525411
0.015304939 -0.017208906 0.025271624
0.024364609 -0.01722293 0.025069488
0.033626996 -0.017161455 0.025955472
0.044926506 -0.017184939 0.025617039
0.054508023 -0.017292487 0.024067011
0.064661369 -0.017258067 0.02456307
0.073622793 -0.017194919 0.025473217
0.085754655 -0.017188823 0.02556107
0.094839126 -0.017152874 0.026079183
0.1050277 -0.017211432 0.025235234
0.11680763 -0.01722732 0.025006218
0.12647344 -0.01718572 0.025605794
0.13466582 -0.017282402 0.024212366
0.14534628 -0.017252326 0.024645809
0.15424331 -0.017253503 0.024628842
0.16591352 -0.017244346 0.024760827
0.17427981 -0.017184565 0.025622446
0.18589057 -0.017324569 0.023604609
0.19407932 -0.017275861 0.024306644
0.20477013 -0.017201168 0.02538318
0.21527292 -0.017291894 0.024075549
0.2240811 -0.017098388 0.026864467
0.23509809 -0.017187489 0.025580287
0.24458398 -0.017288504 0.024124403
0.25543594 -0.0171481 0.026148021
0.26413557 -0.017220886 0.025098944
0.27528769 -0.017258711 0.024553813
0.28586122 -0.017332032 0.023497021
0.29436824 -0.017196191 0.025454877
0.3056111 -0.017211348 0.025532044
0.31447563 -0.017750416 0.026070995
0.32478812 -0.017186906 0.025588688
0.3358072 -0.017334772 0.024580596
0.3453418 -0.013475426 0.024004072
0.3519904 -0.010704901 0.025492568
0.3878786 -0.0190561 0.02485228
0.39467582 -0.016469542 0.023473648
0.40581062 -0.011912037 0.024557743
0.41060677 -0.010138197 0.023050761
-0.43218133 -0.0010983041 0.027189024
-0.42532089 -0.0040424224 0.025102224
-0.41528809 -0.0080486685 0.025170887
-0.37441793 -0.0017899907 0.024565581
-0.36422691 -0.0057881717 0.025608882
-0.35611218 -0.0089621022 0.026568506
0.35656843 -0.0089923749 0.023906518
0.36504763 -0.0056404439 0.023378016
0.37440357 -0.0017939288 0.02477457
0.4152883 -0.0080889808 0.024894087
0.42511606 -0.0041665658 0.024806356
0.43309104 -0.001039965 0.024147522
-0.45454621 0.0076293489 0.024918946
-0.44423908 0.0035741883 0.025622105
-0.43771955 0.00078621216 0.023741705
-0.40171844 0.009051308 0.023520201
-0.39545575 0.0066089947 0.024357749
-0.38493946 0.0025131293 0.025834132
-0.37925667 0.00033680833 0.027127363
0.3793332 0.00027790596 0.026113659
0.38593325 0.0027297279 0.02359879
0.39402562 0.0060822219 0.025147701
0.40182856 0.0090807974 0.023510529
0.43796095 0.001089621 0.026043087
0.44526929 0.0039386638 0.025270063
0.4552401 0.0078410199 0.024376346
0.46086299 0.0098503111 0.021876175
-0.48076308 0.018600659 0.021864727
-0.47358352 0.015707571 0.025358582
-0.46572274 0.012203326 0.026000127
-0.42515808 0.018453516 0.023881342
-0.41464612 0.014272334 0.024193201
-0.40720016 0.011512317 0.027112551
0.40654582 0.011078394 0.024993191
0.4161458 0.015023404 0.026401967
0.42510048 0.018468035 0.024569621
0.46495068 0.011742703 0.024561122
0.47464049 0.015873801 0.023953764
0.48116532 0.018634364 0.020364765
-0.48087478 0.027741984 0.022709571
-0.47644088 0.023693437 0.025415713
-0.4516505 0.029115401 0.024759883
-0.44554776 0.026782362 0.026203578
-0.43528771 0.022471698 0.023434436
-0.42958286 0.020060919 0.021708265
0.42934924 0.02028935 0.026201192
0.43574035 0.022782359 0.025354901
0.44457802 0.026285112 0.024925778
0.45182964 0.029150171 0.024452867
0.47632399 0.025042305 0.025248228
0.4805094 0.026406625 0.021544579
-0.48073548 0.032035165 0.023541629
-0.47397739 0.0355988 0.025064513
-0.46560666 0.035085652 0.026178461
-0.45714605 0.031494852 0.027187036
0.45764714 0.031479139 0.024481414
0.46589804 0.035299316 0.025186516
0.47362193 0.034815483 0.025301257
0.48052695 0.031669259 0.02188017
0.4694488 0.040099919 0.026651759
0.47081211 0.040182929 0.021781692
-0.35460335 -0.031354498 0.034405865
-0.34525165 -0.033638421 0.033995572
-0.33360913 -0.036159724 0.034764219
-0.32598522 -0.035329133 0.035160281
-0.31401715 -0.037251279 0.035320509
-0.30453691 -0.037300188 0.034931738
-0.29512137 -0.037400033 0.034003265
-0.28556454 -0.037129533 0.036422078
-0.2736049 -0.037381399 0.034195233
-0.26533958 -0.037233423 0.035504058
-0.25527725 -0.037203655 0.03575328
-0.244863 -0.037290968 0.034998141
