# .PCD v0.7 - Point Cloud Data file format
VERSION 0.7
FIELDS x y z
SIZE 4 4 4
TYPE F F F
COUNT 1 1 1
WIDTH 1303
HEIGHT 1
VIEWPOINT 0 0 0 1 0 0 0
POINTS 1303
DATA ascii
-0.035103258 -0.11804549 0.0058864546
-0.024285138 -0.11800604 0.0056377221
-0.015358457 -0.11834841 0.0047299615
-0.007260914 -0.11792753 0.0044260784
0.0032036256 -0.11806189 0.0028350791
0.015192414 -0.11808859 0.0051342244
0.024431966 -0.1179807 0.0047555952
0.035294805 -0.11842622 0.0062875166
0.044805609 -0.11828495 0.0048420257
0.054493524 -0.1179615 0.00457907
0.065813422 -0.11808066 0.0042947466
0.076623946 -0.11811145 0.0046052486
0.086754762 -0.11750488 0.003872849
0.095244512 -0.11614534 0.0042709322
0.10143632 -0.11535514 0.0035500452
-0.10060781 -0.10642543 0.0097253919
-0.094845094 -0.1064983 0.0049595726
-0.08540976 -0.10625446 0.0065318118
-0.076100275 -0.10686419 0.0038464279
-0.065512024 -0.10591151 0.0043492792
-0.054973949 -0.10786334 0.0038249653
-0.045140475 -0.10812628 0.0044873543
-0.036073294 -0.10825931 0.0059439647
-0.024353979 -0.1082801 0.0034595784
-0.012715948 -0.1080614 0.0044222311
-0.0076393187 -0.1082186 0.0065682866
0.0044932738 -0.108137 0.0041723386
0.015078431 -0.10815547 0.0044091837
0.024606247 -0.1063318 0.004535282
0.032525141 -0.10848233 0.0016159212
0.044731092 -0.10827993 0.0049377098
0.053821966 -0.10745445 0.0079953969
0.063557126 -0.10819511 0.0053469315
0.076074287 -0.10834018 0.0074211778
0.088048093 -0.10470933 0.0050781332
0.095027253 -0.10638954 0.0051645809
0.10140983 -0.10465691 0.0047989488
-0.080684423 -0.093674302 0.008739531
-0.073684059 -0.09443453 0.004885104
-0.063952349 -0.093968086 0.0038938113
0.014736541 -0.095624149 0.0044276789
0.022887558 -0.093034387 0.0039864033
0.033280451 -0.094006404 0.0038827881
0.087047778 -0.094503708 0.0031607035
0.095971227 -0.094870098 0.0049570207
0.101965 -0.094803683 0.0029518679
-0.074416637 -0.08547435 0.0039060619
-0.066801198 -0.085541129 0.0029427714
0.023404956 -0.085638821 0.001160413
0.032782596 -0.081255019 0.0051927841
0.088313334 -0.087092347 0.0044889003
0.095238648 -0.084035665 0.0054466487
0.10140147 -0.085199922 0.0014686455
-0.081416123 -0.075832404 0.0054255626
-0.074665375 -0.074682489 0.0040048161
-0.065850444 -0.075271919 0.0044092494
0.028321004 -0.078568973 0.0046691396
0.033438936 -0.074483112 0.0036825333
0.087528683 -0.074432477 0.0039461115
0.094238035 -0.073187053 0.0056743287
0.10198581 -0.075955525 0.0014733315
-0.081676133 -0.064092241 0.0034117599
-0.075669013 -0.063700646 0.0034738642
-0.066869318 -0.065493219 0.0039496575
0.017213076 -0.066965997 0.0084775388
0.023408353 -0.063088477 0.0013300742
0.034136973 -0.063531771 0.0081649087
0.087100908 -0.064148784 0.0059889704
0.096367136 -0.065815046 0.0062593524
0.10230177 -0.06306313 0.0028043506
-0.081415333 -0.052403711 0.0059303828
-0.074527696 -0.055952385 0.0034231646
-0.067952298 -0.054944225 0.002833114
0.025105968 -0.055127889 0.00071016356
0.036154687 -0.051107466 0.0064613819
0.086817339 -0.052562058 0.0060153515
0.095177226 -0.055802211 0.0054410514
0.1021503 -0.057768505 0.0032585561
-0.082159385 -0.043991756 0.0028561132
-0.074721627 -0.04453126 0.00392354
-0.066651322 -0.045322485 0.0045231106
0.018940181 -0.04752177 0.0030174851
0.029086173 -0.040548295 0.0039964616
0.03478343 -0.04662323 0.0044364706
0.087279662 -0.043461308 0.0017577896
0.094834127 -0.045221169 0.0054133115
0.10137532 -0.04717207 0.0021880849
-0.082550436 -0.03503086 0.004408794
-0.074384406 -0.035897173 0.0022162963
-0.067982875 -0.033397429 0.0035645068
0.019686662 -0.032297254 0.0051772296
0.024405867 -0.032592554 0.0022478825
0.036268704 -0.0317166 0.0039037692
0.087047718 -0.037593905 0.0067286813
0.095147997 -0.035575241 0.0051582032
0.10267742 -0.033899859 0.0032663762
-0.083905883 -0.024621971 0.0045343041
-0.07561671 -0.024754414 0.0029831275
-0.067429185 -0.021514872 0.0036291082
0.033715095 -0.02539397 0.0049427692
0.087803841 -0.024156952 0.0040418319
0.095318802 -0.024924634 0.0055990517
0.10131353 -0.023897326 0.0044284933
-0.083413467 -0.014237767 0.0041912543
-0.075555615 -0.013693014 0.0028547172
-0.068671405 -0.01404947 0.0012271424
0.026260445 -0.01417162 0.0073667937
0.036686804 -0.015529288 0.0038953233
0.040918104 -0.012670279 0.0052728429
0.086793281 -0.015542214 0.0056698718
0.09603139 -0.014910654 0.004262601
0.10210037 -0.011578551 0.0029064661
-0.083898328 -0.005162295 0.0033705097
-0.074586637 -0.0053625326 0.0035602504
-0.069585986 -0.0049644709 0.0051301569
0.025786065 -0.0038246114 0.005490642
0.035445411 -0.0019798328 0.005421313
0.041130718 -0.0031534631 0.0029206078
0.087734766 -0.0061542145 0.0049176589
0.094883174 -0.0054908316 0.0053749345
0.10199736 -0.0069510173 0.0039407928
-0.084723346 0.0045883502 0.0042687692
-0.075975694 0.0045176833 0.0042349007
-0.069945924 0.0061286688 0.0038213134
0.028082833 0.0056926236 0.0053879283
0.035775848 0.0065378272 0.0027428716
0.04167876 0.0043111541 0.0052901008
0.087504506 0.0063204593 0.004300456
0.095325425 0.0050582937 0.0043537309
0.10179064 0.0050167353 0.0037838407
-0.085900761 0.013366371 0.0047236546
-0.076051615 0.014617159 0.0042549986
0.027317584 0.012500848 0.0041552298
0.033687394 0.013695806 0.0044397786
0.041847799 0.013404685 0.003820233
0.087110832 0.015842028 0.0062939897
0.094912499 0.014358039 0.0051823375
0.10151455 0.015119082 0.0061177779
0.087060273 0.024530491 0.0047317855
0.095264003 0.024856621 0.0044427644
0.10157094 0.024150316 0.0046970388
0.087763369 0.034570672 0.006501928
0.094626136 0.034496944 0.0041866209
0.10142848 0.034434069 0.004928384
-0.10237853 -0.12116998 0.015014634
-0.0952705 -0.12126861 0.014468533
-0.084889702 -0.12150937 0.014018406
-0.073162705 -0.12120749 0.014406756
-0.066055253 -0.12133543 0.014290255
-0.055535894 -0.12129385 0.013962897
-0.044894934 -0.12125491 0.014761294
-0.034340266 -0.12140638 0.014615081
-0.022617953 -0.12106826 0.014032009
-0.01629038 -0.12133887 0.014050555
-0.0056051654 -0.12128893 0.014338996
0.006098391 -0.12110215 0.013493001
0.014216489 -0.12150186 0.014597471
0.025809487 -0.12111174 0.014438609
0.03720006 -0.12153261 0.013406705
0.045407854 -0.12099962 0.015946645
0.054724507 -0.12125554 0.014213094
0.065052204 -0.12157769 0.013778242
0.076161288 -0.12120659 0.01447171
0.084189557 -0.12097469 0.014082196
0.093218401 -0.1214628 0.015731402
0.10030185 -0.12061089 0.013062358
-0.10164341 -0.11519768 0.014648278
-0.094248302 -0.11623809 0.014782455
-0.084528677 -0.11697672 0.015354439
-0.074512616 -0.11832739 0.01599668
-0.065809324 -0.11846671 0.014153913
-0.055971846 -0.11845472 0.015059601
-0.046020985 -0.11786854 0.013967879
-0.034393966 -0.11797263 0.016300071
-0.024902858 -0.11778828 0.015132074
-0.014208356 -0.11853909 0.013986066
-0.0055650035 -0.11799431 0.015268335
0.0049616843 -0.11794262 0.015356522
0.015273625 -0.11805632 0.015080269
0.026010185 -0.11766443 0.015138552
0.035608791 -0.11832519 0.015703464
0.043905634 -0.11843628 0.015644474
0.055427223 -0.11797916 0.013846608
0.064610451 -0.1180501 0.014990997
0.075892828 -0.1177729 0.015183072
0.085348502 -0.11784662 0.015807971
0.094954073 -0.11569021 0.014691529
0.10157355 -0.11639222 0.014569664
-0.095784761 -0.10648265 0.014680074
-0.086973593 -0.10704327 0.016963949
-0.076655954 -0.10629936 0.015112995
-0.064897619 -0.1056382 0.013075738
-0.053896811 -0.10742962 0.016661953
-0.048477881 -0.10838036 0.014652367
-0.03413856 -0.10898189 0.01361045
-0.022576015 -0.10857451 0.015654948
-0.01689706 -0.10862678 0.012824798
-0.0026669651 -0.10853497 0.015624007
0.0049242429 -0.10849314 0.015447978
0.013498008 -0.10788149 0.013915966
0.024976829 -0.10786431 0.015508867
0.035367001 -0.10750116 0.015523044
0.044116855 -0.10906482 0.013305821
0.055177182 -0.10895023 0.015344545
0.066221222 -0.10895029 0.015361413
0.085306913 -0.10587522 0.01611902
0.094596088 -0.10574513 0.01427459
0.10178545 -0.10537215 0.016686901
-0.074167073 -0.09336713 0.014204449
-0.064669959 -0.094973736 0.014634226
-0.059941292 -0.099707901 0.015906394
0.025524974 -0.091083884 0.017117321
0.030398607 -0.090847313 0.013363936
0.087114498 -0.094413452 0.015398832
0.094514035 -0.09449672 0.014067934
0.10229616 -0.093663335 0.014093941
-0.08030948 -0.082748652 0.013758555
-0.073612474 -0.085457563 0.013606615
-0.065682024 -0.085287824 0.014557833
-0.059610337 -0.089136899 0.018725514
0.03287676 -0.082648098 0.017092355
0.08726076 -0.084606372 0.016702885
0.094065718 -0.083097406 0.01412706
0.10141196 -0.08341451 0.015794791
-0.080777526 -0.070633769 0.018592179
-0.074911617 -0.075528026 0.014386197
-0.065922007 -0.074961841 0.014521436
0.025990486 -0.07330808 0.016474701
0.032305598 -0.070202351 0.013226726
0.086275183 -0.074736238 0.015680291
0.095133454 -0.073890187 0.01477946
0.10263226 -0.076364577 0.012641415
-0.081385843 -0.064335011 0.016446456
-0.075569026 -0.064776957 0.014180208
-0.066775344 -0.065357186 0.01599713
0.022971608 -0.063943699 0.014872992
0.03700716 -0.065123945 0.014819182
0.086416379 -0.065683626 0.017455677
0.095660791 -0.066007875 0.016196672
0.10162626 -0.064486928 0.015063206
-0.082182944 -0.055372 0.017093152
-0.074812911 -0.054958791 0.014625095
-0.066614643 -0.056107562 0.015144819
0.018466771 -0.053945482 0.015408397
0.02167505 -0.050870717 0.012899348
0.086392187 -0.056178268 0.016304282
0.094406888 -0.055800676 0.015119513
0.10237435 -0.054023158 0.016082201
-0.082290813 -0.043505561 0.015178615
-0.075578958 -0.04567932 0.014975125
-0.068378106 -0.046733718 0.014351301
0.026974306 -0.048082516 0.0141165
0.036157582 -0.046558585 0.013644506
0.087245286 -0.046272025 0.015281299
0.094102986 -0.044706929 0.01462366
0.10139384 -0.046690755 0.013990181
-0.082118161 -0.036353212 0.016054403
-0.074305385 -0.035482749 0.014300411
-0.068738721 -0.03790319 0.014704864
0.024810668 -0.03554045 0.012525721
0.035491001 -0.031636465 0.012970445
0.087083749 -0.034043472 0.016686391
0.094279476 -0.035632979 0.015173374
0.10219757 -0.03476892 0.014577659
-0.082440935 -0.02522807 0.014622441
-0.075218447 -0.025641242 0.01435371
-0.068138473 -0.025755754 0.016978905
0.023600698 -0.028749228 0.017537653
0.036218151 -0.025324345 0.015426597
0.040939361 -0.025542378 0.016749486
0.087094933 -0.024294376 0.01521933
0.094539858 -0.024793614 0.014977216
0.10175795 -0.023923254 0.014660357
-0.08315444 -0.014620936 0.01436817
-0.074847959 -0.014350703 0.013866779
-0.069264457 -0.013579369 0.012628938
0.026451174 -0.014604777 0.015303466
0.035669226 -0.015198434 0.013957886
0.041196123 -0.014896482 0.01531443
0.086805858 -0.01382513 0.016402453
0.09467186 -0.014160248 0.014858045
0.102179 -0.015027196 0.016097229
-0.082478449 -0.005446421 0.015622997
-0.075537644 -0.0047934284 0.014525793
-0.06975127 -0.006998986 0.01712212
0.025841048 -0.0070138932 0.012751843
0.03708002 -0.0037515312 0.015804676
0.041046962 -0.0038517118 0.015053853
0.08693663 -0.0046619079 0.017885186
0.094415501 -0.0049992623 0.015531804
0.10164018 -0.0069932905 0.014401442
-0.083686888 0.0034119913 0.014840053
-0.07496167 0.0043997872 0.014707742
-0.069438025 0.00087681413 0.01337862
0.025348535 0.0054032006 0.0155142
0.035883948 0.0054568294 0.014742985
0.042604972 0.0077604232 0.016681874
0.087296441 0.0037065127 0.015447774
0.094613448 0.0044700368 0.015400067
0.10166323 0.0048230831 0.014233972
-0.084322743 0.013382592 0.014874507
-0.076297581 0.014826457 0.015052584
0.027250001 0.013031065 0.012489133
0.035115875 0.01345055 0.01496665
0.041149158 0.01149607 0.016123665
0.087238565 0.014880312 0.015544284
0.094093457 0.014768411 0.014689349
0.10201475 0.016332366 0.015639216
0.087610081 0.023806352 0.015945932
0.09505327 0.024687055 0.014635036
0.101519 0.025025396 0.0152673
0.087458722 0.034465175 0.017521705
0.094444968 0.034473989 0.015042734
0.10161479 0.033964619 0.014104445
-0.094853543 -0.12179801 0.025333846
-0.083157115 -0.12131361 0.024675434
-0.074601986 -0.12140921 0.026363408
-0.067342848 -0.12144929 0.02447564
-0.055077553 -0.12122501 0.025126662
-0.044325553 -0.12139595 0.025773054
-0.03603626 -0.12152763 0.024426257
-0.025076585 -0.12122063 0.025137533
-0.014191942 -0.12119254 0.023681186
-0.0077788886 -0.12164462 0.024717391
0.0030144136 -0.12116227 0.025910823
0.016244205 -0.12139329 0.023964528
0.026195517 -0.12138598 0.024979126
0.034021549 -0.12131618 0.024984324
0.045027103 -0.1212564 0.024238039
0.055560291 -0.12131806 0.025892431
0.063995026 -0.12140705 0.025061607
0.073885232 -0.12138022 0.024767313
0.085524149 -0.12112286 0.025573032
0.094082266 -0.12091699 0.025697218
0.1016406 -0.12095183 0.023531714
-0.10091126 -0.11724889 0.028739989
-0.09456788 -0.11530719 0.024561509
-0.084671721 -0.11708231 0.024851672
-0.075580686 -0.11813472 0.025657147
-0.065966636 -0.11857357 0.025583843
-0.052955095 -0.11876086 0.025028842
-0.042243302 -0.11807258 0.025365314
-0.035302181 -0.11774208 0.027096432
-0.026852606 -0.11807605 0.025781708
-0.015084473 -0.11824684 0.023501119
-0.0051936135 -0.11797923 0.025225852
0.0045917043 -0.11808857 0.025104137
0.014467348 -0.11794291 0.025352011
0.024126491 -0.11774871 0.023182837
0.034373678 -0.11833822 0.025884546
0.046406686 -0.11861599 0.026262691
0.057249885 -0.11820734 0.024559032
0.066422671 -0.11769006 0.025919985
0.074770778 -0.11804754 0.026238739
0.085142948 -0.11747215 0.024979627
0.09511102 -0.11553749 0.024505496
0.1014587 -0.11257646 0.023835927
-0.10230856 -0.10700914 0.020028114
-0.095115662 -0.10679588 0.024016788
-0.084806487 -0.10673916 0.026362659
-0.073863648 -0.10639662 0.025640832
-0.065226875 -0.10577684 0.0253089
-0.056062847 -0.10782882 0.025594881
-0.044188503 -0.10811528 0.024962688
-0.035607077 -0.10845832 0.02448057
-0.025201311 -0.10838724 0.027255364
-0.011508448 -0.10818089 0.023932654
-0.003466934 -0.10754168 0.026303366
0.0039458475 -0.10812908 0.027470509
0.01599576 -0.10830663 0.024448449
0.02813755 -0.10762259 0.026242644
0.032959465 -0.10703115 0.027017038
0.045277186 -0.10827821 0.024087168
0.053824469 -0.10745424 0.022764683
0.06510286 -0.10819986 0.023943212
0.076996781 -0.10833819 0.024160996
0.087538585 -0.10389719 0.02503363
0.094775245 -0.10502388 0.024153138
0.10218346 -0.1064555 0.025382288
-0.074178793 -0.094560921 0.025970541
-0.064017422 -0.095416456 0.025502188
0.027348697 -0.090463042 0.021293491
0.030398607 -0.090847313 0.026114143
0.086755052 -0.094970413 0.025643257
0.095403671 -0.095452249 0.024978258
0.10202698 -0.094624802 0.024202555
-0.073705092 -0.083826117 0.024558337
-0.066580527 -0.084374577 0.025166014
0.015259504 -0.082279772 0.021024071
0.020697728 -0.086434305 0.020100191
0.033766616 -0.084323943 0.026106222
0.087950617 -0.08515019 0.025175286
0.094543822 -0.084451333 0.024243107
0.10175661 -0.082648411 0.02640518
-0.081133336 -0.073451579 0.027437419
-0.074536353 -0.074267879 0.024977909
-0.066227607 -0.074295126 0.024760537
0.015506893 -0.07229805 0.022810802
0.028890371 -0.074054778 0.020776957
0.033657134 -0.071594864 0.025119085
0.087132402 -0.074642628 0.024693573
0.09535373 -0.072907731 0.024964133
0.1022446 -0.074259855 0.026958782
-0.080150306 -0.064878017 0.020519316
-0.074202046 -0.064602256 0.024923149
-0.067301899 -0.065407969 0.026298663
0.024641067 -0.062757462 0.027280916
0.034476966 -0.068909377 0.024462588
0.08611773 -0.064437397 0.024255177
0.095234044 -0.065408379 0.024872275
0.10201807 -0.064271316 0.025969202
-0.082314976 -0.055729926 0.024453649
-0.075219311 -0.055726636 0.025570165
-0.067029916 -0.05338037 0.024748817
0.018334135 -0.051971555 0.02416645
0.02167502 -0.050870776 0.025184907
0.033329457 -0.056069344 0.022661559
0.087423466 -0.055719141 0.024897471
0.09429609 -0.056936864 0.024721358
0.10138437 -0.055729497 0.027240567
-0.08204741 -0.043121688 0.024729101
-0.075203992 -0.045065973 0.025403576
-0.067730978 -0.045777582 0.027519312
0.027767658 -0.04014349 0.028203577
0.034970324 -0.043879539 0.02432926
0.087315597 -0.044296775 0.024298901
0.094012372 -0.045290392 0.02466852
0.10165139 -0.044811182 0.026945386
-0.082221225 -0.03486447 0.025358845
-0.074583054 -0.035236754 0.024877872
-0.067552179 -0.035010543 0.025561012
0.022153184 -0.034115583 0.026771788
0.034979291 -0.034133427 0.023847708
0.086696185 -0.035156153 0.023926267
0.094976164 -0.034484826 0.025323477
0.10212489 -0.035678811 0.026651476
-0.082796238 -0.024937391 0.022925394
-0.074929297 -0.023914585 0.025684908
-0.06839098 -0.023270568 0.026749456
0.024302782 -0.024641199 0.027038259
0.035319041 -0.024030397 0.025933286
0.040267944 -0.021426857 0.021079794
0.087333724 -0.024523493 0.024184784
0.094816193 -0.024721349 0.024926571
0.10208165 -0.025108857 0.027566992
-0.084337808 -0.015181582 0.025721418
-0.075216442 -0.014162168 0.024777381
-0.068573162 -0.014111052 0.024337068
0.02748847 -0.013556778 0.029464304
0.035591833 -0.014574319 0.02525042
0.040317483 -0.012490824 0.026895463
0.087123036 -0.014082972 0.024824198
0.095253073 -0.01401364 0.025064945
0.10190053 -0.015256435 0.026283888
-0.083788745 -0.0059441668 0.024761524
-0.073883131 -0.0062967874 0.025837626
-0.069043696 -0.007172036 0.02407383
0.028031692 -0.0045531914 0.026769118
0.035884541 -0.0055512665 0.025624687
0.042023867 -0.0019638538 0.022039518
0.086611122 -0.0047723847 0.023314063
0.094281532 -0.0041691451 0.026509922
0.10138609 -0.0048522842 0.026012927
-0.084255427 0.0040153568 0.025479762
-0.074713774 0.0043775504 0.024674604
-0.069837585 0.0024340451 0.020920783
0.027538797 0.0062267184 0.026492169
0.034527253 0.0057183551 0.025218304
0.042752609 0.0017111301 0.026481241
0.086865306 0.004650956 0.024102993
0.095535427 0.004646169 0.0244043
0.10146977 0.0044839042 0.025361087
-0.085156046 0.014261744 0.024421278
-0.076103352 0.014246134 0.02603386
0.0271856 0.013568863 0.023233609
0.032896981 0.015415188 0.025220824
0.040580004 0.012875587 0.02476301
0.086806186 0.014353096 0.023716616
0.094552696 0.013680839 0.025434893
0.10198214 0.015112976 0.025199782
0.086944766 0.024064671 0.024889123
0.095111795 0.025771109 0.025159623
0.10153815 0.024401493 0.023969771
0.086523972 0.034361724 0.023990994
0.09469308 0.035065897 0.025905535
0.10129714 0.034957059 0.024141574
-0.095819682 -0.12153175 0.033280835
-0.084976278 -0.12141971 0.036509413
-0.074510373 -0.12124083 0.034921512
-0.065227114 -0.12110912 0.034579638
-0.056143675 -0.12151261 0.035353001
-0.04463416 -0.1212591 0.035482686
-0.033929449 -0.12136984 0.035499841
-0.025104262 -0.12152881 0.033972796
-0.015717154 -0.12114731 0.03500922
-0.0054730098 -0.12137281 0.035593405
0.0058391513 -0.12158076 0.036375195
0.01529876 -0.12121993 0.034615509
0.024652004 -0.12135415 0.035029829
0.036634106 -0.12137337 0.035112966
0.045080494 -0.12090024 0.035285935
0.052930325 -0.12146021 0.035834137
0.065800004 -0.12129479 0.034277234
0.076195486 -0.12156435 0.035553247
0.083484665 -0.12091708 0.034783632
0.094015718 -0.12146181 0.034851931
-0.10170971 -0.11595985 0.035096377
-0.09449213 -0.11617934 0.036232427
-0.086296007 -0.11673146 0.034124646
-0.07462994 -0.11831674 0.034920275
-0.065050922 -0.11849019 0.035816129
-0.055031542 -0.11833742 0.034548473
-0.045379359 -0.11799667 0.034805615
-0.034799319 -0.11777309 0.033651322
-0.023566924 -0.11790361 0.036035974
-0.015884977 -0.11852343 0.034469072
-0.0046624481 -0.11802969 0.035536435
0.0064407783 -0.11793919 0.034305818
0.01522097 -0.11773315 0.036545776
0.0257104 -0.11812653 0.034639582
0.036104109 -0.11835603 0.035116043
0.045560241 -0.11855742 0.033073403
0.054948814 -0.11805601 0.034980878
0.065893643 -0.11785851 0.035205785
0.075024702 -0.11795548 0.035568018
0.083122656 -0.11772513 0.035270024
0.094744124 -0.11535113 0.035287689
0.10137179 -0.11493476 0.033532251
-0.10150705 -0.10767678 0.036892861
-0.093893595 -0.10703418 0.035143685
-0.08490321 -0.10590511 0.03559247
-0.07670296 -0.10612293 0.034637801
-0.064889401 -0.10625111 0.037962042
-0.053554639 -0.10785175 0.035317909
-0.046204917 -0.10836915 0.036333639
-0.03605945 -0.10847706 0.037984837
-0.023671309 -0.10867469 0.035698462
-0.015173415 -0.10824116 0.036926858
-0.0063056857 -0.10797807 0.036174275
0.0034223644 -0.10823013 0.035336576
0.013426576 -0.10715295 0.037654653
0.024687368 -0.10707664 0.035803817
0.030485407 -0.10899732 0.034665767
0.04199582 -0.10830611 0.037389468
0.055683404 -0.10855904 0.034393717
0.069021478 -0.10854419 0.038702108
0.08562693 -0.10645004 0.033587754
0.095742352 -0.10490259 0.035975564
0.10333851 -0.10454041 0.03626591
-0.073144712 -0.096016802 0.03625381
-0.06495481 -0.094854422 0.035730675
0.023009956 -0.091636121 0.032757029
0.032386046 -0.093265079 0.036650527
0.086698197 -0.095054157 0.033572961
0.093989432 -0.094803907 0.035573825
0.10213828 -0.09519273 0.031443924
-0.073090449 -0.085014828 0.036723565
-0.065356933 -0.084182277 0.035995685
0.027707547 -0.085127868 0.031736191
0.033499114 -0.083359763 0.036126778
0.087101065 -0.084550448 0.033017863
0.095018253 -0.085053146 0.035099622
0.10186876 -0.085916638 0.038815532
-0.081862479 -0.079888046 0.030211091
-0.074849404 -0.073993973 0.035948761
-0.066170476 -0.074474111 0.036004033
0.029127896 -0.071545124 0.033563159
0.034140322 -0.071077526 0.034419201
0.086220674 -0.072794959 0.034618676
0.094635941 -0.07329265 0.035197847
0.10221022 -0.078000367 0.032259405
-0.080911845 -0.065971941 0.032861799
-0.075204007 -0.063359208 0.035659984
-0.065449134 -0.065959632 0.036386527
0.017110229 -0.068436384 0.036565468
0.021847904 -0.063126773 0.038148422
0.037587501 -0.063561499 0.034509435
0.086810216 -0.065369822 0.03154768
0.09587457 -0.065176509 0.034524951
0.10217836 -0.060593128 0.035457019
-0.08147034 -0.054456055 0.03384332
-0.074836269 -0.056275938 0.035754379
-0.066909276 -0.056566026 0.035815746
0.023875266 -0.055370897 0.033859473
0.035659049 -0.055121548 0.033857338
0.086597368 -0.057505064 0.033564292
0.094728246 -0.056444295 0.034863465
-0.081620067 -0.045235179 0.035447527
-0.07502111 -0.045957711 0.035781603
-0.06678661 -0.045491602 0.035281453
0.024573371 -0.047085166 0.036633357
0.035894711 -0.046846688 0.036255047
0.087327078 -0.045394234 0.03330297
0.094150372 -0.045452069 0.035146564
0.10144478 -0.047073618 0.035053547
-0.082131535 -0.036496952 0.033800106
-0.075273037 -0.035499409 0.034630094
-0.067747168 -0.035154469 0.033094369
0.024475494 -0.036751717 0.035063762
0.036325246 -0.034221608 0.034829665
0.087222539 -0.035263177 0.033191059
0.094967663 -0.034684021 0.034994379
0.10271183 -0.036956668 0.038308382
-0.083113894 -0.023236472 0.03496398
-0.075566813 -0.024396198 0.035093732
-0.068706505 -0.025894066 0.035113394
0.024881318 -0.024674674 0.032431781
0.037176032 -0.023822844 0.035299338
0.087452911 -0.024169704 0.032788228
0.094675548 -0.024006097 0.034949481
0.10231125 -0.024321288 0.035086691
-0.082536615 -0.014659789 0.035407588
-0.074652128 -0.01407543 0.034908023
-0.069239937 -0.015174955 0.036797326
0.025289819 -0.015981168 0.031705879
0.035860918 -0.014617249 0.037927769
0.041199367 -0.014324903 0.037398521
0.087169416 -0.012987583 0.032139231
0.095363244 -0.013630556 0.035584878
0.10095438 -0.011871397 0.035132952
-0.083825603 -0.0050609722 0.03589952
-0.074903965 -0.0052102655 0.033667792
-0.069740109 -0.0026403368 0.032983482
0.024774216 -0.0075929463 0.034080978
0.036203504 -0.0052439617 0.03536766
0.041376427 -0.0040128827 0.038316101
0.087142445 -0.003840059 0.032347906
0.093807362 -0.0054641492 0.035211965
0.10202656 -0.0037104737 0.03489298
-0.084905468 0.0042662602 0.035288017
-0.076321192 0.0048198262 0.034572162
0.02471441 0.00291235 0.033943549
0.035957903 0.0055419337 0.034814171
0.041489094 0.006257236 0.035815667
0.086879387 0.0050040144 0.03313366
0.094885997 0.0043722759 0.035125833
0.10218882 0.005222518 0.034747861
-0.085068069 0.013219487 0.035235558
-0.075718917 0.014200661 0.034868915
0.026616208 0.01358452 0.035236795
0.034958955 0.013344739 0.035443738
0.041420598 0.014671783 0.0343589
0.087785885 0.012757329 0.03384462
0.094641529 0.014051502 0.035327069
0.10164431 0.013743728 0.033582672
0.087052748 0.023222556 0.033530399
0.094956174 0.025777435 0.035585053
0.1020015 0.024886543 0.034242019
0.086813323 0.035117954 0.03295581
0.094121821 0.034525264 0.034907844
0.10188071 0.033631038 0.037476748
-0.096395366 -0.1215673 0.047032636
-0.084220953 -0.12131686 0.04622817
-0.07408379 -0.12121312 0.043638419
-0.067401551 -0.12142131 0.045762934
-0.055080701 -0.12118014 0.045777351
-0.04471961 -0.12155232 0.045015857
-0.03615015 -0.1213854 0.04685891
-0.024135116 -0.12115868 0.045681428
-0.014627747 -0.12148964 0.046484187
-0.0065886141 -0.12138965 0.04600038
0.0038050807 -0.12115572 0.046646874
0.015406308 -0.12147798 0.046614408
0.027265167 -0.12125226 0.044999499
0.035122991 -0.12127513 0.046557661
0.044192336 -0.12112607 0.046517529
0.054850958 -0.12148161 0.045186177
0.063314989 -0.12135928 0.04589643
0.075343616 -0.12111825 0.044928435
0.086040169 -0.12120933 0.04515722
0.0925285 -0.12120243 0.047915209
0.10130419 -0.12057441 0.042276978
-0.10283317 -0.1148366 0.04634174
-0.095005907 -0.11559049 0.046196483
-0.084959626 -0.11738572 0.045649029
-0.073695496 -0.11863881 0.04419465
-0.063695312 -0.11843999 0.045584932
-0.054714192 -0.11855838 0.045565803
-0.044813178 -0.11828466 0.046075378
-0.035403777 -0.11862987 0.044545107
-0.025103204 -0.11846487 0.044480901
-0.014836295 -0.11869954 0.045508239
-0.0062686899 -0.11824937 0.044588387
0.0044297716 -0.11808557 0.045020293
0.016118729 -0.11850538 0.044532586
0.02586294 -0.11829001 0.045979936
0.033492662 -0.11864395 0.043705661
0.044821423 -0.11842707 0.045799688
0.056682065 -0.11854824 0.045376133
0.064275868 -0.11854093 0.045429811
0.075502567 -0.11866447 0.044688806
0.086356252 -0.11710223 0.045699909
0.094135255 -0.11696559 0.045373172
0.1020651 -0.11434846 0.044367366
-0.10088921 -0.1092869 0.04420656
-0.093723051 -0.10591043 0.045759466
-0.084230565 -0.10661756 0.045991674
-0.076075524 -0.10641102 0.044553477
-0.063998833 -0.10469855 0.044949468
-0.05746581 -0.10543755 0.047276519
-0.047129098 -0.10821739 0.044656124
-0.03627174 -0.10824279 0.041766971
-0.026721468 -0.10892747 0.048470199
-0.016935494 -0.10809003 0.042396598
-0.0068393103 -0.10824907 0.042425264
0.002286759 -0.10837549 0.046734162
0.012493636 -0.10824913 0.042426955
0.025716048 -0.10815503 0.045945942
0.033531189 -0.10571758 0.046922062
0.043138497 -0.10739937 0.044694826
0.055156812 -0.1089502 0.044811226
0.063425511 -0.10893065 0.04962486
0.078216612 -0.10581088 0.042921424
0.085939206 -0.10689409 0.0449274
0.094679721 -0.10497595 0.045506753
0.10274277 -0.10384152 0.043848608
-0.073433898 -0.093723878 0.045516867
-0.065787137 -0.095467374 0.044338007
0.019877046 -0.094956696 0.046960473
0.0253959 -0.092314601 0.045874372
0.031139255 -0.090361476 0.046167657
0.087091155 -0.095819563 0.045509957
0.095499583 -0.094418384 0.045628585
0.10225046 -0.092888676 0.044911634
-0.080124348 -0.084350228 0.04283005
-0.074456438 -0.083383754 0.045340069
-0.064787216 -0.084752947 0.044821121
0.027826726 -0.08533746 0.046981879
0.034919977 -0.081107855 0.047270909
0.086831518 -0.083090097 0.045061335
0.0951057 -0.08545386 0.045661293
0.10254927 -0.085998811 0.044634737
-0.074390918 -0.073086627 0.045795929
-0.066479549 -0.073433161 0.043940771
0.016040951 -0.071198106 0.045338094
0.02474837 -0.072379611 0.043901648
0.032673359 -0.073828876 0.04622902
0.087764509 -0.073237777 0.04648681
0.094752051 -0.073959045 0.045702852
0.10157566 -0.075554408 0.04159132
-0.081236273 -0.065201223 0.043831021
-0.075765081 -0.064866185 0.045209739
-0.066679843 -0.064239465 0.046293329
0.029358089 -0.069040716 0.046291269
0.036287382 -0.062721848 0.04440517
0.086884066 -0.065298073 0.0458428
0.095304981 -0.064052649 0.045987006
0.10211835 -0.064831063 0.04413449
-0.081587173 -0.055532768 0.04681886
-0.07527329 -0.056428511 0.045823175
-0.066716239 -0.056014907 0.043791194
0.025481075 -0.051077187 0.046130773
0.032530457 -0.055248529 0.04594928
0.08703047 -0.056698386 0.044712026
0.095111676 -0.056611013 0.045308787
0.10170218 -0.053349275 0.043582868
-0.082284547 -0.044246953 0.046500046
-0.075953066 -0.04630895 0.044872221
-0.068195574 -0.04547482 0.044904508
0.01896289 -0.042412639 0.049650908
0.027341917 -0.045705736 0.043531246
0.036893353 -0.04488948 0.044793058
0.087165557 -0.044396013 0.045275599
0.094518676 -0.045684215 0.045409914
0.10357866 -0.042748213 0.0442653
-0.082227044 -0.034715112 0.046916418
-0.074631423 -0.034876656 0.045676056
-0.069670975 -0.034579694 0.044800073
0.022377938 -0.034723788 0.046637584
0.035374075 -0.036524814 0.044539414
0.040295601 -0.036471069 0.041293085
0.087124608 -0.033900194 0.045664839
0.095396087 -0.034696728 0.045531966
0.10118464 -0.035358544 0.04531303
-0.083135642 -0.024178809 0.045818698
-0.075314507 -0.024421616 0.046496872
-0.068721592 -0.025970289 0.046560496
0.026068628 -0.021638811 0.043455794
0.036810715 -0.024305349 0.044876475
0.086942479 -0.024906296 0.044680938
0.09479782 -0.024166187 0.04542895
0.10238994 -0.026605794 0.043943923
-0.083570026 -0.015750719 0.047875393
-0.075598218 -0.015298981 0.046062861
-0.068501428 -0.014656037 0.04917657
0.026398182 -0.016343147 0.043145627
0.036799721 -0.015709609 0.044536263
0.041226041 -0.014785022 0.045805667
0.08707007 -0.014234767 0.044882491
0.09537074 -0.013768326 0.04522533
0.10110172 -0.013949131 0.045839708
-0.083149105 -0.005592443 0.045895513
-0.074199311 -0.0053680046 0.046672523
-0.069231242 -0.0064834803 0.048385978
0.027385056 -0.0051545301 0.04482602
0.035921466 -0.0059773414 0.044736318
0.041328002 -0.0042263791 0.04546161
0.087070026 -0.0043270169 0.04464823
0.093719102 -0.0049365209 0.045235492
0.1022922 -0.006216255 0.044514839
-0.084861726 0.004662184 0.045394298
-0.074716397 0.0049453364 0.046280354
-0.069648892 0.0056661963 0.044532299
0.027579404 0.0061542541 0.047698125
0.036436558 0.0066241119 0.044256311
0.041829128 0.0060227364 0.048016123
0.08731328 0.0031810126 0.04591595
0.094286159 0.0042753895 0.045065265
0.10158096 0.0041696071 0.044098165
-0.084333003 0.013055228 0.044986654
-0.076091684 0.014187511 0.045175433
0.027875677 0.012820989 0.045005903
0.031642862 0.01472037 0.044436116
0.042416248 0.013506551 0.043783028
0.0871443 0.01424408 0.04521535
0.095158264 0.014426433 0.045643698
0.10176531 0.01597845 0.045050751
0.087310143 0.024519559 0.045312952
0.095098212 0.024499763 0.045400389
0.10158143 0.021646986 0.044575337
0.087587059 0.034830566 0.045421377
0.094826348 0.034974582 0.044224061
0.10185914 0.034818918 0.045078021
-0.094975553 -0.12106898 0.055589762
-0.084608577 -0.12123381 0.056430802
-0.075405024 -0.12102836 0.056262068
-0.066612676 -0.12097858 0.053556837
-0.056058738 -0.12106358 0.054986242
-0.045464024 -0.1208986 0.055970132
-0.033918865 -0.12085011 0.055827923
-0.024970243 -0.12108572 0.055755645
-0.016186001 -0.12086217 0.054345693
-0.0068689454 -0.12096757 0.055733025
0.0041012736 -0.12105441 0.056670941
0.014798971 -0.12096763 0.054379255
0.024519274 -0.120881 0.055863053
0.035476327 -0.12098501 0.056321088
0.045466192 -0.12106089 0.054253154
0.053696286 -0.12082704 0.055307914
0.063327543 -0.12113394 0.056338362
0.07363195 -0.12093568 0.053939331
0.084642932 -0.1209984 0.056419201
0.097348765 -0.12129958 0.0551176
0.10181318 -0.12055582 0.057110786
-0.10146208 -0.11602928 0.058920164
-0.09557692 -0.11558495 0.054269873
-0.084758095 -0.11724773 0.055063702
-0.074981526 -0.11850294 0.055418182
-0.06491565 -0.11836694 0.054274995
-0.053500894 -0.11831524 0.054908063
-0.044249598 -0.11798282 0.053985804
-0.033564173 -0.11797152 0.055142112
-0.023934804 -0.11798492 0.055242978
-0.014971867 -0.11860193 0.054405019
-0.0064910194 -0.11809958 0.054309942
0.0047528218 -0.11817057 0.054435149
0.015014261 -0.1180778 0.054812066
0.0260003 -0.11789481 0.054605141
0.035436492 -0.1184494 0.055608124
0.045694858 -0.11833229 0.054377243
0.054740001 -0.11786423 0.054258194
0.065671571 -0.11777791 0.054729793
0.074414872 -0.1179347 0.053736612
0.084644623 -0.11776067 0.055927716
0.094474383 -0.11665916 0.056123145
0.10105119 -0.11301558 0.056525331
-0.10055833 -0.10740057 0.059012681
-0.094094642 -0.10748603 0.055294253
-0.086049281 -0.106092 0.055799413
-0.075591676 -0.10610075 0.054085668
-0.065834858 -0.10628877 0.053240068
-0.055744302 -0.10790225 0.053980231
-0.045217663 -0.1080895 0.054321621
-0.035220068 -0.10859603 0.053878501
-0.025164476 -0.10784549 0.051466424
-0.012517428 -0.10822383 0.053916387
-0.0039686016 -0.10776941 0.057612076
0.0031371682 -0.10760685 0.054770626
0.016054049 -0.10839192 0.052723184
0.026885096 -0.10762198 0.054796994
0.033564035 -0.10644485 0.053403594
0.045133021 -0.10846475 0.054002047
0.056519214 -0.10661188 0.051987916
0.064760208 -0.10843512 0.053959012
0.07388185 -0.10815245 0.05454886
0.087069891 -0.10482698 0.054526623
0.09475816 -0.10622647 0.055241942
0.10158024 -0.10446861 0.056693066
-0.07426697 -0.095616296 0.055612314
-0.063737407 -0.095174067 0.055056453
0.02814433 -0.096684098 0.057281673
0.030889682 -0.093220979 0.052448768
0.087465115 -0.094695501 0.055174321
0.09540353 -0.095707342 0.056252133
0.1009641 -0.098103605 0.05542938
-0.081057727 -0.088335752 0.057118431
-0.073287822 -0.08446604 0.055051547
-0.065278992 -0.08538691 0.0561614
0.015463233 -0.084905088 0.050068617
0.028060853 -0.082789302 0.059736826
0.033940881 -0.084956989 0.052578263
0.088040277 -0.083486632 0.055407096
0.095000915 -0.084022649 0.055461835
0.10136271 -0.084947459 0.054918595
-0.080946416 -0.075075746 0.056254163
-0.075297423 -0.075313777 0.055026922
-0.065620668 -0.075481564 0.054567322
0.034117989 -0.072827354 0.055535726
0.087815166 -0.073846973 0.05426883
0.095189951 -0.072138578 0.056655154
0.10218573 -0.073467851 0.05316563
-0.083012223 -0.066432476 0.051167518
-0.074883662 -0.064807832 0.055590488
-0.066765733 -0.065328553 0.055887826
0.025238574 -0.065674812 0.054522332
0.033670414 -0.064607836 0.054346401
0.087760441 -0.065689363 0.055035107
0.094501287 -0.064810202 0.055403318
0.10305339 -0.062202275 0.052159011
-0.081697747 -0.054218352 0.055575199
-0.074149556 -0.056015663 0.055525981
-0.066659585 -0.054453842 0.054632399
0.018620938 -0.053736389 0.050986066
0.026219219 -0.05834949 0.058657482
0.035785362 -0.054116413 0.057036854
0.088155806 -0.057143807 0.056282375
0.095604129 -0.056830585 0.055582508
0.1014728 -0.055070374 0.055245679
-0.080891959 -0.043901317 0.055560768
-0.073955365 -0.044837445 0.055112142
-0.066847824 -0.046333414 0.05587377
0.034699738 -0.044499736 0.0546044
0.087426879 -0.045381535 0.05547468
0.094657578 -0.046149112 0.055678505
0.10218263 -0.045737159 0.05261901
-0.081731372 -0.034184832 0.054686215
-0.074917912 -0.034469187 0.056121826
-0.06786754 -0.033697136 0.054235447
0.026038736 -0.032263696 0.057463884
0.034144271 -0.033229303 0.054292642
0.088086344 -0.036235362 0.055357892
0.094682999 -0.034603424 0.055754617
0.10222168 -0.035103165 0.054563429
-0.082814693 -0.025057185 0.053848654
-0.074325882 -0.023280488 0.055376928
-0.068233848 -0.023979843 0.052995395
0.025935024 -0.024822688 0.056184314
0.036577672 -0.026210824 0.056666814
0.087949798 -0.023726437 0.055869021
0.094542921 -0.024441401 0.055076975
0.10203671 -0.024740411 0.056417365
-0.083814256 -0.014934473 0.054639671
-0.075566448 -0.01463657 0.05543761
-0.068583041 -0.016311079 0.051802218
0.022859016 -0.01684781 0.053856421
0.036324661 -0.014825627 0.054972876
0.040718257 -0.01160115 0.059832573
0.087618761 -0.013524043 0.055158027
0.094999157 -0.014085089 0.055003565
0.10276662 -0.015148401 0.055316776
-0.084076107 -0.0037968587 0.054374393
-0.075196408 -0.0059453468 0.057446953
-0.068663567 -0.0087733865 0.056427911
0.027990401 -0.0062806308 0.053446919
0.035494026 -0.0043342016 0.054562245
0.042198271 -0.00041669607 0.050006017
0.087599583 -0.00570148 0.054474201
0.095049873 -0.0041381633 0.055598017
0.10188554 -0.0058172559 0.055216178
-0.084465392 0.0045265509 0.054094233
-0.075319581 0.0045270766 0.055540361
0.02530105 0.0054508597 0.054502651
0.035315771 0.0052362923 0.054540191
0.086703502 0.0047204923 0.056285884
0.095404766 0.0048516514 0.054800346
0.1017465 0.0045151962 0.053938568
-0.084898107 0.013170224 0.054771021
-0.07636226 0.014085117 0.055752415
0.026251202 0.014049684 0.054755699
0.035555299 0.014032587 0.055965856
0.041501809 0.012392083 0.052946769
0.087645024 0.013952491 0.055386487
0.094803512 0.013886569 0.056213062
0.10246895 0.015245243 0.055793662
0.087279744 0.02598151 0.056317493
0.094113268 0.024127344 0.054948051
0.10185573 0.025459148 0.05520007
0.086973369 0.034895111 0.055938996
0.094747439 0.035280339 0.056336395
0.1015226 0.034675486 0.055643737
-0.096019134 -0.12168214 0.064963572
-0.084406376 -0.12134612 0.064039834
-0.073686317 -0.12171732 0.064226903
-0.06427183 -0.12141316 0.063810438
-0.055161513 -0.12149195 0.064168237
-0.045226298 -0.12142461 0.063610688
-0.035247415 -0.12142834 0.064002849
-0.025340855 -0.12113658 0.063873485
-0.014236442 -0.12104063 0.0630491
-0.004173778 -0.12148839 0.063424028
0.0047588125 -0.12113309 0.064333789
0.01573755 -0.12120152 0.063127987
0.025373673 -0.12148781 0.062857926
0.035614524 -0.12136003 0.063338958
0.045286812 -0.12094089 0.06518887
0.054192781 -0.12154689 0.06360241
0.065644771 -0.12153256 0.063250601
0.075833865 -0.12159134 0.064869076
0.083975121 -0.1211791 0.063079633
0.093459189 -0.12126321 0.063768372
0.10360641 -0.12205875 0.068187326
-0.10150933 -0.11837701 0.062802963
-0.095338166 -0.1155825 0.065380946
-0.085726351 -0.11671586 0.063933201
-0.073687352 -0.11816078 0.066477671
-0.064966634 -0.11850598 0.064821213
-0.054863632 -0.11847353 0.064878203
-0.045383833 -0.11792478 0.064402886
-0.035605263 -0.11807414 0.065460168
-0.023805881 -0.11800805 0.065745644
-0.014117742 -0.11842825 0.065520152
-0.0074599544 -0.11777606 0.065469168
0.0033647716 -0.11796527 0.064347833
0.014870791 -0.11800096 0.065650359
0.025882935 -0.11800499 0.065343879
0.036051404 -0.11861038 0.066355206
0.04410819 -0.11835996 0.064639904
0.054300949 -0.11807557 0.064296879
0.064611599 -0.11799661 0.065218851
0.075233199 -0.1181237 0.065396883
0.085157156 -0.11645824 0.066173054
0.093712829 -0.11616371 0.065436147
0.10236582 -0.11446959 0.064871415
-0.10112442 -0.10670988 0.066524893
-0.095309757 -0.10665318 0.066836342
-0.085370965 -0.10661547 0.063715644
-0.076200932 -0.10614331 0.063551061
-0.064459294 -0.10554887 0.064397186
-0.054740626 -0.10676638 0.064949594
-0.049176045 -0.10777737 0.066913486
-0.036604293 -0.10752924 0.066582501
-0.023415778 -0.10804043 0.064495727
-0.014275444 -0.10760311 0.064730085
-0.0067281201 -0.1082207 0.066704147
0.0020374577 -0.10820541 0.066553012
0.013442934 -0.1070548 0.064575016
0.027125271 -0.10796137 0.065141834
0.035910312 -0.10897545 0.06624987
0.043176677 -0.10743126 0.065475166
0.055152774 -0.10799985 0.065186776
0.066849783 -0.10818981 0.068572149
0.075309075 -0.10819992 0.066140711
0.08459305 -0.10657951 0.063810557
0.09506923 -0.10490322 0.064051658
0.10310378 -0.10812953 0.065923624
-0.073165946 -0.094416842 0.064067781
-0.064419061 -0.093601108 0.064273797
0.02314496 -0.090203464 0.061736241
0.032218069 -0.090954572 0.063022107
0.086869597 -0.096235558 0.0658039
0.095381431 -0.094806768 0.064048722
0.10249981 -0.094528511 0.064547047
-0.074121818 -0.083718739 0.063768841
-0.064807035 -0.084785081 0.064475663
0.032275677 -0.080361187 0.063794859
0.086306199 -0.087062642 0.064721197
0.094369687 -0.08378879 0.063963339
0.10202375 -0.085367106 0.063357346
-0.074959315 -0.073629156 0.064870529
-0.065083981 -0.073825173 0.06357462
0.034567475 -0.073051989 0.061912004
0.087156542 -0.073773526 0.065660164
0.094508231 -0.074936599 0.064363278
0.10163319 -0.076393887 0.063302383
-0.080867343 -0.06842979 0.065718167
-0.076855138 -0.064601637 0.062946245
-0.066192098 -0.065649718 0.06200172
0.017004341 -0.069903493 0.064447299
0.020883799 -0.064795613 0.062453277
0.035950333 -0.06997025 0.062233999
0.086368561 -0.063101865 0.065836281
0.094605207 -0.065937944 0.064140767
0.1015631 -0.063262112 0.06316755
-0.081757754 -0.055153951 0.065229051
-0.075006209 -0.05612478 0.06466049
-0.068659052 -0.055157661 0.061538089
0.021677494 -0.050862491 0.062041201
0.038991734 -0.051683128 0.063922077
0.087310418 -0.056218721 0.065934166
0.095121123 -0.056103665 0.064523213
0.10124865 -0.054635502 0.062539354
-0.081518002 -0.045465529 0.065145858
-0.075363345 -0.045078941 0.064750336
-0.06788478 -0.045438092 0.063333355
0.035753824 -0.047288943 0.063925266
0.087252483 -0.045000058 0.065079518
0.093949817 -0.045205362 0.064481579
0.10189532 -0.046388049 0.064520992
-0.082237847 -0.035125479 0.065267786
-0.075732283 -0.034780867 0.064833157
-0.06916555 -0.03207545 0.067414589
0.021876946 -0.038075626 0.063244089
0.036238991 -0.033694632 0.063810326
0.086333491 -0.036869656 0.066290483
0.094799675 -0.035299376 0.064054191
0.10112806 -0.033685081 0.062734425
-0.082245722 -0.025402075 0.066344857
-0.075296402 -0.024202945 0.064941414
-0.067952409 -0.023729553 0.067163706
0.038269553 -0.027300604 0.064113945
0.041124456 -0.024965346 0.065115765
0.087424882 -0.024941824 0.066509843
0.094922215 -0.025251905 0.064075634
0.10266694 -0.025511766 0.065765493
-0.082828559 -0.015912414 0.064670518
-0.074507162 -0.013983176 0.064637072
-0.069464736 -0.01380715 0.065909125
0.024786711 -0.017050207 0.066642486
0.036035027 -0.015969276 0.065658882
0.040816363 -0.012464206 0.06093822
0.087125167 -0.013702808 0.066753462
0.094769962 -0.014739566 0.06305103
0.10133879 -0.014481692 0.064475477
-0.083263561 -0.0054107062 0.064477131
-0.075428061 -0.0060709156 0.065026961
-0.069404006 -0.0036024451 0.066544056
0.025615558 -0.0081261992 0.063780949
0.037073724 -0.0031589845 0.065581135
0.041457325 -0.0055993618 0.065500572
0.087592982 -0.003837018 0.066612706
0.09469042 -0.0056520989 0.063605443
0.10224883 -0.00498382 0.066047996
-0.083740003 0.0047829375 0.064832814
-0.074708663 0.0050277128 0.065426067
-0.069369644 0.0055217943 0.068451919
0.027164519 0.0057404935 0.063605666
0.037591517 0.0076486878 0.062658921
0.04210965 0.0044368207 0.063677981
0.087241292 0.0047980077 0.065402508
0.095276326 0.0059104576 0.063747831
0.10122856 0.0048251711 0.064388901
-0.08480671 0.01272102 0.064856254
-0.075807534 0.014605409 0.065873623
0.02554239 0.011442862 0.063379318
0.03437509 0.015128478 0.066032186
0.042213034 0.011899268 0.065221891
0.087507792 0.01390826 0.06721963
0.09478002 0.013796072 0.064017221
0.10190777 0.014218206 0.06535206
0.087445378 0.0249041 0.066960968
0.09487541 0.025151128 0.064762719
0.10175478 0.024821525 0.064614236
0.088251926 0.033188008 0.066784322
0.094387941 0.035244402 0.065463103
0.10134318 0.034510132 0.063354723
-0.095813237 -0.1218337 0.072910234
-0.084199823 -0.12135009 0.073776074
-0.076055542 -0.12118386 0.074450947
-0.067487739 -0.12145124 0.074338086
-0.05541544 -0.12130348 0.074023925
-0.045361109 -0.12156107 0.074161053
-0.036335226 -0.12133586 0.074389212
-0.02382895 -0.12134635 0.073150218
-0.014666672 -0.12140378 0.073446326
-0.0071368506 -0.12125935 0.07422173
0.0034974664 -0.12156692 0.073395975
0.015241017 -0.1213023 0.074141189
0.027094662 -0.12132391 0.072882421
0.034877561 -0.12178027 0.073258586
0.043700624 -0.12108263 0.074701659
0.055224217 -0.12159356 0.073736303
0.063040599 -0.12127955 0.07424669
0.074428 -0.12132987 0.07412418
0.086173519 -0.12121283 0.074376114
0.094272994 -0.12167621 0.075177945
0.10177006 -0.12011588 0.072553664
-0.10161449 -0.11595252 0.075120687
-0.094434641 -0.11638602 0.07447318
-0.084014229 -0.11753966 0.075018659
-0.076355644 -0.11884324 0.075227007
-0.064845257 -0.1183391 0.075087003
-0.055786707 -0.11862697 0.075069383
-0.044525959 -0.11810332 0.074806273
-0.034740556 -0.11810043 0.076032296
-0.025488166 -0.11781204 0.075454168
-0.014587581 -0.11839199 0.076021023
-0.0044452446 -0.11799373 0.075518347
0.0054542441 -0.11809719 0.075651206
0.015348507 -0.11792976 0.075480305
0.024092235 -0.11775935 0.075255372
0.035320222 -0.11845361 0.075861081
0.047239885 -0.11836379 0.075205691
0.05511285 -0.1181506 0.073862717
0.065357685 -0.11815457 0.076299943
0.07541512 -0.11808408 0.074976921
0.086295061 -0.11791991 0.074977286
0.09444683 -0.11506409 0.074292026
0.10183848 -0.11406166 0.074621119
-0.10121355 -0.10709211 0.074849382
-0.09412735 -0.1064347 0.074466281
-0.084993601 -0.10647386 0.074476019
-0.074677259 -0.10607587 0.074192546
-0.065743156 -0.10595 0.076150224
-0.055688299 -0.10682546 0.073429666
-0.046490978 -0.10825083 0.076655306
-0.037213068 -0.10899925 0.075161569
-0.025266355 -0.10808136 0.075767174
-0.013079559 -0.10747852 0.076163016
-0.0079004169 -0.1089009 0.07165131
0.0024124512 -0.10753208 0.076425076
0.015917515 -0.10763913 0.075275637
0.024627618 -0.10744144 0.076078653
0.032223638 -0.10705989 0.075041324
0.045471735 -0.10846561 0.074575037
0.053978443 -0.1084775 0.074806653
0.064641103 -0.10735574 0.075978696
0.076903485 -0.10796839 0.075841226
0.086090647 -0.10563636 0.073416628
0.094726734 -0.10592826 0.074263833
0.10208672 -0.10498052 0.075832531
-0.073336683 -0.095471025 0.075808503
-0.064957567 -0.095735349 0.075866587
-0.038544834 -0.09015435 0.079382777
0.032921687 -0.094134629 0.074775405
0.086917706 -0.094171241 0.073579162
0.095048338 -0.094522275 0.073190123
0.10183322 -0.093890764 0.075940989
-0.073262744 -0.084488392 0.074680157
-0.06524682 -0.084998906 0.075006522
-0.05662404 -0.088800609 0.07972756
-0.012561917 -0.080567539 0.079369664
0.015362561 -0.08632338 0.078118831
0.03389566 -0.080543637 0.074743338
0.086913772 -0.082399853 0.073126577
0.094127961 -0.084314577 0.073190406
0.10156447 -0.084708199 0.077008009
-0.075192116 -0.074082717 0.073804915
-0.066978224 -0.074079819 0.073768653
-0.014067233 -0.071971118 0.079785004
0.014119133 -0.074279904 0.079525448
0.024765313 -0.073381484 0.074608579
0.033185959 -0.076384328 0.076571964
0.087212101 -0.075899422 0.073258623
0.094306998 -0.073575534 0.073762387
0.1023773 -0.076564148 0.075505301
-0.080912352 -0.062422752 0.077236325
-0.075113036 -0.064679272 0.075838275
-0.066882923 -0.06530989 0.074810006
-0.042438671 -0.066491544 0.079852968
0.012026012 -0.060985386 0.079885602
0.020883858 -0.064795613 0.074821092
0.03530271 -0.0646073 0.074304499
0.086537682 -0.066092744 0.073717572
0.094035536 -0.06407135 0.074594505
0.10202362 -0.063865595 0.075844713
-0.080124438 -0.05825606 0.072045624
-0.074526459 -0.055745721 0.075013429
-0.067525528 -0.054566149 0.073888116
-0.04075712 -0.059972107 0.079568654
-0.015242159 -0.050519049 0.07955122
-0.0005120486 -0.050007224 0.079910785
0.018507063 -0.055247307 0.078500286
0.02167502 -0.050870776 0.074327148
0.037284061 -0.055549204 0.078244917
0.087304845 -0.054300271 0.073139571
0.094581887 -0.055837363 0.074626178
0.10252541 -0.053049207 0.076278955
-0.081510901 -0.045082301 0.074149698
-0.074953541 -0.045544446 0.073931918
-0.067543082 -0.045603007 0.074075595
-0.028597154 -0.044842124 0.079952642
0.012387931 -0.043368548 0.079727538
0.027780682 -0.042106092 0.071309045
0.035615064 -0.046213347 0.074120678
0.086939894 -0.045193288 0.07416489
0.094269611 -0.045719095 0.074347325
0.10145742 -0.046796203 0.076383546
-0.082604058 -0.033456329 0.074153714
-0.075205646 -0.035237979 0.073634811
-0.068711132 -0.035528257 0.073733248
-0.042893767 -0.030863285 0.07974945
0.01833339 -0.031974256 0.076768078
0.022425145 -0.034670413 0.07352075
0.036743216 -0.032700021 0.074938551
0.086608484 -0.034210686 0.075372502
0.094360605 -0.034937862 0.074500337
0.10171425 -0.036185078 0.075126305
-0.08255741 -0.024687668 0.075229585
-0.075443923 -0.024797713 0.073848948
-0.067128628 -0.025800997 0.077199541
-0.017848283 -0.0215047 0.079735965
0.023035929 -0.026262522 0.076044492
0.035662882 -0.02295965 0.072055757
0.086982824 -0.025340071 0.073440708
0.094521388 -0.023924539 0.074265927
0.10182334 -0.025068581 0.075975694
-0.083119139 -0.015126399 0.07484296
-0.07495372 -0.014413298 0.073564135
-0.06857685 -0.013803643 0.07670287
0.0073396266 -0.012178004 0.079706147
0.024044394 -0.0143103 0.076499544
0.03714893 -0.015261427 0.073761262
0.040356413 -0.018642485 0.076579221
