# .PCD v0.7 - Point Cloud Data file format
VERSION 0.7
FIELDS x y z
SIZE 4 4 4
TYPE F F F
COUNT 1 1 1
WIDTH 914
HEIGHT 1
VIEWPOINT 0 0 0 1 0 0 0
POINTS 914
DATA ascii
-0.38906544 -0.024188794 -0.12018167
-0.35459334 -0.023956362 -0.12954755
-0.33237332 -0.024828024 -0.12919688
-0.31965813 -0.019011568 -0.12900348
-0.3086279 -0.014434363 -0.12117222
-0.25790924 -0.012166838 -0.12812316
-0.28491271 -0.0097112926 -0.12170786
-0.26664954 -0.0097062355 -0.12929067
-0.23025395 -0.002477909 -0.12925448
-0.22709365 -0.0053004073 -0.12755957
-0.24103758 0.0015607955 -0.12206434
-0.22369131 0.0041446965 -0.12602577
-0.21390314 0.0057571642 -0.12526326
-0.15751289 0.0050048148 -0.12479243
-0.081377059 0.0098351315 -0.12090273
-0.055351797 0.015250769 -0.12571576
-0.04661778 0.016115701 -0.12675366
-0.010266207 0.019349767 -0.12387326
-0.078819297 0.021701183 -0.12622955
0.029573873 0.023460139 -0.12134068
0.075993799 0.02945748 -0.12254453
0.09759482 0.031828601 -0.12166158
0.13677962 0.037884898 -0.12569553
0.1437501 0.037923556 -0.1233127
0.14039332 0.040156133 -0.12786961
0.26125243 0.047718592 -0.12600352
0.16597864 0.051582739 -0.12540346
0.17127821 0.051159371 -0.12716082
0.20680724 0.056995183 -0.12337051
0.27171904 0.057967525 -0.12137417
0.30024946 0.058528215 -0.12666807
0.33923528 0.053864777 -0.12459399
0.37121165 0.066650935 -0.1225547
0.36016262 0.072888032 -0.12539005
0.39177901 0.083941661 -0.12544321
-0.35500976 -0.020063657 -0.11781099
-0.30761531 -0.026652988 -0.11897511
-0.37751135 -0.017027751 -0.11462082
-0.31199855 -0.015934134 -0.11794043
-0.2622399 -0.017371008 -0.11796112
-0.2497991 -0.015745277 -0.11202963
-0.20270976 -0.0066451617 -0.11483324
-0.19220546 -0.0057042371 -0.11356086
-0.18519881 -0.005217507 -0.1121796
-0.19661511 0.0065553654 -0.11760598
-0.078907445 0.009155714 -0.11753176
-0.12335479 0.015870022 -0.11903223
-0.079929344 0.019465633 -0.11275932
-0.037907973 0.024574563 -0.11275403
0.076770417 0.028111009 -0.11758885
0.051021159 0.034832239 -0.11059085
0.087768666 0.040909741 -0.1167594
0.11692125 0.04349795 -0.11311878
0.12228431 0.045355327 -0.11763378
0.21711545 0.044306882 -0.1144604
0.24364457 0.043327361 -0.11060967
0.26654392 0.044747993 -0.11593165
0.28261673 0.045137804 -0.11554977
0.32491022 0.047502395 -0.11111113
0.17163488 0.051670793 -0.11874022
0.18421364 0.051183395 -0.11118571
0.19964679 0.053329129 -0.11222856
0.21676491 0.055007853 -0.11083751
0.23213491 0.056173682 -0.11415681
0.24208707 0.055679269 -0.11338723
0.27794054 0.056617066 -0.11576866
0.29383698 0.056056309 -0.11023574
0.35836935 0.069752142 -0.11304607
0.38927931 0.072662473 -0.11451968
0.40773988 0.092639185 -0.11629958
-0.37909919 -0.031585388 -0.10101084
-0.35644031 -0.03484641 -0.10462666
-0.42000541 -0.020283423 -0.10035654
-0.40971664 -0.023638176 -0.10046651
-0.34940678 -0.024276081 -0.10082693
-0.32287547 -0.02178823 -0.10052854
-0.28604054 -0.027153358 -0.1006753
-0.27501178 -0.023167912 -0.10770164
-0.26527369 -0.020848356 -0.10774973
-0.42329752 -0.017476911 -0.10512307
-0.22540063 -0.010918356 -0.10893085
-0.23012564 -0.00080542965 -0.10453811
-0.14577532 -0.0022475817 -0.10467379
-0.21608737 0.0011053467 -0.10516637
-0.17582811 0.0064513255 -0.10720751
-0.16492695 0.0069671795 -0.10358686
-0.087927014 0.0041397377 -0.10165235
-0.072615206 0.0065689795 -0.10431358
-0.055764973 0.0082508288 -0.10259619
-0.0063015665 0.025697261 -0.10100926
0.0064404346 0.027076 -0.10019414
0.062630817 0.023789393 -0.10761489
0.096221462 0.027022932 -0.10398544
0.057538211 0.034779795 -0.10701114
0.12869406 0.031080574 -0.10450203
0.15060575 0.033681124 -0.10420653
0.17780849 0.037648059 -0.10700417
0.18064672 0.049075656 -0.10412528
0.20838556 0.040530317 -0.1033884
0.23583578 0.042222433 -0.10509609
0.2601693 0.041678879 -0.10406548
0.30223149 0.04384961 -0.10544925
0.31395635 0.045502827 -0.1078907
0.23843065 0.052815057 -0.10060691
0.39568335 0.073500499 -0.1055853
0.41022295 0.093419507 -0.10071801
-0.37837523 -0.032422941 -0.096765615
-0.31261998 -0.032619454 -0.097699985
-0.30704987 -0.03160179 -0.098252594
-0.37557858 -0.021042857 -0.099619403
-0.31787467 -0.021992233 -0.095682167
-0.30836764 -0.02010949 -0.097540215
-0.25637543 -0.022029588 -0.091043323
-0.29442984 -0.017375913 -0.098616965
-0.24647114 -0.018174144 -0.097406536
-0.21710789 -0.012432517 -0.097372785
-0.20300373 -0.01039213 -0.099107154
-0.25461581 -0.0093487455 -0.092001833
-0.24667674 -0.0068285642 -0.093767375
-0.21335621 -0.00011795817 -0.097836882
-0.1805452 -0.0077775503 -0.098496877
-0.17329577 -0.0083905496 -0.090149775
-0.14245969 -0.0035687685 -0.096265465
-0.15058616 0.0077267708 -0.098941825
-0.075180285 0.0041273804 -0.093711942
0.0071686935 0.015027468 -0.098453276
-0.028976709 0.022337843 -0.098097697
-0.0079718437 0.024343582 -0.095138639
0.0061402321 0.026680699 -0.098475233
0.02467294 0.027839728 -0.09258911
0.037456024 0.029129762 -0.091006935
0.089759171 0.02399957 -0.092774846
0.064772442 0.033596493 -0.097290888
0.09967351 0.036655646 -0.090797961
0.11389899 0.039429184 -0.096624509
0.15749095 0.032974593 -0.096743226
0.21151271 0.038947057 -0.093592703
0.16079442 0.04478946 -0.094791032
0.17532225 0.047359157 -0.099016622
0.28098541 0.0405357 -0.095789857
0.26616102 0.052100047 -0.097768933
0.29937935 0.052794468 -0.092829235
0.33316898 0.056183241 -0.090511851
0.34035274 0.058758467 -0.095611997
0.37799394 0.062436849 -0.094598986
0.38305768 0.076956481 -0.092458889
-0.36606097 -0.036599122 -0.089609377
-0.3395282 -0.038298488 -0.084807791
-0.29524356 -0.031181009 -0.088646963
-0.3778671 -0.023277881 -0.082417876
-0.39724547 -0.018776387 -0.083362564
-0.26520139 -0.013207378 -0.085020214
-0.42641008 -0.008438291 -0.089865454
-0.24621886 -0.0073773628 -0.089837946
-0.21883874 -0.0033817505 -0.081807032
-0.1235571 -0.0025250195 -0.089060292
-0.10407254 -0.00043198001 -0.087379389
-0.039169051 0.0075012515 -0.087669112
-0.067764491 0.015312504 -0.084342279
0.041974202 0.01720248 -0.086636163
0.10508126 0.024231136 -0.082030341
0.14674936 0.029111428 -0.080652632
0.052567132 0.030357668 -0.087225452
0.19981799 0.036640257 -0.088291131
0.20365074 0.037146147 -0.088537529
0.2281909 0.039014667 -0.086668596
0.24020712 0.038561262 -0.086240016
0.31426072 0.052413635 -0.081596792
0.32747194 0.054284878 -0.084150575
0.33952135 0.056287076 -0.081644207
0.35967261 0.051229082 -0.082604803
0.357063 0.063410625 -0.087289691
0.38283038 0.075492039 -0.084887229
0.42287067 0.085136481 -0.086571425
0.42560369 0.099635363 -0.084062472
-0.39386588 -0.03234994 -0.075358823
-0.38569796 -0.034017354 -0.075487055
-0.31858513 -0.037250042 -0.070826426
-0.2928687 -0.032860372 -0.070847005
-0.28867617 -0.031657849 -0.074933417
-0.41386658 -0.027683493 -0.072085537
-0.36276549 -0.027721345 -0.070341684
-0.3272554 -0.026521439 -0.073203914
-0.30180866 -0.022084516 -0.077137619
-0.27038792 -0.027790522 -0.073647514
-0.26761714 -0.027269421 -0.072216891
-0.41550624 -0.014801396 -0.076365978
-0.19852978 -0.013576481 -0.073600039
-0.18466225 -0.011931262 -0.073168717
-0.42990601 -0.0097952904 -0.076629028
-0.23202412 -0.0053965528 -0.079497732
-0.20423323 -0.0019937046 -0.078675963
-0.11790881 -0.0037578568 -0.073933862
-0.16836785 0.0018356829 -0.073978014
-0.13005479 0.0064203534 -0.073235214
-0.12833935 0.0073446101 -0.079744011
-0.051159889 0.0043063448 -0.0734834
-0.022948988 0.0074569988 -0.07040938
0.0086602829 0.01159656 -0.073786438
0.073921263 0.019370064 -0.072103597
0.0050497651 0.022928804 -0.074329004
0.023209019 0.025611632 -0.078530863
0.13044296 0.027024297 -0.07971292
0.19408719 0.034701239 -0.079253152
0.22177608 0.037790719 -0.078313909
0.15166713 0.041314069 -0.079425931
0.19110689 0.045717198 -0.076024197
0.27161995 0.048505239 -0.071570277
0.28831846 0.049470827 -0.074248098
0.33917177 0.043365471 -0.074082784
0.3281635 0.052807271 -0.070388637
0.37728152 0.058663808 -0.071039706
0.3802315 0.060603388 -0.076789327
0.3766278 0.070853658 -0.070823215
0.39984006 0.07029932 -0.07898178
0.42624864 0.084221609 -0.071727976
0.43933773 0.093635872 -0.071765319
0.43334326 0.10306361 -0.073567934
-0.35514426 -0.040264834 -0.066993222
-0.28472188 -0.031432919 -0.068053752
-0.42401725 -0.025358338 -0.066259176
-0.34981054 -0.02932998 -0.060199384
-0.32037121 -0.026032418 -0.067602679
-0.25202757 -0.023642022 -0.068104915
-0.26749235 -0.015893135 -0.065034926
-0.20066915 -0.014444912 -0.065736234
-0.19037674 -0.013005586 -0.068668745
-0.1726459 -0.011105295 -0.064472675
-0.44754222 -0.0042459862 -0.066477731
-0.18818939 -0.001570154 -0.060501803
-0.15461636 -0.0086782631 -0.06845852
-0.17843595 2.2217602e-05 -0.067173503
-0.1161609 0.0074724127 -0.065187022
-0.073200345 0.001124735 -0.067222342
-0.065197729 0.0022529494 -0.069577709
-0.074865058 0.012240769 -0.061823081
-0.055403329 0.014528009 -0.060112283
0.015308157 0.011604862 -0.063028231
0.060800355 0.01722246 -0.064619638
0.078048855 0.019389505 -0.065751299
0.097164065 0.021497712 -0.062009584
0.11355589 0.023459932 -0.061340638
0.12500925 0.025141351 -0.066545896
0.14303201 0.027328413 -0.06653472
0.15174964 0.028126461 -0.062112629
0.17445712 0.031140799 -0.066499695
0.19509026 0.033379719 -0.061949376
0.21749206 0.036145139 -0.063101813
0.24092677 0.03656764 -0.068146579
0.28647178 0.036996342 -0.065059088
0.29766965 0.03782877 -0.067154251
0.30954397 0.038413383 -0.060325343
0.21451101 0.047749523 -0.067581028
0.22345032 0.048245274 -0.064323738
0.28740829 0.048773766 -0.066994965
0.35715723 0.048150245 -0.061774708
0.35354412 0.059031781 -0.062213894
0.36633459 0.052812226 -0.068496473
0.37680823 0.057770174 -0.061880112
0.40876821 0.073226295 -0.065193571
0.40930966 0.086665571 -0.06726177
0.41505712 0.08920332 -0.062072255
-0.38293803 -0.035726778 -0.055380955
-0.2791124 -0.030804008 -0.055013835
-0.31262976 -0.025570365 -0.050686542
-0.30596095 -0.024298135 -0.057154167
-0.28125238 -0.019413454 -0.058450822
-0.44406024 -0.0069091315 -0.057562657
-0.16238774 0.0014493554 -0.057943925
-0.0052768253 0.0088459998 -0.055430379
-0.080087461 0.01132772 -0.054889403
-0.072401553 0.01224013 -0.053913303
0.027995467 0.012815686 -0.050969727
0.057194814 0.016395345 -0.053544361
-0.00036245584 0.02116918 -0.059226349
0.0038501099 0.021621011 -0.057866365
0.10792731 0.022587763 -0.055807989
0.11117584 0.022945423 -0.053587805
0.21798769 0.036001943 -0.058321051
0.29805046 0.037349384 -0.05707711
0.15759131 0.040165387 -0.054830186
0.24887069 0.047336478 -0.056836069
0.33898336 0.053986151 -0.055988349
0.37074262 0.06727156 -0.057345651
0.3808409 0.071826689 -0.059242323
0.39282212 0.076902717 -0.050738908
0.40420857 0.082919665 -0.057801917
0.45528349 0.1038277 -0.056965556
-0.40451774 -0.032267168 -0.045649514
-0.30620873 -0.036124714 -0.046782479
-0.43218496 -0.024718769 -0.046913486
-0.42310405 -0.02747393 -0.048461955
-0.38063979 -0.024848107 -0.0404316
-0.30738688 -0.024711411 -0.04971014
-0.27020136 -0.028866647 -0.045365386
-0.41249466 -0.019084029 -0.041917004
-0.19625421 -0.014432729 -0.040473834
-0.16648111 -0.010807257 -0.043748714
-0.21533598 -0.0052245813 -0.040224448
-0.078970477 -0.0001913989 -0.043595269
-0.10624949 0.0080210231 -0.043047775
-0.096841052 0.0091661513 -0.043954901
-0.05654702 0.0025289147 -0.043589372
-0.049493879 0.0033861008 -0.043959409
-0.023647316 0.0065056197 -0.040046699
0.02862975 0.012851382 -0.040942993
0.055630952 0.016125714 -0.040612385
0.041284278 0.025935521 -0.046989106
0.12860745 0.036529046 -0.046932522
0.14917804 0.039000481 -0.041061919
0.19708465 0.033285055 -0.040287189
0.293075 0.036855515 -0.040788602
0.30539852 0.037819251 -0.049129352
0.16619214 0.041100897 -0.04905767
0.24701674 0.047178887 -0.047711145
0.35718942 0.047826927 -0.042838741
0.33838099 0.05369056 -0.048255987
0.35244882 0.058132529 -0.045720324
0.39509898 0.077790037 -0.045958094
0.40832263 0.084022224 -0.042846628
0.43866432 0.088653632 -0.040705509
-0.40600139 -0.032326754 -0.032620803
-0.31202307 -0.037133217 -0.03337254
-0.4340888 -0.025160355 -0.0313977
-0.38349622 -0.024428966 -0.030710576
-0.33307689 -0.028553028 -0.036208164
-0.32614806 -0.027638458 -0.039837722
-0.29079005 -0.02170979 -0.031816583
-0.44666782 -0.019736819 -0.037939511
-0.25048822 -0.012125562 -0.035736244
-0.20709918 -0.015772935 -0.03452393
-0.15996137 -0.010047546 -0.036156408
-0.44274831 -0.009704588 -0.0365474
-0.1902488 -0.0021983306 -0.036026586
-0.17789656 -0.00071779755 -0.031645223
-0.11264174 -0.004292855 -0.039566804
-0.15413766 0.0021956111 -0.039207567
-0.11876046 0.0064534405 -0.030928759
-0.10521223 0.0081341825 -0.039962072
-0.097286552 0.009078145 -0.035690013
-0.056108374 0.0025497335 -0.035715237
-0.014180902 0.0076199332 -0.031753775
-0.0069507957 0.0085174767 -0.036715195
0.083630159 0.019517118 -0.039308131
0.019514307 0.023256514 -0.037753135
0.096236154 0.032555301 -0.035598982
0.14948219 0.039023306 -0.037637055
0.24393032 0.035771389 -0.032922018
0.29813603 0.037207142 -0.038902115
0.17099793 0.041633118 -0.037538443
0.19528636 0.044574838 -0.036353517
0.2121328 0.046624437 -0.037775189
0.27816278 0.047508311 -0.031130198
0.28602809 0.047866765 -0.030291043
0.36247915 0.062611334 -0.039921302
0.3843787 0.072932787 -0.030332441
0.41506493 0.07446304 -0.035880994
0.42062196 0.090038411 -0.033095445
0.43430167 0.098616317 -0.035226028
0.45072436 0.11111118 -0.037928417
-0.40001321 -0.033317018 -0.027755195
-0.39783907 -0.033671822 -0.021317769
-0.28825268 -0.032869231 -0.028438658
-0.40462267 -0.02126817 -0.020880805
-0.3645663 -0.027294436 -0.027077666
-0.35084477 -0.029731018 -0.028006807
-0.26647392 -0.028074637 -0.025064105
-0.41551739 -0.01904686 -0.02517896
-0.24498172 -0.010615908 -0.024648858
-0.23023824 -0.018750893 -0.021794878
-0.21667935 -0.016981488 -0.023285162
-0.17668869 -0.012105457 -0.029217845
-0.24142814 -0.0095985513 -0.026053604
-0.2377277 -0.0086278552 -0.025833696
-0.14876387 -0.0087196566 -0.02873694
-0.08047618 -0.0004601609 -0.022668976
-0.16900882 0.0003371163 -0.025968719
-0.12990159 0.0050647315 -0.021896036
-0.068032563 0.0010655997 -0.026593085
-0.022838801 0.0065503283 -0.027073186
-0.00903574 0.0082333339 -0.029130567
-0.086987495 0.010274422 -0.022749268
0.040831652 0.014275214 -0.027220218
0.072491385 0.018090662 -0.021045439
0.033450749 0.024896398 -0.02538006
0.051085271 0.02703377 -0.024896167
0.06254366 0.028411545 -0.021898087
0.10173686 0.021653123 -0.02456983
0.083250329 0.03093219 -0.02398668
0.17353581 0.030365912 -0.025149912
0.20355222 0.033988956 -0.020667039
0.22458652 0.03618801 -0.026809871
0.28757828 0.036495514 -0.028147206
0.29009649 0.036636405 -0.02820899
0.3119936 0.038313553 -0.026181513
0.25993156 0.047036208 -0.022262149
0.28452486 0.04778073 -0.026800629
0.35528693 0.047011685 -0.024385275
0.34130156 0.054270875 -0.023485417
0.35177669 0.05780023 -0.028138231
0.37228027 0.055268869 -0.023246873
0.36022332 0.061459716 -0.021580303
0.37058443 0.066876732 -0.025515743
0.38387483 0.060425967 -0.023424875
0.39309818 0.07672748 -0.024913168
0.40023625 0.079869144 -0.029421818
0.41458315 0.086624652 -0.028895278
0.43698967 0.086412892 -0.026341481
0.45745289 0.10173985 -0.027321868
0.45173463 0.110825 -0.027618838
-0.40700233 -0.032333873 -0.011594481
-0.37568882 -0.037283286 -0.016714847
-0.28500146 -0.032246906 -0.018896136
-0.27862081 -0.030911302 -0.011628182
-0.37335441 -0.026027905 -0.013802599
-0.34736019 -0.029737355 -0.016128916
-0.33310831 -0.028637435 -0.016691789
-0.32978576 -0.028243121 -0.010665938
-0.25839937 -0.026085602 -0.019592995
-0.26921639 -0.017045239 -0.012071785
-0.22232005 -0.017687593 -0.017998228
-0.17310257 -0.011737066 -0.013037212
-0.22002281 -0.0058910903 -0.016401181
-0.14846276 -0.008755656 -0.011133811
-0.1352143 -0.0071354103 -0.014281745
-0.12919149 -0.0063943993 -0.016789464
-0.11461885 -0.0046265232 -0.016778599
-0.11388809 0.0069905901 -0.017795853
-0.061770052 0.0017630905 -0.011464564
-0.048059709 0.0034433845 -0.015593836
-0.0013576532 0.0091050174 -0.014597062
-0.082893141 0.010730659 -0.012896418
-0.03530553 0.016530208 -0.019318216
0.036589548 0.013720103 -0.017382784
0.046465646 0.014897085 -0.012241377
0.027502872 0.024133259 -0.015265558
0.030299861 0.024485439 -0.018394619
0.044317558 0.026155513 -0.010970006
0.092673138 0.020519048 -0.016185418
0.12106299 0.023978382 -0.019873921
0.097118594 0.032566421 -0.012250269
0.21694535 0.035576507 -0.011611393
0.32617068 0.039815873 -0.017522808
0.24784753 0.047023315 -0.014706707
0.28959388 0.047985394 -0.010902839
0.30432022 0.049073178 -0.01667925
0.33773202 0.041694894 -0.014117507
0.35789925 0.060316101 -0.010275267
0.37783355 0.070026137 -0.019708358
0.42470294 0.078856677 -0.018184153
0.45540771 0.11341161 -0.016426859
-0.41142684 -0.03167621 -0.0012778384
-0.37944856 -0.036505744 -0.0061892793
-0.3292554 -0.039730333 -0.005058872
-0.38893956 -0.023723625 -0.0037705386
-0.29109144 -0.021862244 -0.0093681607
-0.445586 -0.010160121 -0.0014967149
-0.41726744 -0.019074088 -0.00054821628
-0.26361406 -0.015674284 -0.0088596968
-0.25497615 -0.013451088 -0.0056519806
-0.18850099 -0.013648714 -0.0024690777
-0.23581183 -0.0083689038 -0.0032163947
-0.15380454 -0.0094249062 -0.0059894882
-0.13266854 -0.0068751308 -0.0024943929
-0.11898247 -0.0051999586 -0.0060878722
-0.16447839 0.00079556322 -0.0037803184
-0.15539645 0.0018967092 -0.0036209822
-0.12323742 0.005796304 -0.0031714181
-0.11657976 0.0066183684 -0.0066731134
-0.050725631 0.0030694306 -0.0033229981
-0.041344531 0.0042187693 -0.0060511203
-0.087369233 0.010170646 -0.0087589165
-0.067779846 0.012531649 -0.0049828766
-0.052269638 0.014420333 -0.0066986717
-0.015919596 0.018815801 -0.0031957147
0.051156774 0.015422399 -0.0015965011
0.055380099 0.027475461 -0.0055859163
0.10091501 0.02146166 -0.0022672322
0.21882914 0.035740837 -0.0043471069
0.24369673 0.035637617 -0.00029018056
0.29859403 0.037085384 -0.0017297752
0.16565472 0.040862057 -0.0076426696
0.17195708 0.041598432 -0.00077725016
0.23141263 0.047412571 -0.0040472518
0.24002506 0.047141954 -0.0080383532
0.26227486 0.046976756 -0.0019502807
0.27351332 0.047225557 -0.0047851335
0.32672957 0.051355172 -0.0069649559
0.33841163 0.053522646 -0.0051034242
0.35176435 0.057708852 -0.0065089939
0.4121446 0.085017599 -0.00020556909
0.44588044 0.105389 -0.0076838098
0.46700111 0.1092537 -0.0021897492
-0.38938874 -0.035043262 0.0019239094
-0.36492616 -0.038744468 0.0059473719
-0.35767609 -0.03473353 0.0082107969
-0.30712014 -0.036487471 0.003547363
-0.44840023 -0.02070255 0.0066892225
-0.39851493 -0.022325642 0.0065704864
-0.36888123 -0.029396404 0.00080920418
-0.34126005 -0.029569346 0.0070428811
-0.44279328 -0.011125352 0.0099302866
-0.4246695 -0.017252235 0.00074575655
-0.23333053 -0.019470535 0.0067377817
-0.24067137 -0.0095061716 0.0037978739
-0.17562683 -0.00059094885 0.0044946391
-0.10312903 -0.0033427186 0.0099468017
-0.11009981 0.0073713954 0.001385374
-0.035650957 0.0048704478 0.0034272126
-0.028573453 0.017248983 0.0045222044
0.015215293 0.011022781 0.0079555623
0.02656877 0.012414417 0.0044920389
0.034452111 0.013365351 0.0058158282
0.07994096 0.01886959 0.0092945676
0.015099268 0.022555238 0.0025644507
0.065540262 0.028673615 0.0027970411
0.092459872 0.020408122 0.0044867788
0.12816788 0.036244482 0.0093454206
0.18468687 0.031600609 0.0035578869
0.19538906 0.0329086 0.0012155566
0.25152218 0.035524733 0.0005990155
0.26600078 0.035577659 0.0037928261
0.30309623 0.037385661 0.0076909158
0.32032648 0.039059695 0.00097837485
0.21581918 0.046875544 0.0099543147
0.2266686 0.047485583 0.0075129811
0.35737407 0.059990585 0.0090883579
0.36605152 0.06442371 0.0075058481
0.38858941 0.062375292 0.0051252642
0.39781082 0.078675494 0.0037444867
0.42965585 0.081294328 0.0028061029
0.45758629 0.10063982 0.002276663
0.4674466 0.11320235 0.0074205962
-0.35519376 -0.041075349 0.012986811
-0.34264222 -0.041214637 0.019056942
-0.33878249 -0.040890869 0.019886699
-0.38252503 -0.036249593 0.013098432
-0.37661159 -0.025641669 0.010665355
-0.35466957 -0.029714987 0.013561712
-0.45991543 -0.014935439 0.015856486
-0.43453884 -0.014090441 0.014899704
-0.20282798 -0.015458748 0.014983591
-0.19156119 -0.014075456 0.010996517
-0.46708119 -0.0081807738 0.011481341
-0.21040328 -0.0048380038 0.011320082
-0.15649566 -0.0098257484 0.012057906
-0.075620733 -1.8061139e-05 0.013003409
-0.13296609 0.0045489753 0.013151947
-0.11419354 0.0068334835 0.011432862
-0.053284507 0.0026930668 0.01267766
-0.020819638 0.0066235322 0.014645088
0.00047317147 0.0092076473 0.01442332
0.088340953 0.019854739 0.017536532
0.21596453 0.035341743 0.016528305
0.23117322 0.035937533 0.016246201
0.24596868 0.035513755 0.018863562
0.30280888 0.037349418 0.010467565
0.1958048 0.044440523 0.011643421
0.25744972 0.046831865 0.01992562
0.2710759 0.047066282 0.018155793
0.3298153 0.04015366 0.019544892
0.33303827 0.040688403 0.013337096
0.3500948 0.044935659 0.014244288
0.33169988 0.052068509 0.010453941
0.36607635 0.064725436 0.019256651
0.38677672 0.073801249 0.015023565
0.40868652 0.071119837 0.017944388
0.41645017 0.087081164 0.010576678
0.43340781 0.083583735 0.012765002
0.44322583 0.090016417 0.016428562
0.44997916 0.10885252 0.019969581
0.46491209 0.10764714 0.015523064
-0.3594065 -0.04086455 0.028420646
-0.33739245 -0.040785141 0.022801613
-0.37741843 -0.036930636 0.021869719
-0.37405112 -0.02609951 0.027648147
-0.32857043 -0.028256714 0.029827766
-0.31752354 -0.02666047 0.02595482
-0.42635626 -0.016399775 0.025048116
-0.21144909 -0.016536959 0.022826549
-0.17426066 -0.012016966 0.0207956
-0.1692674 -0.011431837 0.025806157
-0.21443304 -0.0053680344 0.02133175
-0.17424852 -0.000490595 0.020762172
-0.14807934 -0.0088767754 0.029551392
-0.091730297 -0.0020108172 0.022317117
-0.014388412 0.0073650922 0.024028715
0.019705955 0.011492661 0.026138071
0.020508341 0.011586291 0.027039697
0.082517281 0.019103194 0.028470319
0.038206443 0.025262658 0.025903109
0.043265186 0.025872566 0.026828527
0.053258516 0.0270823 0.027466275
0.16697861 0.029367879 0.024077207
0.11860548 0.035024568 0.02390838
0.13139299 0.036568474 0.025716443
0.18837473 0.031966951 0.023258988
0.2187043 0.035602093 0.026413701
0.24281767 0.035532147 0.028561005
0.25514421 0.035396937 0.027591571
0.32447082 0.039437037 0.026480064
0.16491304 0.040644936 0.023301104
0.22408172 0.047373861 0.027421821
0.24618849 0.046883497 0.025572412
0.31564063 0.049974568 0.023554213
0.33810142 0.041592456 0.02840366
0.39005479 0.075205207 0.022700105
-0.37819219 -0.037386347 0.032045059
-0.28670314 -0.032800451 0.032278091
-0.27468711 -0.030242417 0.03580324
-0.42835206 -0.027272871 0.031054243
-0.41054577 -0.020180671 0.032849092
-0.38028279 -0.02518006 0.032195643
-0.3747496 -0.026022088 0.034215212
-0.36363384 -0.028948814 0.03921815
-0.32503551 -0.027781844 0.033348914
-0.27034277 -0.029222045 0.034350906
-0.26549196 -0.028088709 0.036728945
-0.19544943 -0.0031318222 0.037594303
-0.1707456 -0.0001418679 0.039311957
-0.13615009 0.0040592602 0.038319319
-0.095427237 0.0090200789 0.033352531
-0.060418978 0.0017328823 0.035647642
-0.058758218 0.0019427256 0.033618059
-0.074345663 0.011569593 0.035312813
-0.041510917 0.015550712 0.035870958
0.034323037 0.01324947 0.030144306
0.00066749938 0.020650908 0.039944619
0.030688869 0.024326889 0.031690054
0.062518515 0.028171293 0.035841249
0.14846939 0.027068295 0.037226364
0.078591704 0.03012337 0.035320885
0.13553861 0.037036244 0.03427602
0.21826693 0.035512183 0.038363058
0.16264251 0.040319301 0.035515431
0.19439179 0.044189513 0.031014424
0.21543907 0.046717934 0.037089396
0.27172878 0.047026321 0.031725939
0.28346843 0.047461644 0.037836563
0.29259348 0.047989424 0.030424306
0.35547191 0.059002846 0.031262763
0.37673497 0.05705896 0.037342716
0.40381217 0.081234142 0.031331722
0.42014438 0.089441285 0.03218507
0.45371932 0.11236695 0.031525545
-0.36054993 -0.029356465 0.040200271
-0.44538301 -0.019833596 0.046898324
-0.43116382 -0.014134981 0.040427413
-0.28066745 -0.01987947 0.040772893
-0.21114941 -0.0050840355 0.049158081
-0.13660912 0.0039644167 0.047846813
-0.060183771 0.0017297491 0.043333296
-0.039665908 0.015749177 0.042047009
0.035957955 0.01338951 0.044294581
0.062587962 0.016636722 0.040286973
0.017386176 0.022676993 0.04047114
0.033035822 0.0245691 0.042041391
0.12180281 0.023803407 0.044447128
0.1371257 0.025641879 0.049414601
0.16174313 0.02865818 0.042192388
0.12866448 0.036149338 0.047171585
0.13807051 0.037307192 0.04309386
0.18958041 0.032022767 0.045242343
0.19176024 0.032289483 0.044692826
0.26044387 0.03534146 0.045366798
0.28167731 0.035887443 0.047458895
0.22536969 0.047301546 0.049985275
0.38347763 0.0599856 0.043527592
0.38114291 0.071218349 0.044420626
0.44494551 0.093074925 0.044215698
0.43819803 0.10219424 0.049862076
0.45761484 0.11438832 0.048073299
-0.37351674 -0.037612259 0.059665807
-0.31246686 -0.037425242 0.059150666
-0.37822777 -0.02549519 0.056123625
-0.35054976 -0.029994767 0.05386059
-0.30668965 -0.024937864 0.053985436
-0.26318967 -0.015744979 0.053862721
-0.21187398 -0.016662832 0.05629617
-0.20823827 -0.0046616881 0.055204399
-0.1787466 -0.0010230683 0.056845002
-0.14702325 -0.008830389 0.052072465
-0.12445797 0.0054956158 0.054793939
-0.11763468 0.0064645754 0.059355732
-0.10351187 0.0080036931 0.052128792
-0.0033231415 0.0086824261 0.058522653
0.0062230267 0.0097848549 0.055314679
-0.0078155128 0.019774485 0.059138384
0.013078541 0.010591513 0.05218998
0.041955642 0.014206814 0.059555456
0.011413261 0.021993192 0.0559467
0.031684656 0.024495099 0.057176359
0.042186208 0.02570332 0.054320604
0.052190527 0.026891517 0.052254111
0.10206811 0.021422265 0.056702562
0.11515582 0.022969013 0.051241215
0.24523558 0.035439283 0.057692524
0.26100791 0.03532568 0.050603017
0.28256518 0.035911191 0.05227159
0.17782375 0.042143278 0.053299993
0.22126718 0.047228262 0.054937094
0.2612558 0.046753578 0.050521929
0.31879199 0.050212093 0.051397625
0.35834002 0.060313266 0.052277386
0.41706255 0.075864606 0.050879292
0.4147976 0.088048719 0.05795119
0.44183528 0.091513693 0.052167032
0.45237976 0.099694595 0.050108135
-0.35344547 -0.041126527 0.062043928
-0.4068104 -0.030718025 0.067049667
-0.37881735 -0.024891702 0.069886841
-0.32828009 -0.027694061 0.066321552
-0.27005607 -0.028641827 0.068692118
-0.26473829 -0.027684953 0.062722132
-0.42823744 -0.013006691 0.062461704
-0.25624561 -0.013381965 0.067010172
-0.21414092 -0.0051139104 0.06239431
-0.18670502 -0.0018252996 0.06175055
-0.1530728 -0.0091337096 0.066571735
-0.1252297 -0.0058109425 0.065286845
-0.086057276 -0.0013003155 0.060095809
-0.016108297 0.018952722 0.063362867
-0.003698945 0.020368077 0.061793521
0.055390425 0.027879532 0.067763962
0.070966259 0.029753905 0.067524202
0.15694147 0.028191291 0.060788482
0.13575044 0.037244104 0.060813084
0.30002695 0.03712038 0.061021
0.17606056 0.042345271 0.064959601
0.1804599 0.042882718 0.065028936
0.20752263 0.046316765 0.067635685
0.30969653 0.049898941 0.068147421
0.3415516 0.042508245 0.062462144
0.3346923 0.052693769 0.061277069
0.37785447 0.05774748 0.062973693
0.37086639 0.067009121 0.061958972
0.40127307 0.068426549 0.06133803
0.38286394 0.072797954 0.068548128
0.41740125 0.09072759 0.068178587
0.44921163 0.10021456 0.069961742
0.45406312 0.1061077 0.067643471
-0.36200804 -0.039479762 0.075620674
-0.31955478 -0.037454773 0.075818792
-0.30961961 -0.036207613 0.07265009
-0.27936697 -0.030394338 0.073059514
-0.40772542 -0.028983008 0.079307616
-0.3714841 -0.025983855 0.070420802
-0.33033109 -0.027689818 0.070230775
-0.29021767 -0.020708367 0.074185416
-0.2708489 -0.02820519 0.075953536
-0.42466527 -0.012856074 0.072686851
-0.24740949 -0.010015277 0.077446893
-0.20541972 -0.0028603834 0.077486984
-0.12178203 -0.0046517658 0.075645365
-0.097196937 -0.0019873111 0.071928121
-0.17694023 0.00071729603 0.078686602
0.075059332 0.019571515 0.079144321
-0.0073811188 0.021065373 0.076782063
0.051755015 0.028337544 0.07778462
0.09389095 0.021090124 0.070869632
0.10613173 0.023348114 0.079248331
0.10816602 0.034624472 0.072095089
0.14933132 0.039961342 0.075874098
0.26039615 0.036808174 0.079762951
0.21035409 0.046964791 0.071530297
0.36778852 0.054016203 0.078803614
0.39945379 0.068630651 0.073271111
-0.38244456 -0.034004033 0.08551985
-0.37950081 -0.035186142 0.080709271
-0.33372724 -0.038453802 0.083622806
-0.31425351 -0.036187716 0.080180861
-0.42726791 -0.02145762 0.085035875
-0.3213537 -0.024590274 0.086839892
-0.30691195 -0.0227607 0.083446771
-0.25258863 -0.022232478 0.087268792
-0.41073135 -0.014939795 0.087898903
-0.25543612 -0.010706469 0.088792786
-0.20414343 -0.002215015 0.081769884
-0.16138904 -0.0088821948 0.081028871
-0.10838444 -0.0018883063 0.085430175
-0.084683679 0.0012467109 0.087374434
-0.074964769 0.013447873 0.081858367
0.036868975 0.015219999 0.081654742
-0.016657323 0.020383252 0.080840349
0.11078968 0.024059318 0.080641963
0.093065038 0.034471501 0.086893022
0.11360706 0.036931213 0.086705625
0.12162328 0.03713214 0.080796257
0.16056693 0.030622281 0.084845975
0.17752653 0.033342775 0.089531347
0.18452422 0.034010753 0.088369809
0.20723766 0.047502726 0.080774933
0.24603538 0.049136538 0.085148469
0.31823549 0.041416921 0.089635283
0.33045542 0.042588983 0.087398522
0.29779744 0.050226036 0.081868023
0.31219721 0.051369354 0.08107692
0.36099863 0.051103547 0.082706109
0.3919315 0.065711737 0.080149025
0.4051134 0.086086944 0.084202364
0.43157274 0.102975 0.084532931
-0.35719478 -0.037575144 0.093699485
-0.36191711 -0.02539121 0.093967438
-0.34236085 -0.025885284 0.094534189
-0.29014379 -0.029600434 0.095643818
-0.24136409 -0.017598413 0.096251838
-0.18462411 -0.010160496 0.091889516
-0.17212768 -0.0080913026 0.09509863
-0.16269913 0.0044834553 0.093232885
-0.029426187 0.00936356 0.096064381
-0.066794813 0.016956002 0.098098278
-0.038475703 0.019500574 0.0930783
-0.012792926 0.010513259 0.090982042
0.024955753 0.015539005 0.093779325
0.030545384 0.016065355 0.092935875
0.011394791 0.026031421 0.095864996
0.034399562 0.028776038 0.095630072
0.11125976 0.02656265 0.096964747
0.049315203 0.031387102 0.099974923
0.16962376 0.033491574 0.096189953
0.24399714 0.038651235 0.092648789
0.28553489 0.039992414 0.096634977
0.28900957 0.051390007 0.093899131
0.42828888 0.089979984 0.095202088
-0.378286 -0.032099012 0.10253868
-0.33608747 -0.035598695 0.10222257
-0.39659268 -0.027568884 0.10333543
-0.31383833 -0.020819509 0.10177235
-0.27623779 -0.024822688 0.10477444
-0.27334201 -0.012174712 0.10492079
-0.26748294 -0.010932101 0.10423099
-0.15135263 -0.0032891063 0.10645529
-0.17661835 0.0052405419 0.10580672
-0.13565548 0.0091975015 0.10100588
-0.029161502 0.023247968 0.10651103
0.046637572 0.020970929 0.10773632
0.075107351 0.023811422 0.10500544
0.06556201 0.034816302 0.10696621
0.19805321 0.038339738 0.10340692
0.13436373 0.042383414 0.1034675
0.22258718 0.053246818 0.1059601
0.28620893 0.054285154 0.10925065
0.31777561 0.056717433 0.10862862
0.37739462 0.063086927 0.10345398
0.38253495 0.066696949 0.10849266
0.40074688 0.076118566 0.1086604
0.40807337 0.091080248 0.10054361
-0.32707006 -0.030806134 0.11733089
-0.35435054 -0.020445447 0.11933939
-0.31687081 -0.029721305 0.11596304
-0.2811802 -0.023292946 0.11535726
-0.29176337 -0.013234987 0.11698072
-0.15693888 -0.0019226482 0.114763
-0.071145296 0.008574713 0.11527456
-0.15690289 0.010309579 0.11691261
-0.099329516 0.01738463 0.11731153
-0.052585512 0.010432555 0.11375791
-0.074019328 0.020756533 0.11844341
-0.037370399 0.024527349 0.11600602
0.079375274 0.02708216 0.11641271
0.091621727 0.027445506 0.11204661
0.10340656 0.029562596 0.11474669
0.075405225 0.038984399 0.11898689
0.1936729 0.039650861 0.11148347
0.095883846 0.040436551 0.11513191
0.16270091 0.049003836 0.11700194
0.22782056 0.043993473 0.1156103
0.2860347 0.044957384 0.11838036
0.29060063 0.044410177 0.11540767
0.32102644 0.048042096 0.11902847
0.20144615 0.052700832 0.11308053
0.24980925 0.053840786 0.11094309
0.26106822 0.056148317 0.11990047
0.3113625 0.056373656 0.11002448
0.33891064 0.061124656 0.11257529
0.37973189 0.068458289 0.11938227
0.40352398 0.079154678 0.1136011
0.41572666 0.086304307 0.11299331
0.40393424 0.092191279 0.11502892
0.41983682 0.094447464 0.11129003
-0.33555508 -0.030126918 0.12355945
-0.35597268 -0.023521204 0.12842801
-0.38119248 -0.019600434 0.12249699
-0.29017314 -0.018244701 0.12858944
-0.1901077 -0.0027010026 0.12587513
-0.16229811 -0.00032210071 0.12292255
-0.17220655 0.0088802306 0.1266471
-0.15279548 0.0013531223 0.12455159
-0.1557918 0.010656042 0.1269514
-0.14900073 0.010082684 0.12817736
-0.10317089 0.012080434 0.12891126
-0.068988137 0.014691059 0.12852755
-0.035725035 0.016650282 0.1260601
-0.025245942 0.020312946 0.12870423
0.056228828 0.025513014 0.120784
0.070641756 0.027560811 0.12186396
0.066006973 0.038874548 0.12394004
0.10042697 0.038651824 0.12908715
0.11685827 0.037517026 0.12885714
0.12615375 0.038953733 0.12899132
0.13704616 0.035154227 0.12029992
0.1027298 0.043090653 0.12191238
0.11647332 0.042380538 0.12841772
0.14139187 0.043327708 0.12850378
0.15457973 0.049565308 0.12449024
0.16785049 0.049573481 0.12773097
0.19568582 0.045230072 0.1277497
0.21218166 0.04534721 0.12374479
0.25500745 0.04520575 0.12216792
0.18362959 0.05309825 0.12310204
0.19496791 0.054055549 0.12477934
0.28350294 0.057152171 0.12619534
0.31525585 0.056278218 0.12919992
0.38257602 0.072785527 0.12644875
