# .PCD v0.7 - Point Cloud Data file format
VERSION 0.7
FIELDS x y z
SIZE 4 4 4
TYPE F F F
COUNT 1 1 1
WIDTH 904
HEIGHT 1
VIEWPOINT 0 0 0 1 0 0 0
POINTS 904
DATA ascii
-0.35940352 0.042552993 -0.12622845
-0.34888065 0.047277465 -0.127216
-0.33379489 0.041804619 -0.12363674
-0.30832034 0.046991751 -0.127216
-0.28514847 0.047152162 -0.127216
-0.2588703 0.0410868 -0.12238217
-0.24783212 0.0410868 -0.12271936
-0.21842755 0.046634894 -0.127216
-0.20420487 0.047717076 -0.127216
-0.17571718 0.046615656 -0.127216
-0.12450433 0.0410868 -0.12420883
-0.071966678 0.0410868 -0.12286375
-0.049369454 0.0410868 -0.12170167
-0.022819757 0.047602959 -0.12721601
0.077419132 0.047244243 -0.127216
0.13470413 0.0410868 -0.12498162
0.14996187 0.0410868 -0.12160631
0.15474737 0.042054534 -0.127216
0.27445701 0.043673065 -0.127216
0.32066044 0.0410868 -0.12141117
0.33340314 0.046374075 -0.127216
0.38704127 0.048602782 -0.12196422
-0.32179981 0.056981832 -0.12325277
-0.30429024 0.055977665 -0.12468593
-0.25146231 0.051614806 -0.127216
-0.23751475 0.057597 -0.12390221
-0.1939916 0.055469602 -0.12713444
-0.18873322 0.052698214 -0.127216
-0.1793056 0.057597004 -0.12651621
-0.05653229 0.057597 -0.12125275
0.015895803 0.057597 -0.12169363
0.090573415 0.056266341 -0.127216
0.18746503 0.056490332 -0.12694199
0.20477207 0.057597 -0.1257989
0.28204238 0.057597 -0.12221338
0.31900507 0.056249656 -0.127216
0.32651907 0.051832095 -0.12387408
0.36781114 0.05530268 -0.12512149
0.38403907 0.055187345 -0.12298488
-0.24351746 -0.042131431 -0.11438801
0.21122523 -0.024982866 -0.1176524
0.2564193 -0.021905433 -0.11748873
-0.25376219 -0.0054999446 -0.1117596
-0.23941137 0.017464761 -0.11479904
0.25730342 0.010585053 -0.11276203
-0.29651925 0.040669799 -0.11190078
-0.28291035 0.0410868 -0.11053834
-0.22249457 0.0410868 -0.11272187
-0.15066957 0.0410868 -0.11334679
-0.11096887 0.0410868 -0.11792904
0.010743305 0.0410868 -0.1102674
0.069967397 0.0410868 -0.11267668
0.077523611 0.0410868 -0.11546867
0.14675498 0.0410868 -0.11387193
0.27454826 0.0410868 -0.11825959
0.29386115 0.041128766 -0.11113181
0.30452317 0.044939294 -0.11689439
0.37832487 0.0409442 -0.11948049
-0.37473547 0.057597 -0.11522512
-0.35190299 0.053122737 -0.1109691
-0.29683918 0.057596996 -0.11240469
-0.1149241 0.057597 -0.11296475
-0.095907897 0.057597 -0.1196094
-0.017657831 0.057597 -0.1199196
0.10631302 0.057597 -0.11320173
0.16694677 0.057597 -0.11384653
0.18471555 0.057597 -0.11729673
0.23368546 0.057597 -0.11595525
0.310987 0.057596996 -0.11023265
0.37290579 0.057597 -0.11814306
-0.26071092 -0.050142422 -0.10598882
0.2650193 -0.042787943 -0.10243058
-0.27818346 -0.039407149 -0.10291057
0.1911855 -0.036802284 -0.10681755
-0.19825569 -0.017297754 -0.10127176
0.22945364 -0.016795645 -0.10204264
0.27505898 -0.013400353 -0.10082895
0.18761286 -0.0026348056 -0.10771587
0.19173373 0.0038797311 -0.10945437
-0.27684793 0.0138834 -0.10619968
0.20305261 0.022029154 -0.10445908
0.24480087 0.025046844 -0.10790894
-0.24409008 0.033894647 -0.10005175
0.22973712 0.030275341 -0.10386182
-0.41131112 0.040669799 -0.10458401
-0.38097256 0.040669799 -0.10198757
-0.3487294 0.041086797 -0.1014135
-0.27417731 0.041966237 -0.10174063
-0.18312335 0.0410868 -0.10143141
-0.15523805 0.0410868 -0.1070234
-0.12620632 0.0410868 -0.10828833
0.066102244 0.0410868 -0.10582173
0.081893645 0.0410868 -0.10413741
0.13616973 0.0410868 -0.10996962
0.15932667 0.0410868 -0.10380179
0.18433908 0.0410868 -0.10215174
0.19139722 0.0410868 -0.1069572
0.22468516 0.0410868 -0.10321044
0.29626155 0.0409442 -0.10658564
0.32173148 0.0409442 -0.1092519
-0.2788192 0.057597 -0.10457645
-0.13088456 0.057596996 -0.10134499
0.26345125 0.057597 -0.10412855
0.27865082 0.050381679 -0.10277255
0.30018649 0.057596996 -0.10513222
0.36600038 0.057596996 -0.10874886
-0.22634502 -0.056766342 -0.091773979
0.18950392 -0.042588443 -0.094628215
0.18731095 -0.039171927 -0.094046451
0.18372598 -0.029223602 -0.097998768
-0.28847143 -0.0017730573 -0.098593041
-0.19530433 -0.0060144099 -0.091612905
0.18468812 0.003349113 -0.096975788
0.26868841 0.0099650808 -0.098802313
0.2660512 0.015357256 -0.09604831
-0.34276474 0.0410868 -0.091216311
-0.31462002 0.0410868 -0.092860155
-0.30661234 0.040669799 -0.095470808
-0.27112755 0.0410868 -0.099648893
-0.22992909 0.0410868 -0.09865921
-0.19387704 0.0410868 -0.092004985
-0.063517645 0.0410868 -0.095647022
0.046193168 0.0410868 -0.093301445
0.21646796 0.0410868 -0.092490532
0.28429258 0.0410868 -0.091431975
0.29513216 0.0409442 -0.093520097
0.31539544 0.0410868 -0.093204781
0.339625 0.0410868 -0.098992534
0.35830849 0.0409442 -0.095558286
-0.43962437 0.053100128 -0.091668457
-0.31231284 0.057597 -0.098417655
-0.16574994 0.057597004 -0.095104583
-0.12380444 0.057596996 -0.09175998
-0.012806192 0.057597 -0.094745211
0.017203189 0.057596996 -0.091065735
0.10355916 0.057597 -0.094014406
0.16898109 0.057597004 -0.091567472
0.19629559 0.057596996 -0.090898231
0.21268925 0.057597004 -0.095058717
0.26031196 0.057597 -0.09305463
0.32474402 0.057597004 -0.090456054
0.44085819 0.053294294 -0.090722442
0.22411788 -0.062997453 -0.088085726
-0.21191701 -0.048684966 -0.088542916
0.19445284 -0.04846672 -0.085059404
0.18141612 -0.01636222 -0.081881166
0.22899841 -0.015572414 -0.08149875
0.27571654 -0.0063429857 -0.083021507
-0.19855532 0.0066055465 -0.082330294
0.19244903 0.015324475 -0.080432914
0.26431572 0.017814236 -0.085725434
0.20322791 0.026249342 -0.088671625
-0.35190299 0.049443692 -0.088678353
-0.34923145 0.0410868 -0.081217736
-0.29921803 0.040669799 -0.08603543
-0.15388525 0.0410868 -0.083128318
-0.12142818 0.0410868 -0.084626302
0.10361826 0.0410868 -0.087138668
0.16871862 0.0410868 -0.08473818
0.23641828 0.0410868 -0.084355682
0.2924577 0.0410868 -0.08243607
0.35190299 0.044363216 -0.084898517
-0.29602957 0.057597 -0.082553923
-0.28944796 0.057597 -0.089936018
-0.12666069 0.057597004 -0.085520379
-0.087042719 0.057597004 -0.086052053
0.090194151 0.057597 -0.083063431
0.17394631 0.057597 -0.086279809
0.22547752 0.057597 -0.088163838
0.23745623 0.057597 -0.080716662
0.24606258 0.057597 -0.088929236
0.27396938 0.057597 -0.0857751
0.36631927 0.057596996 -0.089165546
0.44346625 0.052598499 -0.087859437
0.26933914 -0.031286441 -0.072951175
0.27358615 -0.016194221 -0.075460583
-0.27623546 0.022304293 -0.079686388
-0.22882564 0.03295327 -0.07747151
-0.37975532 0.040669799 -0.075718507
-0.36322317 0.040669799 -0.077862471
-0.31160876 0.040669799 -0.077325158
-0.29807624 0.0410868 -0.070643649
-0.26246136 0.040669799 -0.073713876
-0.25287384 0.047704317 -0.078131035
-0.24669172 0.0410868 -0.074606292
-0.23386596 0.0410868 -0.070942253
-0.2212602 0.041086804 -0.070122235
-0.21201164 0.0410868 -0.073823541
0.051907416 0.0410868 -0.070542648
0.27098215 0.0409442 -0.070590846
0.2832596 0.0410868 -0.079064228
0.30301109 0.041015498 -0.079389088
0.31255916 0.0410868 -0.07888025
0.32242373 0.041039266 -0.073830396
0.34572944 0.0409442 -0.075270511
-0.35190299 0.053414121 -0.077971749
-0.34769195 0.057597 -0.073278889
-0.33258414 0.057597 -0.071294628
-0.2141982 0.057597004 -0.076650552
-0.144537 0.057596996 -0.071840391
-0.0021034628 0.057597 -0.074826837
0.22832297 0.057597 -0.070591286
0.25141367 0.057597004 -0.071124561
0.27254328 0.057597 -0.071701154
0.34992087 0.057597 -0.072751455
0.38334423 0.057597 -0.072482102
0.408059 0.057597 -0.073623642
-0.24048077 -0.054396655 -0.069107518
0.23104832 -0.054947808 -0.068814017
0.20190302 -0.04043857 -0.065947324
-0.21482727 -0.035901107 -0.063543379
-0.23481569 -0.022534244 -0.061655868
0.26269752 -0.022612158 -0.064547546
-0.25573355 -0.0060254275 -0.062974274
-0.23434481 -0.0076696556 -0.064411163
-0.21177173 -0.0082634892 -0.060356729
0.2554653 -0.0018163072 -0.062313538
-0.21404788 0.0095716557 -0.062705025
-0.26879799 0.013142321 -0.062484443
-0.21677537 0.014529723 -0.063584439
-0.26023859 0.02538033 -0.066596292
0.22005378 0.021535564 -0.066028863
-0.45837206 0.046222717 -0.068433657
-0.35342085 0.040669799 -0.068656355
-0.31343979 0.040669799 -0.06147996
-0.25828573 0.0410868 -0.069930434
-0.24463214 0.0410868 -0.06177339
-0.10462929 0.0410868 -0.065408923
0.016327575 0.0410868 -0.063789278
0.079973064 0.0410868 -0.062772766
0.14631027 0.0410868 -0.062475182
0.15292034 0.0410868 -0.065275535
0.18186626 0.0410868 -0.061348047
0.22635774 0.0410868 -0.064292133
0.33017671 0.0410868 -0.063426748
0.34326655 0.0410868 -0.061541766
-0.35190299 0.055338353 -0.06141258
-0.32696369 0.057597 -0.064246133
-0.31303224 0.057596996 -0.068640396
-0.3069751 0.057597 -0.0620487
-0.22116528 0.057596996 -0.065261051
-0.21405572 0.057596996 -0.069902256
-0.13320351 0.057596996 -0.066661395
-0.02111131 0.057597004 -0.064155906
0.039149344 0.057597004 -0.065904781
0.17790553 0.057596996 -0.063033894
0.23886552 0.057597 -0.06556727
0.26573181 0.057597 -0.06452509
0.31894779 0.057597004 -0.062932797
0.34326869 0.057596996 -0.067601398
-0.24235487 -0.03756408 -0.059009042
-0.24251762 -0.024181666 -0.055923462
-0.23738673 -0.021258689 -0.054238148
0.21051079 -0.017875854 -0.050940707
0.23919491 -0.017311834 -0.051495742
0.2159479 -0.00051283126 -0.051375218
-0.35190299 0.043802202 -0.054929741
-0.34818852 0.040669799 -0.050691742
-0.32001385 0.040669799 -0.055378348
-0.31029761 0.0410868 -0.052009623
-0.30379874 0.0410868 -0.057392739
-0.28126323 0.0410868 -0.053556986
-0.24893928 0.040669799 -0.05134277
0.023656495 0.0410868 -0.055251434
0.15054582 0.0410868 -0.052606296
0.21759619 0.0410868 -0.055278499
0.26204163 0.0410868 -0.057559233
0.279699 0.0410868 -0.053010814
0.29393089 0.0409442 -0.057617366
0.32339919 0.0409442 -0.054856747
0.34150055 0.0409442 -0.050508875
-0.42619565 0.057597 -0.055560067
-0.4044154 0.057597004 -0.052801676
-0.35190299 0.051340517 -0.059147682
-0.31693327 0.057596996 -0.050507594
-0.2673353 0.057596996 -0.050279051
-0.18774509 0.057597004 -0.058178324
-0.044359874 0.057597004 -0.052133698
-0.00086867064 0.057596996 -0.055110637
0.16227704 0.057597004 -0.051785275
0.20216262 0.057597 -0.052725464
0.22212243 0.057597 -0.053726975
0.26282218 0.057597 -0.050836753
0.27771515 0.057597004 -0.05342976
0.33447361 0.057597 -0.055501327
0.38098001 0.057597004 -0.052580442
0.43417111 0.057597 -0.054802574
-0.42633852 0.040669799 -0.040980369
-0.34838897 0.0410868 -0.045754611
-0.23321345 0.0410868 -0.042421907
0.012269504 0.0410868 -0.043638021
0.057483785 0.0410868 -0.041799761
0.25975361 0.0410868 -0.043799818
0.27488035 0.0409442 -0.043650687
0.33118305 0.0409442 -0.043642461
0.34112656 0.0409442 -0.042410485
0.35145554 0.0410868 -0.040483303
0.36366817 0.0409442 -0.042054474
-0.28817633 0.057597004 -0.044598974
-0.27016401 0.057597 -0.041467283
-0.2411164 0.057597004 -0.049712643
-0.044963241 0.057597 -0.046066325
-0.036617659 0.057597004 -0.047880828
0.042819262 0.057596996 -0.049840592
0.073616602 0.057597004 -0.04819097
0.14718992 0.057597 -0.04329386
0.26708683 0.057597 -0.043275159
0.28923047 0.057597 -0.045352746
0.31807533 0.057596996 -0.04707884
0.34478992 0.057596996 -0.043789677
-0.25074884 -0.024508975 -0.032109581
0.23864508 -0.0059658401 -0.035281274
-0.23753691 0.0020269367 -0.034305193
0.21875721 0.00089634018 -0.039484825
-0.33307335 0.0410868 -0.030151501
-0.30740035 0.0410868 -0.038354941
-0.29821646 0.040669799 -0.03509184
-0.25947478 0.0410868 -0.039687268
-0.19837743 0.0410868 -0.03521619
-0.1605829 0.0410868 -0.031061478
-0.12174487 0.0410868 -0.03802472
-0.067236364 0.0410868 -0.033172954
0.093733862 0.0410868 -0.035803735
0.27808613 0.040944196 -0.033458512
0.28444189 0.0409442 -0.037646577
0.32934606 0.0410868 -0.034689471
0.36243567 0.0409442 -0.031966161
-0.41104642 0.057597004 -0.032906853
-0.34547037 0.057597004 -0.039781354
-0.33826786 0.057596996 -0.034431584
-0.29579782 0.057597 -0.0305502
-0.27780956 0.057597 -0.035191707
-0.26715606 0.057597004 -0.032876343
-0.25710014 0.057597 -0.038042989
-0.075447388 0.057597004 -0.032357514
-0.027332745 0.057597 -0.03563498
0.088584349 0.057597 -0.032218207
0.092665158 0.057597 -0.030967031
0.22056831 0.057597004 -0.039600119
0.26073211 0.057597004 -0.031555858
0.31980473 0.057597 -0.030938026
0.42427585 0.057597004 -0.031565316
-0.24722534 -0.025017392 -0.020242579
0.23913696 -0.0066240835 -0.025218189
0.22973259 0.016630918 -0.020191099
0.2282261 0.033799954 -0.02038949
-0.38147491 0.040669799 -0.028283674
-0.29404005 0.040669799 -0.023730282
-0.056412444 0.0410868 -0.021918252
0.13032401 0.0410868 -0.025362417
0.22408044 0.0410868 -0.02694384
0.32914609 0.0410868 -0.020041987
0.45228285 0.0409442 -0.027629176
-0.47596785 0.057110097 -0.023932081
-0.44042781 0.057597004 -0.023631398
-0.4240537 0.057596996 -0.021825679
-0.33540827 0.057597 -0.021985022
-0.23644672 0.057596996 -0.021097414
-0.22457874 0.057597004 -0.027195565
-0.028048724 0.057597 -0.02594398
0.035582922 0.057596996 -0.023425262
0.090546876 0.057597 -0.028077278
0.13387927 0.057597 -0.022911198
0.22717607 0.057597 -0.028636828
0.24256583 0.057597 -0.02949976
0.26864451 0.057597004 -0.022024766
0.31388801 0.057596996 -0.024073035
0.35703737 0.057597 -0.023358678
0.34778559 0.064832494 -0.028122982
-0.23811188 -0.022523601 -0.014402349
0.21408594 -0.022714924 -0.010031195
0.22798939 -0.027857278 -0.010469016
0.21641825 -0.010391017 -0.015001939
-0.25700501 -0.0093143079 -0.01002646
0.21674944 -0.0039136768 -0.015433456
-0.25060052 0.0047706142 -0.018964507
-0.25681025 0.013944726 -0.010496668
0.23464569 0.010532929 -0.018340632
-0.23826279 0.026033217 -0.016388554
0.22334741 0.024770735 -0.019876171
-0.37682503 0.040669799 -0.01685413
-0.35190299 0.041162066 -0.01838558
-0.3288883 0.0410868 -0.012874521
-0.29262635 0.040669799 -0.012352039
-0.2545909 0.042517502 -0.012516002
-0.15746242 0.0410868 -0.0147104
-0.1364231 0.0410868 -0.016789734
-0.021890655 0.0410868 -0.019554809
0.052257348 0.0410868 -0.017761648
0.074321456 0.0410868 -0.019480761
0.25498015 0.0409442 -0.015281201
0.28135759 0.0409442 -0.015926627
0.33198476 0.0409442 -0.014035558
0.38638175 0.0409442 -0.017221866
-0.45232561 0.057596996 -0.017971572
-0.43737382 0.057597 -0.019889222
-0.33238214 0.057597004 -0.019669846
-0.31209034 0.057597004 -0.019796893
-0.28355455 0.057597 -0.01532799
-0.2296358 0.057597 -0.010828912
-0.20067924 0.057597004 -0.011371657
-0.18759149 0.057596996 -0.015230943
0.047685675 0.057597 -0.014217573
0.057672527 0.057597 -0.016036103
0.061842576 0.057596996 -0.014429793
0.086448178 0.057596996 -0.012482178
0.15369804 0.057597 -0.010970857
0.22670248 0.057464845 -0.015311921
0.23628047 0.057597004 -0.014254775
0.37525049 0.057597 -0.011628037
0.38632733 0.057597 -0.015410604
0.3912214 0.057597004 -0.017630715
0.46461731 0.057597 -0.018697539
0.21170527 -0.018233716 -0.0040847585
-0.25754669 0.0032113311 -0.008718716
0.21477303 0.0011531687 -0.0011156622
0.23993067 0.0020169122 -0.0012815682
0.24081343 0.0037857555 -0.0092480015
-0.25804269 0.015484778 -0.0012783078
-0.25834805 0.021983812 -0.0035994863
-0.23104805 0.025438987 -0.0041065011
-0.3982684 0.040669799 -0.0077698464
-0.35190299 0.048771471 -0.0048031807
-0.33750492 0.0410868 -0.0013502575
-0.25981903 0.040669799 -0.0060578026
-0.23404633 0.040669799 -0.005791273
-0.1179013 0.0410868 -0.0062093958
-0.045274064 0.0410868 -0.0085405037
-0.022464728 0.0410868 -0.0056909095
0.014989238 0.0410868 -0.00089061703
0.038431115 0.0410868 -0.0097225197
0.1637875 0.0410868 -0.0042763352
0.33982849 0.0410868 -0.0090156719
0.35190299 0.045897108 -0.0054217651
-0.47780681 0.052118853 -0.0099612931
-0.27272892 0.057596996 -0.0016560927
-0.24850325 0.057597 -0.0074890903
-0.20645428 0.057597004 -0.0049823001
-0.1546496 0.057597004 -0.005749939
0.20280719 0.057597 -0.0056622028
0.22682112 0.057596996 -0.0090313032
0.23439863 0.057596996 -0.0064657754
0.30270517 0.057597 -0.0087699927
0.31668574 0.057597004 -0.002572827
0.3623364 0.057597 -0.0034755543
0.2211051 -0.0178071 0.0012930947
-0.25447762 0.0050473739 0.0046524368
0.22103959 0.012077741 0.0055724438
0.23039377 0.018026531 0.0067559611
-0.25706214 0.03553522 0.0015650988
0.2298349 0.037669681 0.0068295524
-0.35245156 0.040669799 0.0086283302
-0.3404606 0.040669799 0.0030310429
-0.3387951 0.0410868 0.0099789836
-0.30002746 0.040669799 0.0088407965
-0.29560661 0.0410868 0.0034171455
-0.28562194 0.040669799 0.00035002828
-0.27275619 0.0410868 0.0081335753
-0.23956379 0.0410868 0.0012978315
-0.032453485 0.0410868 0.0032918516
0.029233068 0.0410868 0.00013992051
0.037896927 0.0410868 0.0063414709
0.047434554 0.0410868 0.0037112832
0.082458928 0.0410868 0.0047554374
0.11594912 0.0410868 0.0056124516
0.12340309 0.0410868 0.0074177347
0.22498384 0.042692099 0.0022551862
0.27671874 0.0410868 0.0050785057
0.28902188 0.0410868 0.0058004335
0.30928245 0.0409442 0.002238448
0.32539359 0.0410868 0.0067937449
0.40719178 0.0409442 0.0024572993
0.41355321 0.0409442 0.0098173516
0.46763727 0.040944204 0.0014618437
-0.3989771 0.057596996 0.0091213286
-0.34564257 0.057597 0.003187295
-0.27306333 0.057597 0.0040094238
-0.26116145 0.057597 0.0065304129
-0.23926349 0.057597 0.0029987842
-0.22667733 0.055385619 0.0067005199
-0.21904631 0.057597004 0.00099359825
-0.07304889 0.057597004 0.0079510026
0.094682783 0.057596996 0.0049886703
0.14915431 0.057597 0.00089836493
0.27040607 0.057597 0.004261367
0.38530701 0.059540652 0.0061058514
0.3950752 0.057596996 0.0078837648
-0.24835059 -0.024880741 0.019511679
-0.46154934 0.040669799 0.013251539
-0.4104715 0.040669799 0.013898352
-0.4059175 0.040669799 0.01658624
-0.36996344 0.040669799 0.0198332
-0.32011008 0.040669799 0.01984524
-0.18690664 0.0410868 0.017478639
-0.03038463 0.0410868 0.01348665
0.081896245 0.0410868 0.019837078
0.11116187 0.0410868 0.013548672
0.23579283 0.0410868 0.017646074
0.24938294 0.0410868 0.015055269
0.25049967 0.0409442 0.010699303
0.30923861 0.0410868 0.01775353
0.37907955 0.0409442 0.010465351
0.3829346 0.0409442 0.0114647
0.39735538 0.0409442 0.01279648
-0.46697772 0.057597 0.014513883
-0.45510238 0.057596996 0.016461283
-0.41078621 0.057597 0.017365996
-0.38892108 0.057596996 0.019038741
-0.34195447 0.057596996 0.014227433
-0.30900234 0.057597004 0.014132421
-0.29575041 0.057596996 0.019329237
-0.26615459 0.057597 0.016069191
-0.2544359 0.057596996 0.016048759
-0.18630856 0.057597 0.010703797
-0.031382829 0.057597004 0.019783456
0.11596441 0.057597 0.014766185
0.21618274 0.057597004 0.018952429
0.24750754 0.057597 0.019415095
0.26771995 0.057597 0.012386665
0.33266476 0.061320141 0.014368391
0.36664152 0.064200044 0.01685624
0.22669876 -0.028076138 0.025275446
0.23779914 -0.022932112 0.028362162
-0.47312686 0.040669799 0.023880282
-0.37972671 0.040669799 0.020431133
-0.36644584 0.040669799 0.02214919
-0.32823247 0.040669799 0.022464927
-0.31560364 0.040669799 0.02743201
-0.29126588 0.0410868 0.025679316
-0.21150269 0.0410868 0.025050776
-0.20724635 0.0410868 0.025258163
-0.19973227 0.0410868 0.021581665
-0.18186724 0.0410868 0.020206194
-0.17990009 0.0410868 0.022549827
-0.13042931 0.0410868 0.020749636
-0.077992268 0.0410868 0.028773392
0.0070436895 0.0410868 0.025724534
0.079575539 0.0410868 0.022907339
0.19462517 0.0410868 0.020012584
0.21222018 0.0410868 0.025383815
0.22934908 0.0410868 0.026916491
0.26439199 0.0410868 0.024861343
0.30971849 0.040944204 0.029799094
-0.46882772 0.057597 0.027004512
-0.42473009 0.057597 0.027993705
-0.40768284 0.057597 0.021612087
-0.31200409 0.057597004 0.025445124
-0.28502274 0.057596996 0.028047398
-0.2624312 0.057597004 0.024549723
-0.20329085 0.057597004 0.028386638
-0.16546997 0.057596996 0.027085871
-0.066003509 0.057597 0.028709481
0.07938911 0.057596996 0.028629184
0.13795342 0.057596996 0.021692883
0.22582455 0.057597004 0.022722624
0.2318711 0.057597 0.023521794
0.26290721 0.057597004 0.026667193
0.29363531 0.057596996 0.027643399
0.3515512 0.057597 0.025342768
0.37302145 0.057597 0.025090989
0.3870005 0.057597 0.021007854
0.39358616 0.057597 0.027357457
0.41816652 0.057597004 0.021209531
0.36218405 0.065283999 0.022452137
0.21337426 -0.020254169 0.035792101
-0.35190299 0.047661003 0.035906464
-0.28127897 0.0410868 0.035722911
-0.26955849 0.040669799 0.031305496
-0.028379023 0.0410868 0.032170072
-0.00058204308 0.0410868 0.039034456
0.080090493 0.0410868 0.031915769
0.097745158 0.0410868 0.032995563
0.22774529 0.0410868 0.033658437
0.23054227 0.0410868 0.038154598
0.24481043 0.0410868 0.034566008
0.2971794 0.0410868 0.033070698
0.31814229 0.0409442 0.031192439
0.34229258 0.0409442 0.039268684
0.36831254 0.0409442 0.034777265
0.38258901 0.0409442 0.033465739
0.42157322 0.0409442 0.039036669
-0.45400578 0.057597 0.033593401
-0.4341647 0.057596996 0.037001126
-0.32767341 0.057597004 0.03620341
-0.30398178 0.057597004 0.031385913
-0.26684713 0.057597 0.031648833
-0.12502871 0.057597 0.034977246
-0.11472528 0.057597 0.039294623
-0.10860454 0.057597004 0.033823475
-0.068840638 0.057597 0.03834103
-0.049174778 0.057597 0.03577546
-0.0080452114 0.057596996 0.035840083
0.023087718 0.057597004 0.038920462
0.032118954 0.057597 0.036932603
0.16112651 0.057597004 0.032016385
0.24052247 0.057596996 0.030437768
0.33300859 0.057597 0.03770243
0.47201112 0.057597004 0.031944733
0.23665166 -0.024398437 0.043490954
-0.23111546 -0.0040212534 0.047640134
0.21432158 -0.0041018464 0.04618977
-0.23636805 0.0024364409 0.04083769
0.22915171 0.0020408975 0.047086392
-0.45761532 0.040669799 0.042620882
-0.4256618 0.040669799 0.048990384
-0.37952548 0.040669799 0.04996461
-0.32164228 0.0410868 0.043157473
-0.25733191 0.0410868 0.04265232
-0.24440509 0.040669799 0.048627067
-0.23721749 0.0410868 0.047775842
-0.17751196 0.0410868 0.041947257
0.2093358 0.0410868 0.042470671
0.22448759 0.0410868 0.044663526
0.23251913 0.0410868 0.044657841
0.25100392 0.0410868 0.042775914
0.29451415 0.0409442 0.0406157
0.32501933 0.0409442 0.048606612
0.40530083 0.0409442 0.046754654
0.41660053 0.0409442 0.045596555
0.46808138 0.043166455 0.049107131
0.47076675 0.04341222 0.042624157
-0.4224115 0.057597 0.047304362
-0.4163813 0.057596996 0.043857269
-0.40560785 0.057597 0.042058546
-0.27155375 0.057597 0.044164065
-0.25904223 0.057596996 0.043494195
-0.21041156 0.057597 0.041293219
0.020455305 0.057596996 0.048929252
0.044306125 0.057597 0.041411966
0.064363979 0.057597004 0.043424048
0.15601701 0.057597004 0.045758221
0.17403829 0.057597 0.041082218
0.42165339 0.057597 0.042151444
-0.23970987 -0.051951207 0.05996225
-0.22642341 -0.020038074 0.056538157
-0.22604002 -0.0184386 0.056585647
-0.23917881 -0.0010564724 0.058075018
0.23714389 -0.002651741 0.053840045
0.24309246 0.0090267165 0.052629083
-0.23321947 0.011650541 0.054884836
-0.22366431 0.01504026 0.056841321
0.22384405 0.01327516 0.053552087
-0.36664054 0.040669799 0.05243174
-0.34249485 0.040669799 0.050996348
-0.32942197 0.0410868 0.050124455
-0.31674033 0.040669799 0.058070071
-0.25275245 0.0410868 0.058471259
-0.08749184 0.0410868 0.058985323
0.031986281 0.0410868 0.059134897
0.049457341 0.0410868 0.05853495
0.17265511 0.0410868 0.054929096
0.27641445 0.041015498 0.053153351
0.32000008 0.0409442 0.050826777
0.33575019 0.0410868 0.050952684
0.46550122 0.042446353 0.055336066
-0.3910763 0.057597 0.051452436
-0.32192615 0.057596996 0.059304483
-0.26001212 0.057597 0.059339516
-0.2597281 0.057597 0.052841205
-0.12018076 0.057596996 0.055764988
0.11245344 0.057596996 0.054018397
0.12204946 0.057597 0.052188765
0.13320273 0.057597004 0.056621455
0.17233413 0.057597 0.059606761
0.2103153 0.057596996 0.050426506
0.28921923 0.057596996 0.052365072
0.29109564 0.057597004 0.059558053
0.32753134 0.057597 0.057259623
0.41787925 0.057597004 0.053258371
0.42952406 0.057597 0.056849562
-0.22623175 -0.055601988 0.066904359
-0.27191141 -0.041341439 0.063626789
-0.27928236 -0.036656443 0.068937197
-0.20585461 -0.034860719 0.062250242
0.18805967 -0.030964103 0.067614995
-0.27964017 -0.021136489 0.061289497
-0.23577279 -0.021127261 0.064329684
-0.19980806 -0.018002355 0.062423732
-0.25809407 -0.0025093898 0.062701277
0.22118336 -0.0084861927 0.062159687
0.22944057 0.027533593 0.065338649
0.25386783 0.023475252 0.068963945
-0.45449388 0.040669803 0.064519279
-0.38175642 0.040669799 0.068574913
-0.31217042 0.0410868 0.066474915
-0.28458577 0.0410868 0.063923493
-0.2542237 0.0410868 0.064738289
-0.17588449 0.0410868 0.06884829
-0.13105133 0.0410868 0.069003209
-0.07173878 0.0410868 0.063850172
0.14809328 0.0410868 0.069043472
0.34531468 0.0409442 0.068188779
0.38764802 0.0409442 0.068576097
0.4084152 0.0409442 0.06624607
0.45739156 0.0409442 0.061256703
-0.4533138 0.057596996 0.06686458
-0.39732242 0.057596996 0.067803457
-0.36854082 0.057597 0.063895568
-0.32064533 0.057597 0.06582059
-0.27389178 0.057597 0.06575992
-0.25554973 0.057597004 0.06004766
-0.24096856 0.051252317 0.061769415
-0.14164725 0.057597 0.067722395
-0.10643385 0.057597004 0.065994933
-0.085019849 0.057596996 0.065109931
0.015478231 0.057597 0.061954737
0.071908623 0.057597004 0.067385629
0.21472903 0.057596996 0.066714011
0.25136447 0.057597 0.067241371
0.31552833 0.057597 0.067822278
0.34229398 0.057597 0.061116107
0.39534044 0.057597 0.0620609
0.27627048 -0.035089176 0.076086245
0.18436313 -0.013315856 0.071351506
0.25441414 0.025509773 0.078892231
-0.38890123 0.040669799 0.075006679
-0.33569098 0.0410868 0.078469306
-0.293201 0.0410868 0.073354766
-0.13742179 0.0410868 0.070152655
-0.092173919 0.0410868 0.078681692
-0.012701862 0.0410868 0.070810199
0.065110415 0.0410868 0.076759994
0.1664843 0.0410868 0.07145711
0.18096177 0.0410868 0.078611776
0.25406951 0.0409442 0.078551099
0.3670871 0.0409442 0.074664563
0.37665391 0.0409442 0.070750251
-0.45495993 0.057597 0.072151572
-0.43455011 0.057597004 0.076858588
-0.42553422 0.057597 0.078789636
-0.3308844 0.057596996 0.075925499
-0.23989262 0.057597 0.070538983
-0.22010376 0.057597 0.074902765
-0.21030951 0.057597 0.075802773
-0.061664499 0.057596996 0.074841499
-0.0070598871 0.057597004 0.071971029
0.18113875 0.057596996 0.076331928
0.22782716 0.057597004 0.071861893
0.44797289 0.057597004 0.075554058
0.45299751 0.057596996 0.074339084
0.24945593 -0.061924614 0.080369443
0.25061011 -0.060813837 0.0873373
-0.22509539 -0.059635356 0.083798029
0.27866161 -0.019572277 0.088694356
-0.21278206 0.025859451 0.085446358
-0.44377917 0.040669799 0.086740546
-0.38522559 0.040669799 0.086464643
-0.34454077 0.040669799 0.08928816
-0.32623619 0.0408783 0.087169789
-0.29185915 0.0410868 0.088762142
-0.26457977 0.0410868 0.088919252
-0.259619 0.043975625 0.086921372
-0.20996138 0.0410868 0.082936272
-0.1949212 0.0410868 0.084173515
-0.165398 0.0410868 0.087824196
-0.10755774 0.0410868 0.085426793
-0.082806803 0.0410868 0.080965102
0.037553765 0.0410868 0.087603956
0.13040525 0.0410868 0.087226212
0.22252136 0.0410868 0.089822263
0.31715208 0.0410868 0.087660268
-0.44759744 0.053988036 0.082474478
-0.41468024 0.057597 0.083076932
-0.40728736 0.057596996 0.080997095
-0.36416477 0.057597 0.080815412
-0.35984185 0.057597 0.083112657
-0.32815444 0.057597004 0.086503506
-0.30667785 0.057596996 0.088266946
-0.22447655 0.057597 0.086284459
-0.085683152 0.057596996 0.087823465
0.10930695 0.057596996 0.08057791
0.18083467 0.057597004 0.082458936
0.26577353 0.057596996 0.080975279
0.28354174 0.057596996 0.088877797
0.32672244 0.057597004 0.081936687
0.36853445 0.057597004 0.081706859
0.40362322 0.057597004 0.083680764
0.44222915 0.057597 0.087685876
0.24601628 -0.060159266 0.093422227
-0.2203435 -0.05664739 0.091828614
0.20789453 -0.056312427 0.092870593
0.24767639 -0.057578348 0.097364001
0.23690221 -0.015538003 0.098817021
0.27379248 -0.0039975988 0.095963001
0.24072345 0.026059125 0.096615195
-0.28595698 0.0410868 0.090291344
-0.056909338 0.0410868 0.098655239
0.0088215433 0.0410868 0.098671466
0.015224364 0.0410868 0.094375774
0.032532126 0.0410868 0.095656894
0.040493954 0.0410868 0.092603445
0.29328239 0.0409442 0.094882399
0.40362212 0.0409442 0.093865916
0.41353831 0.0409442 0.098217726
-0.41121787 0.057597 0.095008656
-0.31232491 0.057597 0.098414153
-0.27299333 0.057597 0.096689977
-0.15641272 0.057597 0.098459229
-0.14766276 0.057597004 0.097140007
0.055761494 0.057597 0.09702538
0.13966803 0.057597004 0.097439334
0.19731657 0.057597 0.09695074
0.27577582 0.057597 0.097143315
0.28861398 0.057597 0.090952866
0.31348947 0.057597004 0.09546195
0.41950417 0.057597 0.095417865
0.22750096 -0.058340441 0.10018639
0.20757511 -0.03243082 0.10826032
-0.27338544 -0.024736576 0.10839274
0.19189894 -0.0099888621 0.10168215
0.23859033 -0.0084568001 0.10425673
-0.2778157 0.00011694634 0.10465147
-0.20433626 0.0098885521 0.10054172
0.22680503 0.0048051593 0.10863651
-0.26371399 0.01628916 0.10631812
0.22911376 0.012267957 0.10803257
0.23089796 0.01820609 0.10555694
0.2483764 0.013098847 0.10598356
-0.21930864 0.023765571 0.1005947
-0.35808364 0.040669799 0.10699855
-0.29390171 0.0410868 0.10978933
-0.28938597 0.0410868 0.10009257
-0.27425092 0.0410868 0.10139997
-0.1601107 0.0410868 0.10928179
-0.069450766 0.0410868 0.10339297
-0.025162876 0.0410868 0.10421915
-0.018568698 0.0410868 0.10795627
-0.0069032162 0.0410868 0.10181194
0.012689382 0.0410868 0.10220107
0.10670723 0.0410868 0.1058853
0.20786257 0.0410868 0.10927191
0.2507228 0.0410868 0.10989349
0.27781823 0.0410868 0.10154372
0.30780986 0.0409442 0.10599715
0.34052968 0.0410868 0.1071279
-0.39926374 0.057597 0.1066274
-0.25639507 0.057597 0.1077088
-0.20020694 0.057597 0.10982682
-0.13797978 0.057597004 0.10671438
-0.082311153 0.057597 0.1076331
-0.064268701 0.057597004 0.10969761
-0.045370057 0.057597004 0.10369711
-0.03885451 0.057597004 0.10799281
0.049170371 0.057596996 0.10072182
0.05257155 0.057597 0.1013277
0.095329061 0.057596996 0.10058744
0.17424032 0.057597 0.10530826
0.26547766 0.057597 0.10821227
0.31932533 0.057597004 0.1001925
0.35008165 0.057597 0.10234132
0.39447609 0.057597 0.10517025
-0.38826206 0.040669799 0.11558276
-0.32611164 0.040669799 0.11617435
-0.3002432 0.040669799 0.11504944
-0.14159228 0.0410868 0.11942525
-0.06413275 0.0410868 0.11120215
0.082905278 0.0410868 0.11330738
0.10320993 0.0410868 0.11283474
0.26852459 0.0410868 0.11905819
0.34714136 0.0410868 0.11977851
0.36869612 0.0409442 0.11933435
-0.37318826 0.057597 0.11503576
-0.35190299 0.056913648 0.11649278
-0.30753577 0.057597004 0.11159956
-0.15077621 0.057596996 0.11684573
-0.028641567 0.057596996 0.11031612
0.043350607 0.057597 0.1192389
0.060036197 0.057597 0.11493488
0.094269514 0.057597 0.11400348
0.13803971 0.057596996 0.11172045
0.30353805 0.057597 0.11699831
0.31160811 0.057597 0.11708578
0.35091633 0.057596996 0.11162121
0.37983954 0.057597004 0.11825721
0.40762737 0.057597 0.1118065
-0.35112196 0.040669799 0.1248313
-0.33017814 0.0410868 0.12618022
-0.32929403 0.042568199 0.12575255
-0.30904439 0.0410868 0.12258531
-0.26911661 0.0410868 0.12478577
-0.013859898 0.043081164 0.127216
-0.0061956942 0.048046038 0.127216
0.068693936 0.0410868 0.12691379
0.11530674 0.041309588 0.12458373
0.14026493 0.045642454 0.127216
0.23135395 0.044649541 0.127216
0.28654405 0.0410868 0.12156661
0.31335723 0.0410868 0.12686636
0.3253893 0.048324771 0.12372534
-0.35832685 0.053507544 0.12637021
-0.33699387 0.050707724 0.127216
-0.32229638 0.055242691 0.127216
-0.24242648 0.057597004 0.12298401
-0.20742442 0.052239686 0.127216
-0.12343199 0.055112891 0.127216
-0.080433264 0.057597 0.1252552
-0.048385024 0.057597004 0.12668857
0.027333021 0.052585505 0.127216
0.056356911 0.057597004 0.12688579
0.09504623 0.057597 0.12716942
0.14081764 0.053763814 0.127216
0.22428463 0.052775819 0.127216
0.25286651 0.057597 0.12696403
0.35076901 0.051926278 0.12721601
