# .PCD v0.7 - Point Cloud Data file format
VERSION 0.7
FIELDS x y z
SIZE 4 4 4
TYPE F F F
COUNT 1 1 1
WIDTH 898
HEIGHT 1
VIEWPOINT 0 0 0 1 0 0 0
POINTS 898
DATA ascii
-0.26541281 -0.039663345 -0.13239926
-0.25604725 -0.034387365 -0.13103223
0.39738131 -0.032268751 -0.13529554
0.40372631 -0.030858368 -0.13289094
0.3748267 -0.023694444 -0.13274133
0.39689574 -0.028060216 -0.1359154
0.38494688 -0.014380416 -0.13268226
0.3981576 -0.016235029 -0.13523835
0.40665713 -0.016828246 -0.13118809
0.37011108 0.0027751019 -0.13238338
0.34713221 -0.03663462 -0.12117059
-0.28489929 -0.020507414 -0.12148696
-0.2474705 -0.027550066 -0.12711976
-0.27189153 -0.016859332 -0.12162393
-0.2697919 -0.019289596 -0.12556559
0.34846103 -0.0074493047 -0.12538552
-0.2870847 0.0059811706 -0.12476751
-0.26813421 0.0029811519 -0.128866
0.36820075 0.0091822241 -0.12052884
0.39006045 0.0068831858 -0.12744397
0.40002623 0.0027452072 -0.12190348
0.0096482681 0.023861036 -0.12065983
0.074161135 0.022242961 -0.12141783
0.0447524 0.031488348 -0.1203192
-0.2961995 -0.051379204 -0.11551931
-0.28680643 -0.055976942 -0.112029
-0.25209755 -0.046439026 -0.11909673
-0.24343538 -0.02736545 -0.11996173
-0.30068153 0.0013029398 -0.11621591
-0.29530498 0.0054467791 -0.11711762
0.38557354 0.0099139959 -0.1198056
0.049444467 0.0191241 -0.11370975
0.058435392 0.0191241 -0.1163555
0.1601423 0.0191241 -0.11561008
0.18581173 0.0191241 -0.11446565
0.25761953 0.019226477 -0.11010912
-0.13095999 0.029366005 -0.11388574
0.099112049 0.020044431 -0.11983364
0.16976103 0.021394065 -0.11954461
0.20294169 0.022504533 -0.11825512
0.22562104 0.021788236 -0.1163517
0.24374887 0.02887461 -0.11531231
0.25157991 0.024622267 -0.11464036
0.28415143 0.028921958 -0.11075185
-0.092572182 0.033031203 -0.11310936
-0.043183785 0.032008324 -0.11731548
-0.021394759 0.033051051 -0.11635637
-0.0047238404 0.033000503 -0.11703017
0.041393101 0.03265889 -0.11894937
0.11497731 0.033282898 -0.11217136
0.164424 0.033282898 -0.1135432
0.17349608 0.033282898 -0.11200915
0.19733921 0.033282898 -0.111786
-0.30414176 -0.043751802 -0.10379491
-0.24746276 -0.040370464 -0.10513707
-0.27221933 -0.030742047 -0.10835901
-0.24581426 -0.036385804 -0.10936977
0.34500384 -0.030087454 -0.1072747
0.37745136 -0.030099528 -0.1083532
0.38751286 -0.030269612 -0.10440372
-0.27749628 -0.020197012 -0.10277634
-0.2685838 -0.024904903 -0.10035013
0.34415418 -0.022966119 -0.10750298
0.41194427 -0.022840243 -0.10675351
-0.28207448 -0.016435383 -0.1006815
-0.27096307 -0.017401814 -0.10599136
-0.24352381 -0.018594299 -0.10935614
0.39172965 0.0021315431 -0.10027893
-0.28020203 0.010275131 -0.10319665
-0.15165697 0.019146152 -0.10795689
-0.12959014 0.0191241 -0.10921789
-0.07476116 0.019124102 -0.10773515
-0.048036937 0.0191241 -0.10706736
-0.022156304 0.0191241 -0.10211355
0.050073504 0.0191241 -0.10156432
0.0978975 0.0191241 -0.10272741
0.17316519 0.0191241 -0.10419752
0.23226662 0.0191241 -0.10256194
0.26921648 0.0191241 -0.10801408
-0.28527072 0.023518678 -0.10041805
-0.25011614 0.024970874 -0.10400648
-0.22909434 0.024662668 -0.1059971
-0.1865553 0.033282898 -0.10073783
-0.16563554 0.033282898 -0.10021067
-0.12888134 0.033282898 -0.1010434
-0.024856588 0.033282898 -0.10713448
-0.012580412 0.033282898 -0.10634926
0.22945359 0.033282898 -0.10885192
0.24285033 0.033282898 -0.10031804
0.25167033 0.033282898 -0.1014396
-0.26476741 -0.034867175 -0.092034347
0.38535076 -0.033106502 -0.093571708
0.40010202 -0.033579078 -0.09763021
0.37923282 -0.020338211 -0.091941476
0.38114792 -0.021955609 -0.095692366
-0.2818695 -0.014492828 -0.095807418
-0.26602927 -0.019105684 -0.093591698
0.36052799 -0.019138642 -0.095554367
0.37400293 -0.015643209 -0.09427841
-0.26925653 -0.0044368636 -0.092986345
-0.30891699 0.019872384 -0.095698081
-0.29831824 0.0191241 -0.091001667
-0.2880635 0.01927815 -0.096598454
-0.27269706 0.0191241 -0.092784584
-0.22403021 0.0191241 -0.096428156
-0.18335392 0.0191241 -0.098103777
-0.068638071 0.0191241 -0.09705247
-0.0021319431 0.0191241 -0.094128542
0.085413784 0.0191241 -0.098296776
0.20332289 0.0191241 -0.098465145
0.31941465 0.0191241 -0.096672371
-0.32914981 0.027291298 -0.095658764
-0.31644335 0.022225421 -0.096766815
-0.29746556 0.033138141 -0.095527172
-0.28978038 0.030510653 -0.099517398
-0.24487323 0.033282898 -0.096083492
-0.22246945 0.033282898 -0.09040387
-0.20244965 0.033282898 -0.097402215
-0.14623231 0.033282898 -0.097427972
-0.075904757 0.033282898 -0.09610863
-0.050833985 0.033282898 -0.092933334
-0.020691715 0.033282898 -0.092796594
0.0097168162 0.033282898 -0.093495302
0.054839853 0.033282898 -0.094696589
0.1552797 0.033282898 -0.092888467
0.208856 0.033282898 -0.092615664
0.34470943 0.031160908 -0.096369833
0.38719606 -0.031569574 -0.087773755
-0.2799992 -0.024519533 -0.083940201
-0.26790524 -0.026081186 -0.081407145
0.38826543 -0.02075655 -0.084141761
-0.28580731 -0.017462209 -0.080914237
-0.23257193 0.0191241 -0.080172949
-0.22384295 0.0191241 -0.084655575
-0.078403518 0.0191241 -0.080374956
-0.047646247 0.0191241 -0.086139917
0.036041632 0.0191241 -0.08613003
0.06389644 0.0191241 -0.081425294
0.073594138 0.0191241 -0.087633595
0.12368798 0.0191241 -0.086464539
0.19046739 0.0191241 -0.082434639
0.21293354 0.0191241 -0.089422733
0.26783824 0.019124102 -0.085391968
0.28170574 0.0191241 -0.081223726
0.30647859 0.0191241 -0.080977947
-0.4004094 0.024472887 -0.081317246
-0.39125058 0.021851085 -0.082384355
0.37354723 0.027097216 -0.087523013
-0.38286602 0.033504069 -0.086947784
-0.36321187 0.032684814 -0.084060073
-0.32457229 0.033269022 -0.086558044
-0.28966969 0.033282898 -0.084767781
-0.26456836 0.033282898 -0.086308472
-0.23559445 0.033282898 -0.086288624
-0.22762191 0.033282898 -0.080099188
-0.18400306 0.033282898 -0.08175303
-0.15555018 0.033282898 -0.085313618
-0.09808737 0.033282898 -0.08412461
-0.024504982 0.033282898 -0.082118757
0.016543072 0.033282898 -0.081199691
0.099574432 0.033282898 -0.081815027
0.19405083 0.033282898 -0.083574951
0.27769014 0.033282898 -0.084900737
0.29715267 0.033282898 -0.085308701
0.38277814 -0.034163136 -0.075896874
-0.29208758 0.0191241 -0.079164132
-0.26534978 0.0191241 -0.077989236
-0.12981769 0.0191241 -0.077645957
-0.046474162 0.019124102 -0.075622119
0.0054189311 0.0191241 -0.074374616
0.011284502 0.0191241 -0.074790373
0.063373215 0.0191241 -0.076801494
0.16564192 0.0191241 -0.079695851
0.23653094 0.0191241 -0.079972088
0.24511315 0.0191241 -0.070173316
0.2894887 0.019124098 -0.078438789
0.36519027 0.0191241 -0.072423846
0.38986284 0.019486422 -0.077824861
-0.41841692 0.029306769 -0.077959999
-0.43620792 0.035612129 -0.073411427
-0.4053221 0.039613612 -0.070204265
-0.35397676 0.032739572 -0.070471317
-0.2829555 0.033282898 -0.072382092
-0.11127667 0.033282898 -0.072157115
-0.077778816 0.033282898 -0.07084363
-0.018087715 0.033282898 -0.077524967
-0.009219721 0.033282898 -0.076668583
0.093675032 0.033282898 -0.073233172
0.21030295 0.033282898 -0.076709136
0.2205355 0.033282898 -0.070367746
-0.43942362 0.044673443 -0.072660662
-0.27634907 -0.03329242 -0.069949314
-0.27143401 -0.016945191 -0.069866098
-0.34587425 0.018727791 -0.061774444
-0.31791744 0.0191241 -0.068294697
-0.30673766 0.019124102 -0.066942275
-0.25569186 0.0191241 -0.06948594
-0.19323406 0.0191241 -0.066834375
-0.073540136 0.0191241 -0.066421457
-0.04165734 0.0191241 -0.060869887
0.032090537 0.0191241 -0.066476159
0.052497528 0.0191241 -0.061479881
0.080219515 0.0191241 -0.061667323
0.096353486 0.019124098 -0.0666264
0.21483882 0.0191241 -0.06353794
0.22018382 0.0191241 -0.069701277
0.35564956 0.0191241 -0.061778646
0.40857953 0.019511634 -0.069392554
-0.41814744 0.028826628 -0.068289652
-0.4489423 0.036988296 -0.060563363
-0.34114233 0.032973498 -0.06235702
-0.1663913 0.033282898 -0.069881499
-0.15945461 0.033282898 -0.066507824
-0.14413181 0.033282898 -0.067982763
-0.027285883 0.033282898 -0.066211425
-0.010691509 0.033282898 -0.069898643
0.12529814 0.033282898 -0.069339313
0.1606724 0.033282898 -0.06916222
0.23725571 0.033282898 -0.060711928
0.2512759 0.033282898 -0.060170099
0.31113318 0.033282898 -0.066712707
0.41414192 0.031987786 -0.068344846
-0.44347098 0.049645387 -0.061697979
-0.4238281 0.044479981 -0.067034766
-0.28803611 -0.033371631 -0.059969712
-0.27154839 0.0191241 -0.058882847
-0.23895401 0.0191241 -0.059371393
-0.18809587 0.0191241 -0.052179299
-0.1592083 0.0191241 -0.054830357
-0.13879034 0.0191241 -0.052964672
-0.094975427 0.0191241 -0.054310389
-0.016535856 0.0191241 -0.05545643
0.03929827 0.0191241 -0.05294463
0.080064617 0.0191241 -0.059615247
0.11214847 0.0191241 -0.055238828
0.12086841 0.0191241 -0.05256471
0.21988755 0.0191241 -0.05862055
0.22164959 0.0191241 -0.058271468
0.40282452 0.0191241 -0.050330758
-0.43475789 0.033194214 -0.055360146
-0.33403912 0.033102743 -0.059761241
-0.31882825 0.033282898 -0.055157579
-0.29202014 0.033282898 -0.05496642
-0.28283757 0.033282898 -0.056747351
-0.19603024 0.033282898 -0.051073555
-0.1617834 0.033282898 -0.054687604
0.043541931 0.033282898 -0.056306243
0.12263886 0.033282898 -0.050944321
0.17764565 0.033282898 -0.051303413
0.20106167 0.033282898 -0.053282328
0.25841394 0.033282898 -0.058759995
0.26501784 0.033282898 -0.05100143
0.28765449 0.033282898 -0.056246184
0.3256171 0.033282898 -0.057961352
0.34754393 0.033282898 -0.055696864
0.36484599 0.033282898 -0.054750204
0.37866378 0.033282898 -0.055739742
0.40557057 0.033282898 -0.056766856
-0.28717127 -0.034211572 -0.042849738
-0.26859272 -0.028479021 -0.041965935
0.36865118 -0.020797277 -0.045235734
-0.36106038 0.018490259 -0.043456756
-0.23799066 0.0191241 -0.041020941
-0.21064256 0.0191241 -0.041595817
-0.14196327 0.0191241 -0.04718877
-0.0077079153 0.0191241 -0.047823299
0.0042611235 0.0191241 -0.045576356
0.037055954 0.0191241 -0.04781346
0.15733281 0.0191241 -0.049152285
0.20023793 0.0191241 -0.046200108
0.25971991 0.0191241 -0.042640235
0.34379241 0.0191241 -0.048362345
0.43008459 0.0191241 -0.042646188
-0.38663566 0.035087533 -0.046864234
-0.37588298 0.033496503 -0.041045196
-0.36652493 0.032788251 -0.047277458
-0.29782429 0.033282898 -0.041178208
-0.25652292 0.033282898 -0.043819968
-0.24485064 0.033282898 -0.044045649
-0.21934138 0.033282898 -0.042592879
-0.18287653 0.033282898 -0.046081148
-0.13374826 0.033282898 -0.043870322
-0.11404365 0.033282898 -0.044369292
0.095551796 0.033282898 -0.043202136
0.13429825 0.033282898 -0.046917669
0.14622495 0.033282898 -0.048164409
0.16396117 0.033282898 -0.049165871
0.18152222 0.033282898 -0.04452667
0.21991059 0.033282898 -0.046979252
0.23472813 0.033282898 -0.045924339
0.40394717 0.033282898 -0.042550713
-0.45284286 0.052110173 -0.044512935
-0.28953406 -0.033585805 -0.038687978
-0.28000298 -0.0101422 -0.037074417
-0.34969875 0.018658178 -0.03132467
-0.33257645 0.018969817 -0.03393193
-0.29395306 0.016778493 -0.032336999
-0.28095028 0.014493365 -0.034417868
-0.20787941 0.0191241 -0.03098435
0.028379124 0.0191241 -0.03339776
0.059786014 0.0191241 -0.035583377
0.079615332 0.0191241 -0.033543233
0.15985551 0.0191241 -0.035774149
0.35245925 0.0191241 -0.039294347
0.36335716 0.0191241 -0.030097613
0.37212661 0.019058665 -0.031567618
0.38452137 0.019084532 -0.03278498
0.40253228 0.014682765 -0.036891356
0.45303243 0.019337606 -0.039754774
-0.31449661 0.033282898 -0.032215651
-0.30294698 0.033282898 -0.035712063
-0.17647564 0.033282898 -0.035288289
-0.10768318 0.033282898 -0.03467384
-0.012961663 0.033282898 -0.035919707
0.19666862 0.033282898 -0.033068597
0.20027909 0.033282898 -0.031699833
0.22783959 0.033282898 -0.038400162
0.23925596 0.033282898 -0.033747427
0.34249434 0.033282898 -0.031504594
0.36416852 0.033282898 -0.034741152
0.37374008 0.033282898 -0.037428163
0.38990691 0.033282898 -0.030326918
0.43407628 0.033282898 -0.038258877
-0.43961501 0.048631847 -0.0382725
-0.42553666 0.044929534 -0.03632205
-0.45253706 0.052029535 -0.037950695
-0.29353559 -0.032592621 -0.027668387
0.37184817 -0.032303248 -0.02758378
-0.27741581 -0.010306492 -0.028577244
-0.37922162 0.019735213 -0.027737964
-0.3223443 0.0191241 -0.021591937
-0.29189581 0.013435771 -0.022122186
-0.23126042 0.017849149 -0.022500895
-0.20289764 0.0191241 -0.028410211
-0.18097727 0.0191241 -0.024711039
-0.15285429 0.0191241 -0.026428349
-0.087049365 0.0191241 -0.02389456
-0.074926347 0.0191241 -0.029442821
0.011991018 0.0191241 -0.023710385
0.026027583 0.0191241 -0.025968451
0.049315635 0.0191241 -0.029632276
0.058561906 0.0191241 -0.029131878
0.08588475 0.0191241 -0.028032064
0.11054139 0.0191241 -0.021370316
0.32528618 0.0191241 -0.022557974
0.37757787 0.0191241 -0.024215484
0.40329862 0.018965239 -0.026345918
0.41901904 0.0191241 -0.029241433
0.42258346 0.0191241 -0.025413111
-0.34926927 0.032825142 -0.020719288
-0.16479985 0.033282898 -0.020623323
0.0054820627 0.033282898 -0.022554515
0.011629246 0.033282898 -0.029042598
0.060983554 0.033282898 -0.026217878
0.1291409 0.033282898 -0.028256515
0.22503509 0.033282898 -0.025505092
0.32786769 0.033282898 -0.024027029
0.46393812 0.033282898 -0.02059529
-0.47139761 0.042852551 -0.021501608
-0.46452531 0.055182092 -0.027408859
-0.27244365 -0.032546822 -0.012569234
0.40051037 -0.020695331 -0.01592258
-0.29654843 -0.015185526 -0.011390059
-0.29252011 -0.0057692532 -0.010208182
-0.25008103 -0.0072576674 -0.013589476
-0.24385327 -3.411137e-05 -0.014104435
0.34744328 -0.0063340347 -0.011820671
-0.29726952 0.0066685639 -0.016016901
-0.25891677 0.0079032555 -0.016016901
0.33456099 0.0043152794 -0.012124014
0.38500172 5.1358667e-05 -0.010004915
0.39600664 0.00036556023 -0.016011801
-0.31676167 0.0191241 -0.015910808
-0.29548782 0.015087349 -0.014181571
-0.27713311 0.019067798 -0.017665643
-0.25176257 0.019014681 -0.017690003
-0.23951367 0.0191241 -0.017594676
-0.15258376 0.0191241 -0.010853188
-0.062152766 0.0191241 -0.011913557
-0.027123511 0.0191241 -0.01217768
-0.0046038399 0.0191241 -0.013633403
0.045304753 0.0191241 -0.017852113
0.088475436 0.0191241 -0.01047131
0.20163742 0.0191241 -0.015428225
0.21738984 0.0191241 -0.019523565
0.34637916 0.0191241 -0.015775014
0.37770125 0.019068513 -0.011197481
0.41204971 0.0191241 -0.017931473
0.42839473 0.0191241 -0.011177456
0.44712767 0.0191241 -0.011380111
0.47349647 0.021878492 -0.017649429
-0.45585954 0.038743243 -0.017323289
-0.44408622 0.035647195 -0.014927391
-0.4349162 0.033235829 -0.019723082
-0.31563878 0.033282898 -0.010853783
-0.24202292 0.033282898 -0.010023778
-0.22794226 0.033282898 -0.010230574
-0.20891488 0.033282898 -0.015458086
-0.18422541 0.033282898 -0.013884355
-0.16182318 0.033282898 -0.014389982
-0.14746419 0.033282898 -0.016069289
-0.1077734 0.033282898 -0.012999939
-0.074162588 0.033282898 -0.014971728
-0.046616569 0.033282898 -0.011959362
-0.003281787 0.033282898 -0.018968059
0.0083103031 0.033282898 -0.019953525
0.18330559 0.033282898 -0.015348497
0.20842503 0.033282898 -0.015562478
0.21287411 0.033282898 -0.019559043
0.25486067 0.033282898 -0.01668096
0.2689164 0.033282898 -0.014064918
0.29432377 0.033282898 -0.012274252
0.33812413 0.033282898 -0.019170448
0.35793889 0.033282898 -0.010141424
-0.47043598 0.056736466 -0.01875315
-0.29994738 -0.025183914 -0.0044919145
-0.26608092 -0.02328133 -0.005156152
-0.2451016 -0.021569511 -0.0089110751
0.34384003 -0.021585688 -0.0050385925
0.35173339 -0.025674952 -0.0071965777
0.36334363 -0.023706287 -0.0088593895
-0.27387837 -0.014290362 -0.0057594012
-0.26498097 -0.006316077 -0.0058303052
0.34319156 -0.0074836081 -0.00070181245
0.36368376 -0.0046384404 -0.0064593162
-0.30254999 0.0032640321 -0.0038623461
-0.29176843 0.0084191505 -0.0049757194
-0.28661668 0.0042321314 -0.0043495335
0.33437598 0.0088355262 -0.00096921902
0.36313725 0.00098673673 -0.0021970598
0.38489982 0.0028346463 -0.0050969729
-0.37309688 0.019062413 -0.0040688296
-0.34813172 0.018686704 -0.0069406591
-0.30308208 0.01912047 -0.0050670314
-0.24798548 0.0191241 -0.0049776062
-0.21455115 0.0191241 -0.0075979587
-0.1963262 0.0191241 -0.0082068313
-0.064242169 0.0191241 -0.0043434175
-0.015240572 0.0191241 -0.0054839533
0.038042098 0.0191241 -0.005071355
0.13379474 0.0191241 -0.0025614575
0.14365588 0.0191241 -0.0089370422
0.27694473 0.0191241 -0.0091152694
0.29747316 0.0191241 -0.0015671551
0.33310917 0.012511425 -0.0074062878
0.35008764 0.019010343 -0.002132358
0.37408078 0.019060876 -0.009883469
0.38048056 0.0191241 -0.0086228363
-0.40948436 0.026549222 -0.0038604289
-0.45472836 0.038445875 -0.0029005334
-0.33924204 0.03300751 -0.0070175123
-0.32063448 0.033282898 -0.002845573
-0.27829957 0.033282898 -0.0051870234
-0.2030468 0.033282898 -0.0078711035
-0.17059767 0.033282898 -0.0094705438
-0.16660058 0.033282898 -0.0024437148
-0.036819071 0.033282898 -0.0092586968
0.043219179 0.033282898 -0.0017154611
0.11157773 0.033282898 -0.0029809268
0.15767802 0.033282898 -0.002954701
0.19492404 0.033282898 -0.0058328761
0.20326644 0.033282898 -0.005406681
0.23766071 0.033282898 -0.0054528997
0.24280573 0.033282898 -0.0092607569
0.25458741 0.033282898 -0.0063052243
0.27724934 0.033282898 -0.0051562996
0.30991971 0.033282898 -0.0093518738
0.35655808 0.033282898 -0.0074192612
0.37060773 0.033282898 -0.0016066212
0.40393922 0.033282898 -0.0061907331
0.4174495 0.033282898 -0.0059466031
0.45525497 0.033282898 -0.0092710033
-0.46719575 0.041724548 -0.008179524
-0.47073764 0.056815356 -0.0071238172
-0.46007106 0.054010712 -0.0092201857
-0.25464964 -0.036492448 0.0021445076
0.38040805 -0.033459783 0.0042998423
0.34148926 -0.012813468 0.0028804019
0.39107147 -0.0011090627 0.0083538098
-0.29541743 7.4906813e-05 0.0018852206
-0.28325465 4.9675145e-05 0.0069023548
-0.2757622 3.465571e-05 0.0094733601
-0.26110518 0.0022064818 0.0077027325
0.38479751 0.0034965356 0.0071583199
-0.35683069 0.018527696 0.0070809983
-0.32564068 0.019096088 0.001054096
-0.29703587 0.0191241 0.0035168994
-0.14472347 0.019124102 0.0058248611
-0.043744478 0.0191241 0.0072113443
-0.022116816 0.0191241 0.0014608791
-0.0022605443 0.0191241 0.0097183315
0.077229023 0.0191241 0.007312268
0.21670258 0.0191241 0.0051989183
0.23296748 0.0191241 0.0045354683
0.29805377 0.0191241 0.0084659103
0.3041293 0.0191241 0.00072943792
0.35217935 0.0191241 0.0080317408
0.377141 0.0191241 0.00097826333
0.44105873 0.0191241 0.00111607
0.47167444 0.0191241 0.0025986326
-0.40746185 0.026017301 0.002388563
-0.40549457 0.039659414 0.003148491
-0.30615014 0.033284489 0.00062811584
-0.2392025 0.033284422 0.0045611593
-0.22160375 0.033284478 0.0012021036
-0.18303278 0.033284497 0.00035400409
-0.17623907 0.033284329 0.0097332457
-0.10336804 0.033284463 0.0021220478
-0.025920898 0.033284329 0.0098639252
-0.014378354 0.033284359 0.0082503883
-0.0083269924 0.033284388 0.0064558527
0.25739759 0.033284478 0.0011362927
0.26352879 0.033284381 0.0068017212
0.2704019 0.033284433 0.0039265868
0.30271268 0.033284441 0.0033060259
0.32529593 0.033284415 0.0047915415
0.39282805 0.033284497 0.00024250257
-0.28423911 -0.034144118 0.016151365
0.3681339 -0.030371398 0.017313192
-0.26601073 -0.024628073 0.018094286
-0.26622593 -0.019812159 0.011572002
-0.25611952 -0.019797238 0.010059718
0.39688498 -0.013235723 0.011069252
-0.24555154 0.0034910571 0.015254728
0.3552832 0.0034758684 0.013296436
-0.3450954 0.018741965 0.01677189
-0.3333216 0.018956251 0.013246398
-0.28616643 0.015711213 0.016183214
-0.27555037 0.015771616 0.015895167
-0.24972731 0.0191241 0.013499119
-0.22064433 0.0191241 0.011978991
-0.18191087 0.0191241 0.013372619
-0.16205944 0.0191241 0.016334165
-0.12511349 0.0191241 0.017591089
-0.10057496 0.0191241 0.013228179
-0.073267229 0.019124098 0.011850994
0.0085044065 0.0191241 0.012236632
0.023992818 0.0191241 0.014716648
0.039069615 0.019124102 0.019140564
0.14248168 0.0191241 0.013178546
0.1533232 0.0191241 0.0111725
0.18531317 0.019124102 0.01644643
0.26122159 0.0191241 0.012416452
0.27537069 0.019124102 0.019556087
0.39891854 0.019110711 0.019799385
0.4039585 0.018777305 0.013833056
0.47598588 0.029790387 0.010685274
-0.44873303 0.036869347 0.01046117
-0.39982644 0.038168807 0.016373269
-0.31986988 0.033284292 0.012015647
-0.25879991 0.033284161 0.019641832
-0.23954265 0.033284206 0.017024139
-0.20459653 0.033284217 0.016490502
-0.16188173 0.03328418 0.018322801
-0.11119959 0.033284239 0.015231285
-0.003750965 0.033284314 0.010691822
0.016680429 0.033284266 0.013494879
0.073419034 0.03328418 0.018572621
0.096784331 0.033284195 0.017617743
0.10497638 0.033284288 0.012247674
0.32879692 0.033284206 0.016908994
0.43769372 0.033284307 0.013805274
-0.46341777 0.054890942 0.0171887
-0.28890437 -0.033941984 0.028499577
-0.29692841 -0.029882465 0.020276615
-0.27133495 -0.017036919 0.02141292
0.38209605 -0.0082349023 0.022542179
0.393718 -0.0093302075 0.023071824
-0.36093754 0.018491011 0.029144095
-0.31973851 0.0191241 0.022578612
-0.30482924 0.0191241 0.026411369
-0.29622102 0.019110586 0.022480657
-0.28382987 0.019084629 0.021159209
-0.26719803 0.013634968 0.02463001
-0.24958554 0.013314469 0.022020541
-0.23936385 0.0191241 0.029522631
0.13892782 0.0191241 0.025744695
0.16067782 0.0191241 0.024313238
0.18407539 0.0191241 0.02038094
0.20946662 0.0191241 0.025756337
0.28211522 0.0191241 0.024565609
0.35235509 0.012842386 0.020774527
0.40446949 0.0191241 0.022286827
-0.39262956 0.036339287 0.021056429
-0.2988078 0.03328409 0.023511691
-0.094828501 0.033283997 0.029063348
0.0063046217 0.033284001 0.028685804
0.05007948 0.033284049 0.025974903
0.075706683 0.033284113 0.022303665
0.13421351 0.033284087 0.024027957
0.18430156 0.033284012 0.028051442
0.20627823 0.033284117 0.02197936
0.22209314 0.033284009 0.028488901
0.30358708 0.033284143 0.021577237
-0.4409399 0.048979878 0.024371726
-0.42546916 0.044911921 0.021149177
0.37243351 -0.032393925 0.033061944
-0.26851681 -0.028213441 0.039001085
0.3755745 -0.013918126 0.033874724
0.39631173 -0.019702271 0.038773682
-0.29749528 0.019124102 0.031949058
-0.2837047 0.0191241 0.039893456
-0.25080693 0.0191241 0.039492153
-0.083675079 0.0191241 0.039536607
-0.067499049 0.0191241 0.031733196
-0.055433039 0.0191241 0.036419272
-0.036332786 0.0191241 0.031165618
0.0065199398 0.0191241 0.034768648
0.017004248 0.0191241 0.03561224
0.16342297 0.0191241 0.033651829
0.24817806 0.0191241 0.039254766
0.31407896 0.0191241 0.032858379
0.33909976 0.017731585 0.0368976
0.3608723 0.019077282 0.031650707
-0.34420025 0.032917935 0.037210993
-0.31350395 0.033283912 0.034002241
-0.26523292 0.033283893 0.035017934
-0.24286017 0.033283889 0.035340767
-0.23819712 0.033283953 0.031576429
-0.19862697 0.033283912 0.033737626
-0.14412671 0.033283964 0.030946583
-0.10317885 0.033283912 0.03386208
-0.041304052 0.033283815 0.039347548
-0.034150869 0.033283882 0.035666786
0.020903546 0.033283807 0.039913666
0.045963973 0.033283826 0.038842093
0.11092225 0.033283859 0.036979012
0.12814447 0.033283874 0.035988029
0.26435685 0.033283949 0.03754127
0.39649013 0.033283927 0.039045922
0.37832165 -0.03330956 0.043697417
0.36823618 -0.022982283 0.04629622
-0.33752137 0.018879816 0.042775985
-0.30643344 0.0191241 0.045065239
-0.1766354 0.0191241 0.046625756
-0.16542068 0.0191241 0.043946911
-0.13333017 0.0191241 0.04209327
-0.090522788 0.0191241 0.043740891
0.005281155 0.0191241 0.044987667
0.024104152 0.0191241 0.048153598
0.1429996 0.0191241 0.04026404
0.20098391 0.0191241 0.044851921
0.2564818 0.0191241 0.048750836
0.31843328 0.0191241 0.043554507
0.33910283 0.019124102 0.042916931
0.38616776 0.0191241 0.04134218
0.39561826 0.0191241 0.042629037
-0.38544106 0.034908846 0.047853827
-0.28379619 0.033283651 0.049026042
-0.1426774 0.033283774 0.041908443
-0.12089245 0.033283751 0.043052606
-0.007106021 0.033283632 0.04991141
0.043204844 0.033283748 0.043612994
0.095911197 0.033283688 0.049216423
0.10161224 0.0332838 0.040469762
0.16757575 0.033283815 0.042907126
0.34456286 0.033283889 0.044569463
0.44055185 0.033282928 0.047861442
-0.45162922 0.051790956 0.041795895
-0.23792985 0.0191241 0.058157798
-0.22669899 0.0191241 0.058455404
-0.035728976 0.0191241 0.058313657
0.017593637 0.0191241 0.054442134
0.17673852 0.0191241 0.059364997
0.1968198 0.0191241 0.052933298
0.25964522 0.0191241 0.054094858
0.42314467 0.0191241 0.056185633
0.43115005 0.019826349 0.057878733
-0.38107914 0.03415782 0.055784382
-0.30461651 0.033283547 0.054811366
-0.21194577 0.033283509 0.057305329
-0.14155126 0.033283506 0.057392318
-0.09217906 0.033283554 0.054485347
-0.033532687 0.033283468 0.059897374
-0.018424869 0.033283517 0.056703802
0.022021174 0.033283588 0.052500732
0.035091221 0.03328355 0.057818878
0.11662539 0.033283677 0.052382365
0.12180576 0.033283666 0.054226004
0.18842569 0.033283718 0.054026183
0.20822491 0.033283755 0.05183411
0.21398658 0.033283677 0.058688145
0.22821532 0.033283718 0.056400612
0.36414769 0.033283614 0.059269
0.38790631 0.033283684 0.051984683
0.42054987 0.033283152 0.055919159
-0.4520703 0.051845811 0.057685625
0.36791772 -0.021870371 0.064542875
0.38802987 -0.013722869 0.065583214
-0.36164454 0.018496888 0.067554928
-0.35231534 0.018610144 0.067718476
-0.23718265 0.0191241 0.062300768
-0.21175477 0.0191241 0.060669083
-0.15180226 0.0191241 0.065409809
-0.06347461 0.0191241 0.064190924
-0.0089218253 0.0191241 0.068751402
0.038609169 0.0191241 0.069602817
0.061999582 0.0191241 0.067476027
0.13423747 0.0191241 0.067138992
0.14517443 0.0191241 0.067181215
0.17783967 0.0191241 0.064605601
0.21168612 0.019124098 0.069887713
0.3988733 0.0191241 0.062663406
0.40973562 0.019539595 0.068921626
0.42072156 0.019167287 0.061636925
-0.32641464 0.033241615 0.060254805
-0.18191028 0.033283364 0.065520838
-0.12330282 0.033283383 0.064318016
-0.0046417117 0.033283494 0.06000483
0.12071606 0.033283602 0.060159214
0.23727667 0.033283573 0.067760527
0.2471543 0.033283651 0.062101468
0.30586231 0.033283539 0.0686654
0.33707857 0.033283591 0.063308075
-0.42324501 0.044326756 0.061177459
0.38513929 -0.03450276 0.0719781
0.37902418 -0.022032473 0.075406298
-0.27552152 -0.014504286 0.079220325
-0.36173236 0.018498447 0.070927054
-0.3551513 0.018558308 0.074817486
-0.33555967 0.018915517 0.072803244
-0.28853619 0.0191241 0.070899405
-0.25908858 0.0191241 0.074354485
-0.16221273 0.0191241 0.071517393
-0.033845805 0.0191241 0.077840596
0.019663906 0.0191241 0.073177345
0.14170483 0.0191241 0.075707257
0.17997581 0.019124102 0.075603619
0.22125022 0.019124102 0.072178572
0.23036921 0.0191241 0.079743698
0.29900193 0.019124102 0.074627295
0.3292782 0.0191241 0.07520093
0.36311522 0.0191241 0.078372903
0.37056389 0.0191241 0.075472131
-0.3743009 0.033330105 0.07144662
-0.36842325 0.032875113 0.07980945
-0.34438461 0.032914869 0.077645391
-0.12519869 0.033283237 0.075416684
-0.090383604 0.03328329 0.073475525
-0.072603025 0.033283293 0.074568316
-0.066782869 0.033283282 0.076602995
-0.047985457 0.033283297 0.076675452
-0.01245264 0.03328339 0.070028618
0.11835998 0.033283439 0.075110577
0.15418901 0.033283498 0.071717665
0.21127766 0.033283517 0.071607217
0.24847326 0.033283427 0.078094028
0.2670933 0.033283416 0.078152657
0.32979959 0.033283331 0.078180954
0.36445409 0.033283249 0.074559622
-0.27135801 -0.032641865 0.089507893
-0.2782647 -0.020393651 0.089525387
-0.28469172 -0.014504349 0.088336378
-0.3447873 0.018783247 0.089390218
-0.28731215 0.0191241 0.085777357
-0.11460537 0.0191241 0.080024466
-0.10435015 0.0191241 0.087916337
0.016158275 0.0191241 0.085370809
0.024361338 0.0191241 0.088305801
0.039452977 0.0191241 0.08835008
0.057577446 0.0191241 0.085210741
0.070467487 0.0191241 0.089688025
0.11147931 0.0191241 0.081826493
0.21179406 0.0191241 0.085628614
0.22553521 0.0191241 0.08450672
0.34368965 0.0191241 0.083703235
-0.39581251 0.0361115 0.084681332
-0.32324618 0.03328307 0.081688657
-0.31336063 0.033283073 0.082151771
-0.27470946 0.033282988 0.087251395
-0.19286671 0.0332831 0.083294421
-0.10238376 0.033283137 0.087923616
-0.073999047 0.033283144 0.089621156
-0.05704999 0.033283181 0.087580636
-0.011233516 0.033283249 0.08434172
0.035776101 0.03328329 0.083637886
0.099100359 0.033283263 0.088948801
0.11441527 0.033283267 0.089202166
0.16974522 0.033283327 0.085599303
0.28322101 0.033283256 0.086812839
0.32768965 0.033283178 0.085772514
0.35827821 -0.046481069 0.098800868
-0.2908349 -0.038659085 0.0962319
-0.27158675 -0.033728685 0.097182535
-0.28799349 -0.024824549 0.099325515
0.36095122 -0.020272087 0.092202067
0.37263048 -0.0264851 0.095684253
-0.28155026 -0.014493449 0.095489986
0.35883415 -0.014155166 0.093413986
0.374991 -0.013661898 0.09526974
-0.29141474 -0.0029116841 0.098032311
0.37881967 -0.001627429 0.093376614
0.39794597 -0.00068408268 0.098140508
-0.27480894 0.0040181121 0.09932895
0.38378417 0.002186344 0.095387191
-0.30042842 0.0191241 0.093738131
-0.27174044 0.019124102 0.09109433
-0.16364557 0.0191241 0.097262494
-0.15913521 0.0191241 0.094029605
-0.072584108 0.0191241 0.094571762
-0.04530311 0.0191241 0.095849618
-0.00030848617 0.0191241 0.093608789
0.10084298 0.0191241 0.090701714
0.14696848 0.0191241 0.097921148
0.2419759 0.0191241 0.091753922
0.26383686 0.0191241 0.095186867
0.30118749 0.0191241 0.091405869
0.33063811 0.0191241 0.092448011
-0.35952419 0.021187359 0.091600567
-0.29521626 0.021304861 0.098637253
-0.35832542 0.031767901 0.090215422
-0.21483898 0.033283006 0.091341913
-0.16615325 0.033282999 0.096591309
-0.1233132 0.033283088 0.091405809
0.029003326 0.033283152 0.09580037
0.11934195 0.03328317 0.096970789
0.18062088 0.033283219 0.093802735
0.2718451 0.033283159 0.093533568
0.32229835 0.033282958 0.096047208
0.33722761 0.033283006 0.090579472
-0.27661288 -0.053513195 0.10143229
0.3805733 -0.05718933 0.10889351
-0.27070096 -0.030701194 0.108354
0.3763442 -0.032064535 0.1049675
0.38022351 -0.034574073 0.10777656
-0.28738645 -0.02220878 0.10383634
-0.2680921 -0.021896673 0.10836075
0.38553488 -0.020516742 0.10482755
-0.24711505 -0.018276282 0.10181057
0.37080273 -0.019780101 0.10214909
0.40990508 -0.011016165 0.10360908
-0.30449367 -0.0033421044 0.10872622
-0.25367945 -5.5643904e-05 0.10477565
0.34950316 -0.0083805658 0.10095256
0.40005648 0.00091986585 0.10114705
-0.17516574 0.0191241 0.10355274
-0.083229057 0.0191241 0.10306978
-0.070663109 0.0191241 0.10695203
-0.032246333 0.0191241 0.10713831
0.11344305 0.0191241 0.10800903
0.1577854 0.019124098 0.10350755
0.16178536 0.0191241 0.10352529
0.20427659 0.0191241 0.10316803
0.28241771 0.019240949 0.10718922
-0.28375071 0.022931213 0.10050626
-0.27502218 0.022173656 0.10117488
-0.26200992 0.023662362 0.10281494
-0.25161067 0.024853986 0.10387044
-0.22980243 0.029975325 0.10569861
-0.18853638 0.020244172 0.10785832
0.33490455 0.027653711 0.10002977
0.066014171 0.033282999 0.10921013
0.14777297 0.033283006 0.10889428
0.18829563 0.033283114 0.10062174
0.2297308 0.033282932 0.10989006
0.25068256 0.033283047 0.10148132
0.26326072 0.033282947 0.10607193
0.37280959 -0.056781255 0.11414596
0.34431919 -0.021733947 0.11400917
0.38653859 -0.022329167 0.11962023
0.38155264 -0.015688362 0.11609885
-0.29057193 0.0077926805 0.11502048
0.034178548 0.019756233 0.11885408
0.11523703 0.0191241 0.11168011
-0.097153023 0.025034279 0.11614125
-0.087381721 0.024923529 0.11669393
0.16857557 0.020033479 0.11830591
0.23886722 0.024239251 0.11578456
0.24247389 0.026795886 0.1154711
0.28647205 0.02868719 0.11045284
-0.15890545 0.03156165 0.11084174
-0.10781281 0.032504622 0.11332965
0.035759624 0.033251017 0.11676552
0.11537886 0.033282943 0.1137244
0.121788 0.033150714 0.11793329
0.17934662 0.03204013 0.11825161
0.27566972 0.031796616 0.11072397
0.38432056 -0.053632986 0.12607238
0.36112261 -0.047889516 0.12708566
0.35195518 -0.017712049 0.12939228
0.41111386 -0.019446271 0.12326284
-0.25894928 0.0054794149 0.12493245
0.38857609 0.0069436328 0.12493642
-0.2811496 0.010342693 0.12107258
-0.0038672206 0.025934506 0.12021843
0.053397685 0.026434816 0.12146314
0.075841643 0.028686147 0.12162979
0.12719658 0.024819572 0.12156284
0.14249989 0.023084125 0.12111609
-0.26746458 -0.04568154 0.13393313
0.3704049 -0.035442147 0.13335873
-0.2852844 -0.02203588 0.13062713
-0.26786762 -0.027792268 0.13070159
0.36615863 -0.021211971 0.13249674
-0.25147039 -0.01502657 0.13262078
0.36258411 -0.019906538 0.1333788
-0.2623741 -0.0037046326 0.13385524
0.37517291 -0.0085531063 0.13331826
