# .PCD v0.7 - Point Cloud Data file format
VERSION 0.7
FIELDS x y z
SIZE 4 4 4
TYPE F F F
COUNT 1 1 1
WIDTH 918
HEIGHT 1
VIEWPOINT 0 0 0 1 0 0 0
POINTS 918
DATA ascii
0.039895482 0.044606745 -0.16220661
0.062952012 0.049042612 -0.16185138
0.1074001 0.042103365 -0.16372706
0.12397785 0.041782442 -0.16383322
0.13948965 0.049039118 -0.16211443
0.16127214 0.049053211 -0.16234446
0.059288088 0.038881138 -0.15357104
0.13504988 0.039064746 -0.15575059
0.26962757 0.038580164 -0.1513004
-0.055682264 0.047966361 -0.15034758
-0.013228042 0.048357636 -0.15452468
0.078508422 0.048640963 -0.15778872
0.097600326 0.048567832 -0.15710844
0.1241132 0.048132047 -0.15274489
0.16454212 0.04790267 -0.15054728
0.19160204 0.048345543 -0.15519881
0.22484091 0.047679767 -0.15846698
0.23678577 0.042851355 -0.15670076
0.26141724 0.044313017 -0.1527268
0.29773989 -0.067908123 -0.14617611
-0.26373002 -0.057581544 -0.14071287
0.26636574 -0.040959083 -0.14663492
0.25885442 -0.03560476 -0.1401422
0.27334747 -0.030545287 -0.14285687
-0.25298548 -0.029595371 -0.14093883
0.25881875 -0.029511027 -0.14193018
-0.25844035 -0.012919587 -0.14095376
0.28087503 -0.01405325 -0.14368534
0.30747849 -0.015708627 -0.14016901
0.31174392 -0.019617002 -0.14013276
0.29288626 0.0052479329 -0.14364749
-0.092638955 0.037838049 -0.14206102
-0.075215168 0.037836242 -0.14228746
-0.053948481 0.038261801 -0.14677386
-0.042981997 0.038186681 -0.14604557
-0.035331193 0.038011894 -0.144283
0.026391773 0.038313635 -0.14761809
0.14986773 0.038206466 -0.14699957
0.1514267 0.038357858 -0.14855526
0.22534776 0.037958611 -0.14474896
0.30401638 0.037613254 -0.14048091
0.31486627 0.037744854 -0.14225541
-0.13328138 0.040486474 -0.14067705
0.013989517 0.047494039 -0.14576972
0.089069106 0.047826122 -0.14947285
0.19423781 0.047655568 -0.14812896
0.21450804 0.047120571 -0.14221534
0.31599689 0.044031534 -0.14283097
-0.31096333 -0.059239618 -0.1350652
-0.29554045 -0.05350621 -0.13865519
-0.30570421 -0.042218059 -0.13674007
0.30754033 -0.040589336 -0.13696325
-0.32317328 -0.03787265 -0.13759418
-0.26608855 -0.03312115 -0.13468519
0.33355933 -0.025546117 -0.13907327
-0.28176159 -0.011740804 -0.13434017
0.27466512 -0.0014828881 -0.1376105
-0.10286169 0.037389692 -0.1363102
0.0088846833 0.036912337 -0.13033608
0.065627448 0.037114847 -0.1331791
0.30992472 0.037483394 -0.13878284
-0.17698592 0.046482943 -0.13261396
0.046392109 0.046312619 -0.13103245
0.11817823 0.046468996 -0.13331908
0.13199103 0.046635635 -0.13556209
0.21572459 0.046438634 -0.13320796
0.30240363 -0.069542989 -0.12571855
-0.32051837 -0.046300679 -0.12240212
-0.25057638 -0.04356391 -0.12714596
0.33357561 -0.025628082 -0.12061132
-0.25378031 -0.011423181 -0.12778369
-0.32397157 0.036298349 -0.1212291
-0.2921879 0.037844315 -0.12861294
-0.24782987 0.036895275 -0.12934496
-0.1562359 0.036650721 -0.12638369
-0.073524363 0.036662117 -0.1267809
-0.039471619 0.036419969 -0.12368463
-0.023316845 0.036864035 -0.12959668
-0.0071835816 0.036227308 -0.12123935
0.041513056 0.036624581 -0.1266308
0.073091879 0.036813218 -0.12921615
0.080054387 0.036140651 -0.12035085
0.12268801 0.03666785 -0.12744451
0.14650765 0.036198258 -0.12131402
0.23266582 0.036643982 -0.12745965
0.26929921 0.0365039 -0.12571891
0.33310336 0.036358539 -0.12399057
0.35801288 0.037196681 -0.12608664
-0.39077497 0.046903823 -0.12200092
-0.38053408 0.044628244 -0.12457132
-0.36158687 0.043581724 -0.12743065
-0.34890553 0.046438694 -0.12240953
-0.31811923 0.045526206 -0.12780267
-0.29931971 0.045382425 -0.12834862
-0.26690322 0.045624457 -0.12100509
-0.24292588 0.04629977 -0.12999395
-0.13659221 0.045853719 -0.12441454
-0.033801734 0.046078786 -0.12770411
0.0086044222 0.045753699 -0.12353511
0.10437934 0.045923147 -0.12606148
0.11506392 0.045555621 -0.12123609
0.35581619 0.046511069 -0.12839267
0.36193699 0.04660349 -0.12034605
0.37374711 0.049421418 -0.12663192
-0.42687076 0.055777609 -0.12418029
-0.39099735 0.053247973 -0.12737161
0.38505211 0.051770255 -0.12194088
0.30541861 -0.068930946 -0.11074276
0.33352745 -0.039201431 -0.11236755
-0.32437614 0.036079727 -0.11833911
-0.28994316 0.035720974 -0.11370176
-0.27722609 0.035742622 -0.11402591
-0.20719844 0.035875078 -0.11598569
-0.15822947 0.035957009 -0.11721486
-0.088645503 0.035774469 -0.1150111
0.006615825 0.035637915 -0.1134918
0.051704861 0.035986133 -0.11822401
0.20261322 0.035519328 -0.11251144
0.26312384 0.035975434 -0.11871776
0.3503215 0.035517372 -0.11166911
-0.39456797 0.046966441 -0.11080824
-0.38708752 0.045571998 -0.11619481
-0.35878056 0.047747161 -0.1115848
-0.27027029 0.044818413 -0.11034275
-0.17188981 0.044942562 -0.11227322
-0.13709465 0.045260821 -0.11658047
-0.1249399 0.045042276 -0.11372973
-0.011977691 0.045367166 -0.11836492
0.41784978 0.049582198 -0.11277279
-0.43585977 0.057412419 -0.11716253
0.41858464 0.05899629 -0.11127193
0.42913559 0.052091476 -0.11015154
-0.43861079 0.060179066 -0.11875658
-0.41509467 0.061797131 -0.11768264
-0.26382947 -0.061312433 -0.10587806
-0.31955111 -0.048331998 -0.10532019
-0.27688095 -0.04274077 -0.10328698
0.28061181 -0.044544071 -0.10612424
0.2759344 -0.039299883 -0.10483497
0.32169086 -0.033365723 -0.10119234
-0.28360805 -0.015963065 -0.10325146
0.31428993 -0.015532694 -0.10210814
0.26693928 -0.0087833786 -0.10590959
-0.2760849 0.0055021355 -0.10601371
0.31486425 0.00061967678 -0.1051915
-0.32517186 0.035337262 -0.10852616
-0.14911726 0.034973487 -0.10352015
-0.087219559 0.034992926 -0.10396627
-0.063558452 0.035243325 -0.10806786
-0.045123294 0.035347722 -0.10950248
-0.0028058663 0.034859553 -0.1016144
0.15745333 0.035222195 -0.10845014
0.20481668 0.03485385 -0.10179804
-0.31958568 0.044597946 -0.10728215
-0.22189862 0.044368379 -0.10414036
-0.13387156 0.044229221 -0.10167903
-0.069718532 0.044264104 -0.10241346
0.11288425 0.04435911 -0.10442871
0.12809065 0.044323757 -0.10379564
0.16152003 0.044250298 -0.10248297
0.28405941 0.044450462 -0.10636019
0.43820128 0.057255115 -0.10779179
-0.27439514 -0.062484894 -0.094197415
-0.26233453 -0.051968612 -0.094077691
0.27688128 -0.056736283 -0.099719182
-0.31870186 -0.049867436 -0.095513538
-0.24952346 -0.040080976 -0.097136937
0.26549381 -0.048177287 -0.099995054
-0.31195304 -0.034673639 -0.094989501
-0.31559324 -0.029352184 -0.094237149
-0.30923286 -0.0048207142 -0.094371572
-0.28335947 0.0029068373 -0.094223373
-0.29911032 0.034320954 -0.091228873
-0.25301421 0.034565888 -0.095828295
-0.19675353 0.034566708 -0.095921844
-0.17266114 0.034742907 -0.099217884
0.087249443 0.034446433 -0.094090581
0.17447652 0.034463562 -0.094530687
0.22493853 0.034615122 -0.097407341
0.32614341 0.034234695 -0.090508409
0.36409038 0.03598401 -0.096109606
-0.40739644 0.048998915 -0.093800373
-0.37309712 0.040629096 -0.091942102
-0.35450441 0.045893751 -0.099219128
-0.32533735 0.043909874 -0.09550298
-0.25141767 0.044013284 -0.097519845
-0.24402285 0.043967515 -0.096683212
-0.21773168 0.043722898 -0.092196003
-0.18273324 0.043631952 -0.090554401
-0.173219 0.04379195 -0.093528233
0.047798373 0.04361207 -0.090509437
0.11004772 0.04404686 -0.09864492
0.20028745 0.043953601 -0.097045533
0.26669785 0.044031519 -0.09858115
0.29616028 0.043598045 -0.090598807
0.34091824 0.043865316 -0.095608927
0.36365676 0.045293286 -0.096424066
0.4076941 0.055285037 -0.092771046
-0.37001675 0.039745651 -0.089329734
-0.30355781 0.034115691 -0.087422073
-0.29035252 0.033786822 -0.081351206
-0.16666612 0.033788502 -0.081554584
0.037557781 0.033782955 -0.081739351
-0.24369225 0.04352656 -0.088520989
-0.18843512 0.043545801 -0.088952467
-0.0027871784 0.04323842 -0.083522141
0.0036639934 0.043301217 -0.084693514
0.045309003 0.043223955 -0.083321907
0.067107335 0.043471821 -0.087940544
0.08885055 0.043556228 -0.089533523
0.10886709 0.043500438 -0.088528976
0.15851191 0.043273188 -0.084392279
0.27354306 0.043080676 -0.080990411
0.28223145 0.043478251 -0.088361852
0.29952195 0.043268126 -0.084496617
0.35974681 0.044348665 -0.089137256
-0.39772803 0.055529535 -0.084645085
0.42161024 0.058104955 -0.083456904
-0.14260209 0.033581138 -0.077749446
-0.11486552 0.033486102 -0.07602945
-0.0770716 0.03329742 -0.072590224
0.0015732311 0.03362333 -0.078733876
0.01315935 0.033467505 -0.07582321
0.081080474 0.033601038 -0.078433499
0.10744215 0.033496626 -0.076537982
0.1881483 0.033378616 -0.07446754
0.20968454 0.033657655 -0.079662904
0.36309826 0.034487892 -0.070703208
-0.37771693 0.04087222 -0.075785488
-0.32824987 0.042931445 -0.07738255
-0.099515736 0.042535037 -0.070288658
-0.067458808 0.042933021 -0.077778243
0.04166716 0.04281288 -0.075707816
0.080139294 0.04280331 -0.075584613
0.11199689 0.042764321 -0.07458543
0.33053452 0.043015871 -0.079870924
0.41587755 0.047061898 -0.078131825
-0.44481748 0.056848582 -0.072038695
-0.40546083 0.056644883 -0.070738904
-0.39411968 0.053957365 -0.071608759
0.41062528 0.054834902 -0.071640491
-0.43991676 0.065276481 -0.076753207
0.43596208 0.060962223 -0.072164141
-0.36874816 0.038217887 -0.065283164
-0.32539007 0.032947674 -0.063673861
-0.16906327 0.033085525 -0.067568809
-0.042785645 0.032861363 -0.060356569
0.021939583 0.033016041 -0.064982653
0.11297521 0.033071857 -0.066495575
0.18826506 0.033165473 -0.069211967
0.22860359 0.033032257 -0.065005764
0.2895574 0.033074249 -0.066161178
0.30206472 0.03304591 -0.065257214
0.33216599 0.033074182 -0.066060551
-0.41124934 0.048634827 -0.069805816
-0.40515918 0.047169805 -0.06986706
-0.32758215 0.042380638 -0.066052683
-0.24543358 0.042496745 -0.06945432
-0.18477352 0.042237304 -0.061304614
-0.17745137 0.042274296 -0.062427443
-0.093544975 0.042405609 -0.066274509
-0.0882416 0.042317919 -0.063559763
0.00085415319 0.042248428 -0.061211109
0.13593139 0.042505749 -0.068843007
0.15635549 0.042261116 -0.061241981
0.17924204 0.042436849 -0.066615105
0.19303402 0.042355381 -0.064067572
0.21565057 0.042521168 -0.069134116
0.22262827 0.042509757 -0.068765618
0.30081129 0.042323735 -0.062840894
0.36669895 0.044223286 -0.064741343
-0.41054887 0.05768976 -0.066689789
0.42465618 0.058051281 -0.0668744
-0.25174743 0.032577857 -0.05208626
-0.24374646 0.032763965 -0.057813548
-0.19012929 0.032817163 -0.05933224
-0.18162543 0.032800678 -0.058803584
-0.13079128 0.032522194 -0.050088514
-0.12330151 0.032655552 -0.054188229
0.10192266 0.032575168 -0.051185738
0.19183505 0.032570526 -0.050834145
0.20788178 0.032858737 -0.059696
0.22710034 0.032850046 -0.05938315
0.33109292 0.032612879 -0.051819295
0.35651207 0.033234555 -0.056442812
0.36416689 0.03410979 -0.054810081
0.37073332 0.035417199 -0.057657953
-0.41357505 0.048578121 -0.051336516
-0.22686012 0.042174377 -0.059460271
-0.071120977 0.042136323 -0.057916619
-0.041801542 0.041982904 -0.053111322
-0.012401052 0.041956808 -0.052237459
-0.0077767391 0.042188041 -0.05936652
0.023625806 0.042092253 -0.05633603
0.042805161 0.042125486 -0.0573176
0.19631833 0.041911967 -0.050369397
0.20237872 0.041981913 -0.052514881
0.38761571 0.048869636 -0.059703074
0.42984879 0.049571898 -0.056159768
-0.42504328 0.051311217 -0.0503879
0.44967407 0.054415949 -0.057990365
-0.36529455 0.036877584 -0.049198769
-0.3124139 0.032232709 -0.041570399
-0.30141276 0.032365777 -0.045653161
-0.116946 0.032395504 -0.046145022
-0.10236374 0.032411747 -0.046612944
-0.097529411 0.032376919 -0.045526266
0.018649995 0.032250024 -0.041338995
0.024957091 0.032456495 -0.047699571
0.05685696 0.032373056 -0.045049462
0.12142789 0.032273129 -0.041814424
0.25878409 0.032291178 -0.042053517
0.31150967 0.032367915 -0.044300862
0.34498262 0.032553971 -0.049968198
-0.41398141 0.048495196 -0.045616072
-0.38822699 0.04242745 -0.049969569
-0.36911649 0.046874285 -0.040382527
-0.33455107 0.041583925 -0.041468672
-0.32251984 0.041766129 -0.047067739
-0.30587468 0.041673966 -0.044184688
-0.29899824 0.041555781 -0.040520735
-0.27876502 0.041751459 -0.046517678
-0.18073191 0.041555088 -0.040219326
-0.1700373 0.041590098 -0.041277539
-0.15822805 0.041662443 -0.043495242
-0.13838011 0.041645911 -0.042928111
-0.09340284 0.041678336 -0.043820128
-0.064091519 0.041821785 -0.048188157
-0.047142606 0.04156778 -0.040306047
0.079655014 0.041610517 -0.041332193
0.2163429 0.041739643 -0.045002684
0.28761673 0.041857418 -0.048474081
0.34694144 0.041871268 -0.048506677
0.35423118 0.041954104 -0.042503603
-0.44453633 0.055811621 -0.044194859
0.46301907 0.060834419 -0.048915271
-0.32562143 0.032067664 -0.036505301
-0.30878395 0.032152761 -0.039093636
-0.26151434 0.032036845 -0.035405513
-0.19174039 0.032049667 -0.035639837
-0.18406799 0.032058373 -0.035836905
-0.17621258 0.031975016 -0.031911276
-0.11666298 0.032190196 -0.039805047
-0.068556845 0.032192998 -0.039780185
-0.012487434 0.032197267 -0.039782196
0.087660551 0.032098897 -0.034999482
0.16004013 0.03203208 -0.030111739
0.19745943 0.032063838 -0.032281507
0.33252957 0.032228351 -0.039942894
0.34163785 0.032146242 -0.036964417
-0.40075445 0.044904765 -0.032853268
-0.30925295 0.041287687 -0.030694006
-0.1800051 0.041434012 -0.036485925
0.10240777 0.041439444 -0.035997763
0.19222555 0.041558284 -0.039459251
0.21115035 0.041420747 -0.032133356
0.22207314 0.04144942 -0.034565717
0.32880425 0.041435711 -0.03105063
0.38224486 0.046716481 -0.030461358
0.41044879 0.044170059 -0.030895634
0.43189013 0.049336374 -0.030374561
-0.43942347 0.054444265 -0.039902125
-0.40139121 0.054487292 -0.035218749
0.4189088 0.055557922 -0.030158734
-0.36516953 0.036224585 -0.022054434
-0.19755048 0.031884763 -0.023942374
-0.1713976 0.031878382 -0.022802621
-0.11274481 0.031949155 -0.028142644
-0.062333487 0.031974219 -0.029423738
-0.032852829 0.031945035 -0.026080217
-0.0047587492 0.031967532 -0.027610239
0.088410072 0.031937752 -0.022864556
0.13358004 0.032020446 -0.029605463
0.1522283 0.031923492 -0.020205259
0.20181717 0.032028407 -0.028953068
0.25015455 0.031982951 -0.023666462
0.36717293 0.033882368 -0.025621425
0.38503715 0.037914999 -0.021200296
-0.23925695 0.041240789 -0.024893153
-0.20548582 0.04124926 -0.024933439
-0.014487905 0.041265409 -0.022444367
0.029564749 0.041311961 -0.025841845
0.058982465 0.041363344 -0.029994301
0.07220231 0.041300461 -0.023881093
0.16367099 0.041385047 -0.029815344
0.1872828 0.041352019 -0.026254455
0.24469221 0.041402906 -0.029774915
0.26112139 0.041319065 -0.021638801
0.31632954 0.041321136 -0.02066665
0.3315002 0.041401707 -0.027833804
0.379269 0.045956582 -0.027182536
0.38031083 0.046163701 -0.023727942
-0.4022902 0.054561786 -0.026705943
0.42618477 0.057281692 -0.02769069
-0.45494407 0.067217894 -0.024330799
-0.37500274 0.038535513 -0.016052008
-0.34900871 0.032482598 -0.011319041
-0.10270462 0.031853195 -0.019032868
-0.0044299811 0.031785123 -0.010666233
0.062121943 0.031897485 -0.019681793
0.09462671 0.031839415 -0.013617038
0.15688244 0.031880464 -0.016118553
0.25363532 0.03193156 -0.018828889
0.3182978 0.0319332 -0.017631439
0.33558238 0.03195174 -0.01902638
-0.39493409 0.043283321 -0.010634511
-0.37316012 0.047445938 -0.015925802
-0.34488273 0.041364722 -0.013703608
-0.33841962 0.041062526 -0.010398678
-0.31458628 0.041079726 -0.011503223
-0.27640039 0.04107723 -0.01047618
-0.17877305 0.041149974 -0.015142251
0.12379327 0.041184768 -0.01205582
0.16888902 0.041259184 -0.018019952
0.21317208 0.041190464 -0.010699359
0.31202638 0.041213565 -0.010760281
0.33518887 0.041274965 -0.015977925
0.36161271 0.042315364 -0.019761907
0.37993792 0.045914792 -0.011309931
0.40201551 0.051240053 -0.011224572
0.4451893 0.052301783 -0.011334553
-0.46714565 0.069435827 -0.010432231
-0.45489645 0.067160256 -0.019469913
-0.36164659 0.035245728 -0.0082161902
-0.28958395 0.031687003 -0.0075583453
-0.23382501 0.031625994 -0.00073747314
-0.22877067 0.031666033 -0.0043403092
-0.16692993 0.031638414 -0.00048477296
-0.15699139 0.031658173 -0.002106623
-0.085635073 0.031673454 -0.002025214
-0.045416459 0.031679422 -0.0017343796
-0.0042053312 0.031683244 -0.0012241371
0.053868122 0.031697176 -0.0012968613
0.067766145 0.031770684 -0.007814345
0.11574939 0.031727988 -0.0028528722
-0.4197087 0.049199905 -0.0054090489
-0.39519212 0.04327989 -0.0036353944
-0.37100276 0.046796538 -0.002116184
-0.31691355 0.041053567 -0.0091235898
-0.30679226 0.040977649 -0.0018621234
-0.21289369 0.040998925 -0.0018710815
-0.17665324 0.041051988 -0.0060293423
-0.15961973 0.04104637 -0.0051533766
-0.11620854 0.041028563 -0.0026172681
0.030904423 0.041121729 -0.0081572626
0.080288693 0.041137394 -0.0085714068
0.10995467 0.041151606 -0.0092660552
0.11466652 0.041078992 -0.0024186193
0.12513165 0.041080628 -0.0023499706
0.19289392 0.041158482 -0.0081553059
0.21617244 0.041107524 -0.0029285715
0.24881232 0.041136939 -0.0049732728
0.35533065 0.041532423 -0.00584854
0.38619101 0.047322676 -0.0034372713
0.41596681 0.045148559 -0.003308448
-0.43081105 0.051905651 -0.0088471211
0.44969636 0.062687941 -0.0068654381
-0.30441481 0.031580716 0.0019762008
-0.29076448 0.031638782 0.0087202825
-0.17438701 0.03162545 0.00055949064
-0.084644392 0.031657748 0.0032748973
-0.013863009 0.031689011 0.0036984929
-0.0041319244 0.031744443 0.0084949993
0.012918323 0.031673469 4.0305662e-05
0.02460853 0.031753022 0.0082856109
0.06079635 0.031695187 0.0016617209
0.15209717 0.031805109 0.0086566657
0.21224099 0.03174711 0.0011808675
0.26464567 0.031775177 0.0019504741
0.38178968 0.036926761 0.0026009027
-0.37123615 0.046882045 0.0096791312
-0.36293834 0.044871546 0.0086045479
-0.25027719 0.04099527 0.0073300283
-0.12080592 0.040998429 7.8667101e-05
-0.025024548 0.04106304 0.0057545933
0.061490871 0.041087717 0.0050150598
0.25531051 0.041209608 0.0095231719
0.34527123 0.041206121 0.006063344
0.40706289 0.052423164 0.0066630458
0.41644526 0.054662321 0.0039145844
0.44051111 0.051101286 0.0023156242
0.46029529 0.055902261 0.0049217525
-0.46587542 0.060259406 0.00061756978
-0.45024693 0.06582541 0.0034207096
-0.32892013 0.031732738 0.018760083
-0.29703951 0.031733613 0.017727179
-0.28485122 0.031674869 0.011857575
-0.25691706 0.031727988 0.015803827
-0.20253442 0.031728357 0.013937747
-0.18358807 0.031742875 0.014620884
-0.1454885 0.031730559 0.012148044
-0.11264854 0.031800896 0.017518513
-0.060758375 0.03184611 0.019894181
-0.051473081 0.031759314 0.01152734
-0.023281245 0.031800695 0.014395905
0.039286964 0.031868551 0.018478638
0.073989078 0.031854279 0.015943076
0.2080332 0.031897645 0.015284142
0.24002931 0.031857084 0.010405133
0.26665005 0.031923071 0.015595488
0.28669077 0.031906694 0.013376654
0.36586773 0.033531412 0.014505039
-0.36677721 0.045922369 0.018534623
-0.19636482 0.041149236 0.019767363
-0.15932204 0.041061476 0.01036483
0.1223165 0.041249324 0.017840978
0.36516345 0.042776477 0.015190785
0.38449943 0.04703775 0.013214353
-0.44344258 0.054937508 0.01245097
0.44597015 0.052550904 0.016297361
0.45720917 0.055251259 0.014920758
0.46495515 0.057114627 0.01421286
-0.43857428 0.063093774 0.010321005
0.446536 0.062017091 0.01351535
0.4588463 0.064976305 0.012152776
0.46686181 0.063036084 0.01136592
-0.38035181 0.039918438 0.025189208
-0.33608603 0.03176301 0.02181353
-0.1375221 0.031921104 0.029526452
-0.0043490231 0.031943612 0.026964068
0.13965109 0.031967804 0.02417917
0.15424398 0.031933773 0.020513155
0.16343069 0.031969249 0.023482619
0.17039478 0.031955075 0.021924928
0.19580665 0.031954657 0.020998627
0.24194738 0.032065123 0.029611081
0.32508984 0.032086931 0.028734619
0.35137028 0.032120351 0.021981187
-0.38730413 0.041545097 0.021571888
-0.36037424 0.044481866 0.026371807
-0.30557001 0.041182667 0.026620146
-0.15536341 0.041191418 0.022179704
-0.11813986 0.041252796 0.026634591
-0.092806168 0.041228548 0.023457559
-0.032027148 0.041262604 0.024460431
-0.022535268 0.041251261 0.023079677
0.14297968 0.0413877 0.029932505
0.17148942 0.041331179 0.023704711
0.23827547 0.04134772 0.022907358
0.27464741 0.041340999 0.021016726
-0.46344373 0.059921138 0.025867242
-0.4271639 0.051243596 0.029927133
-0.39938459 0.053914249 0.029898576
-0.43355274 0.062130474 0.029497359
0.44815439 0.062535644 0.027099296
-0.27595475 0.031941269 0.036231361
-0.26377755 0.031960178 0.03694164
-0.19920364 0.031911809 0.030823162
-0.18245165 0.031985302 0.03703279
-0.089364171 0.032061491 0.038526572
-0.042559937 0.032062653 0.037799783
0.10186338 0.032036245 0.03183496
0.15903825 0.03207387 0.03330794
0.19429514 0.032064453 0.031230673
0.22671649 0.032069903 0.030611331
0.28133225 0.032267183 0.038838197
0.33397055 0.032132737 0.032654937
-0.38854301 0.04200938 0.034554984
-0.3107934 0.041259699 0.033937383
-0.30730978 0.041324992 0.039217964
-0.27400818 0.041309875 0.037299849
-0.11825223 0.04135216 0.035839684
0.037096933 0.041374736 0.032425318
0.080482617 0.041540671 0.039553083
0.18135905 0.041471079 0.035761911
0.22420405 0.041522481 0.036651444
0.3002854 0.041452006 0.030402057
0.31332967 0.04147004 0.031617235
0.40196443 0.042129423 0.035093978
-0.42107022 0.059155487 0.031689286
0.46238366 0.066137806 0.036872715
-0.35454267 0.033940583 0.04074131
-0.34151006 0.032070149 0.040818833
-0.29321325 0.032056328 0.041688684
-0.28394794 0.032231048 0.046933368
-0.27386916 0.032179009 0.045162112
-0.20837419 0.032053366 0.040214915
0.058010295 0.032328859 0.044381864
0.076591484 0.03227701 0.042477898
0.16478074 0.0323334 0.042782351
0.18030483 0.032514665 0.048126817
0.23480509 0.032304224 0.040740348
0.33505303 0.032615416 0.048715614
-0.41240409 0.047829464 0.040015861
-0.32407919 0.041633174 0.049007669
-0.28689295 0.041428793 0.04209033
-0.27252656 0.041399639 0.040955976
-0.25998899 0.041691341 0.049758904
-0.1117398 0.041453559 0.04001385
-0.082523465 0.041613754 0.044464841
0.0043755956 0.041760288 0.047573723
0.049042061 0.041773021 0.047239549
0.081706598 0.041852184 0.049152158
0.098448344 0.041575324 0.040330708
0.11999609 0.041801967 0.046978265
0.27789789 0.041773368 0.043524407
0.35359082 0.042142499 0.047588892
0.36027747 0.042680364 0.046213634
-0.4277311 0.051516786 0.040060025
-0.45222306 0.066788144 0.040805224
-0.43030852 0.061705977 0.046182815
0.43658018 0.060239479 0.047475688
-0.35140693 0.033723939 0.054585341
-0.19452652 0.032598726 0.056830831
-0.1602526 0.032562602 0.05515676
-0.15867946 0.032655079 0.057986971
-0.12307707 0.032552328 0.054233745
-0.098747797 0.032720331 0.059025533
-0.049956188 0.032666221 0.056559503
0.0023936033 0.032701805 0.05680503
0.021247791 0.03257709 0.052646779
0.052036226 0.032735564 0.057038438
0.06584838 0.032521587 0.050205857
0.18335508 0.032720312 0.054427102
0.20821363 0.032878611 0.058910016
0.30039909 0.032949373 0.059592478
0.31114972 0.032839175 0.056014419
-0.38378116 0.041592643 0.058489189
-0.35166162 0.043228149 0.057350583
-0.091272615 0.041874856 0.052676756
-0.0087247472 0.04187949 0.051467918
0.074837029 0.041989498 0.053504117
0.23065203 0.042205781 0.057646822
0.2616905 0.042256504 0.058708027
0.42040306 0.0472642 0.056611475
-0.40240818 0.055254932 0.053554613
0.39612442 0.050584838 0.051210191
0.40986085 0.054002546 0.054354787
-0.44832265 0.066245429 0.052101031
-0.42890614 0.061719809 0.056219324
0.45338869 0.064630561 0.057910122
-0.28400013 0.032804579 0.06464576
0.097559631 0.032959498 0.063211255
0.1734955 0.033094276 0.066135213
0.20135035 0.033171304 0.068059601
0.24390194 0.032984003 0.061582588
-0.41258094 0.048873112 0.068632096
-0.39146605 0.043843322 0.069997899
-0.34325647 0.042389762 0.067016326
-0.33301097 0.042217046 0.067182548
-0.2764957 0.042196408 0.065623961
-0.23193589 0.042092878 0.061700724
-0.17585012 0.042207561 0.06434416
-0.11827352 0.042302642 0.066337958
-0.086994372 0.04213468 0.060626503
-0.012450658 0.042419922 0.068216264
0.067448601 0.04250183 0.069445275
0.10497244 0.042496033 0.068655565
0.13792773 0.042415544 0.065633655
0.24270236 0.04244028 0.064692333
0.25618866 0.042409223 0.063513786
0.26332757 0.042374425 0.062322956
0.38849002 0.049207445 0.065964714
-0.41810381 0.050120689 0.066330202
-0.40762407 0.056899682 0.064714395
0.46016553 0.057397127 0.063614331
-0.46212059 0.060574032 0.061570559
-0.32399711 0.033084027 0.073394433
-0.31416219 0.033334192 0.078853831
-0.25019869 0.033070568 0.072308987
-0.11201452 0.033266727 0.074976951
-0.049663514 0.03326346 0.07422068
0.10153721 0.033548974 0.077605873
0.12842932 0.033611517 0.078425683
0.13417694 0.033581283 0.077793762
0.14525691 0.03345874 0.075385988
0.2450228 0.03365925 0.077844091
0.30203065 0.033497099 0.074125975
0.31174406 0.033652186 0.076874867
0.35294509 0.033490464 0.070417151
-0.23782526 0.042455558 0.072995946
-0.22313625 0.042478394 0.073461682
-0.1323882 0.042528477 0.073543422
-0.08168231 0.042820375 0.078338034
-0.056955833 0.042783532 0.077344954
-0.049189545 0.042899318 0.079392537
0.064761385 0.042765398 0.075480662
0.16912585 0.04286769 0.076065354
0.21926391 0.042835657 0.074842319
0.29889685 0.042894721 0.074936427
0.38811973 0.049724296 0.078888215
0.41714913 0.046935007 0.070536107
-0.42437518 0.051875383 0.07337828
0.41285232 0.055538684 0.07583835
-0.43417153 0.063636675 0.07480219
-0.36921969 0.039263051 0.085496277
-0.2415964 0.033884447 0.08812812
-0.17702842 0.03371359 0.084153824
-0.10718004 0.034057654 0.089645237
-0.026972458 0.034073941 0.088938817
-0.010527477 0.034016654 0.08767169
0.0030728877 0.033993017 0.087063223
0.093261898 0.033944678 0.085035004
0.37857628 0.038150802 0.080567569
0.38391727 0.039685532 0.085091114
-0.40785685 0.048673335 0.087682813
-0.34181315 0.043136302 0.085609876
-0.31816888 0.043186292 0.088084042
-0.30173045 0.043033659 0.085051991
-0.20088479 0.042860679 0.080584243
-0.17174657 0.043051638 0.083756447
-0.14801458 0.043071251 0.083831355
-0.12136437 0.043411806 0.089796983
-0.069852687 0.042977277 0.081096269
0.0085781161 0.043118961 0.082736276
0.018497732 0.043431174 0.088395819
0.068985827 0.043308608 0.085491136
0.10718589 0.04341704 0.087020382
0.1102666 0.043203607 0.083027631
0.293991 0.043191157 0.080485865
0.33225128 0.04336625 0.083244272
0.39545995 0.042430703 0.084253602
0.41582793 0.047631539 0.089398921
-0.426092 0.052885916 0.084718242
-0.41579282 0.055303141 0.088460445
-0.3771264 0.050499223 0.0851584
0.39330846 0.051479854 0.088197157
0.40176439 0.053266872 0.083424017
0.42817694 0.050486393 0.086976089
0.45006973 0.055623941 0.084100626
-0.45840928 0.066329941 0.081689842
-0.43818143 0.065124907 0.084336132
-0.41847676 0.060387947 0.084297024
0.44574207 0.063899942 0.083453283
0.27643043 -0.042071365 0.099341743
0.27687603 -0.021522662 0.09928453
0.28818989 -0.0055558942 0.095134079
0.32659155 -0.0097433906 0.095803663
0.28641978 0.0040789009 0.098946765
0.30896974 0.0032904337 0.097950026
-0.084881857 0.034345843 0.094699979
-0.048961125 0.03439711 0.095197558
-0.023194999 0.034361672 0.094217695
0.14616072 0.0346453 0.097339772
0.17273733 0.034641638 0.096938051
0.21978518 0.034354836 0.091037631
0.28447786 0.034604497 0.094846211
-0.2680704 0.043358266 0.090637878
-0.21728428 0.043372892 0.090269968
-0.097106114 0.043977268 0.099966638
-0.060861241 0.043999154 0.099914655
0.02327602 0.043833699 0.095792986
0.10474541 0.043704778 0.092381582
0.3507283 0.044028811 0.094130091
-0.451152 0.059515707 0.095322594
0.41386193 0.056990925 0.098265097
-0.45325503 0.067343548 0.099898674
-0.30261555 -0.060477048 0.10051697
-0.29445451 -0.064879492 0.10081451
-0.28649789 -0.062921718 0.10037639
-0.29545611 -0.059034653 0.10048179
-0.25050694 -0.043359503 0.10184319
-0.24901585 -0.037771687 0.10709166
-0.24843527 -0.02882006 0.1025843
0.27735066 -0.027233049 0.10132894
0.29414177 -0.011139412 0.10018394
-0.29180574 0.0064199194 0.10574203
0.28176478 0.0024621552 0.10484536
0.31014735 0.0028508892 0.10125899
-0.11408438 0.034804858 0.10356399
0.028830662 0.035131834 0.1078207
0.058174148 0.035306692 0.10998598
0.14729422 0.035001777 0.10392448
0.15774368 0.035028879 0.10429487
0.37706268 0.038925741 0.10175087
-0.38917065 0.044987671 0.10174344
-0.28375033 0.044338215 0.1089754
-0.24330497 0.043985639 0.1019403
-0.19443947 0.043920305 0.10011869
-0.16932647 0.044405505 0.1087909
-0.13171965 0.04398945 0.10062143
0.23303364 0.044665851 0.10811163
0.37434697 0.047857925 0.10604618
0.38101631 0.049646758 0.10834939
0.3912186 0.042293221 0.10073685
0.43645516 0.053373173 0.10340451
0.44242269 0.057358041 0.10095473
-0.43029833 0.064258546 0.10229669
-0.29583061 -0.067309096 0.11184725
0.31042567 -0.067327097 0.11955873
0.32025692 -0.061551526 0.11599344
-0.25410244 -0.050846897 0.1197881
-0.25176719 -0.015243296 0.11227691
0.32819709 -0.011921945 0.11999242
-0.25902733 -0.004603988 0.11754313
-0.26681718 0.035250336 0.1128059
-0.25843599 0.035443183 0.11526237
-0.23738337 0.03509213 0.1103924
-0.20204569 0.035381697 0.1138313
-0.14609541 0.035213213 0.11099115
-0.056181587 0.035933699 0.11952597
-0.04990989 0.03596098 0.1198177
0.30552861 0.036019456 0.11669103
0.37059182 0.038563959 0.11790631
-0.37718379 0.043065086 0.11645897
-0.26092109 0.045077808 0.11897035
-0.23728804 0.044472739 0.11071385
-0.16594452 0.044638798 0.11213322
-0.13434276 0.045028925 0.11694743
-0.11056604 0.044835456 0.11413199
-0.066206895 0.044799745 0.11317172
-0.038121581 0.045175418 0.117823
-0.021111125 0.045217626 0.11819321
0.049480353 0.044813383 0.11207902
0.06741339 0.045377973 0.11933806
0.15458366 0.045066845 0.11426938
0.17947321 0.04521928 0.11600858
0.239077 0.04489952 0.11113049
0.30082956 0.045563284 0.11922458
0.31250316 0.045297276 0.11558118
0.34069237 0.044914756 0.11021746
0.35734206 0.045719571 0.11472878
-0.39430565 0.056159914 0.11177325
-0.44818842 0.062158842 0.11245155
-0.43959981 0.067302287 0.11509543
-0.26239973 -0.060213666 0.12577298
0.31736952 -0.063680932 0.12024959
0.33209074 -0.044597279 0.12648454
-0.3306416 0.036365192 0.12823844
-0.16561285 0.036575414 0.1292035
-0.13917524 0.035932474 0.12042005
-0.11504941 0.036134478 0.12282489
-0.076685861 0.036397215 0.125875
-0.0064076632 0.036614224 0.12797779
0.017837215 0.03623756 0.12272638
-0.38205889 0.044590205 0.1209131
-0.33111608 0.04558713 0.12647559
-0.25842252 0.045478687 0.12424521
-0.18326229 0.045503218 0.12374772
-0.10451701 0.045630798 0.12456766
0.035275381 0.04549633 0.12125617
0.12281485 0.045783319 0.12408231
0.18930127 0.046021454 0.12650409
0.27935153 0.045797523 0.12255581
0.31800896 0.045920197 0.12375575
0.32979891 0.045722969 0.12101561
0.36430091 0.041825056 0.129574
0.38688567 0.042614844 0.12021977
-0.40157628 0.058664512 0.12130618
-0.38177082 0.054084443 0.12352867
-0.4188109 0.06318032 0.12604485
0.26513317 -0.053338639 0.13786811
0.26292115 -0.049615107 0.1358721
0.27735278 -0.048440635 0.1398544
0.29073432 -0.04468241 0.13190018
-0.32338947 -0.036376953 0.1324603
0.28104657 -0.031229505 0.13262837
0.31208685 -0.037882175 0.13319254
-0.32233235 -0.020358186 0.13237247
-0.30105257 -0.026650582 0.13830771
0.26061276 -0.02048289 0.13892856
0.29886898 -0.014253249 0.13406642
-0.27572933 0.0053454363 0.13639385
-0.31937015 0.039312892 0.13375247
-0.27893981 0.036780585 0.13315071
-0.24291226 0.036985867 0.13547395
-0.22525947 0.036735922 0.13197808
-0.19443703 0.036856547 0.13323297
-0.15925238 0.037230242 0.13779467
-0.14388645 0.036778059 0.13164735
-0.044280834 0.036851805 0.13152207
0.077117257 0.037238643 0.13530682
0.095633246 0.037465625 0.1381029
0.16797964 0.037606664 0.13917279
0.21900724 0.036972702 0.13023603
0.27691805 0.037642244 0.13844767
0.29826358 0.037592001 0.13754968
0.32165387 0.037374552 0.13442607
-0.39820603 0.049531855 0.13418265
-0.35765198 0.043046955 0.13397251
-0.23405157 0.046351224 0.13550888
-0.2255802 0.046286635 0.13456327
-0.21907488 0.046490721 0.13718933
-0.20065565 0.046126105 0.13217022
-0.18887901 0.042916406 0.13938558
-0.16444299 0.046040636 0.13064545
-0.14850499 0.046641603 0.13840157
-0.11692214 0.046252787 0.13291751
-0.058635566 0.046208367 0.13169153
0.15614906 0.046670407 0.13544378
0.27852768 0.047069766 0.13938072
0.30722997 0.046929333 0.13720442
0.36146039 0.046777919 0.1302665
-0.38122582 0.054814748 0.13435879
-0.28997543 -0.068394326 0.14155445
-0.27717057 -0.066939525 0.14639363
-0.26019803 -0.05829123 0.14105356
-0.25895154 -0.043650385 0.14721467
0.26120329 -0.042884018 0.14088441
0.32034612 -0.041814327 0.1406175
-0.24939743 -0.030250257 0.14654423
0.32422185 -0.033392005 0.14122559
-0.31172451 -0.023763143 0.14654076
-0.30535725 -0.025848079 0.14080523
-0.25327978 -0.023327377 0.14718112
-0.31904835 -0.017939424 0.14688574
0.2688536 -0.015898313 0.14159709
-0.28998128 -0.0033881725 0.14685032
-0.27964738 -0.0056606159 0.1463501
-0.29377973 0.0060651144 0.14305261
-0.10725592 0.03799586 0.14644121
0.023473218 0.038021743 0.14581767
0.06884411 0.037729375 0.14188188
0.18156065 0.037849247 0.14222918
0.25454548 0.038421359 0.14759044
-0.086036548 0.047161449 0.14458811
-0.078086838 0.047138743 0.14420129
0.19075069 0.047918037 0.14967752
0.21129327 0.047854729 0.14882222
0.045329362 0.039116323 0.15683264
0.15358229 0.038683064 0.15129502
0.16171321 0.038676191 0.15114251
0.24502447 0.038711857 0.15066883
-0.040589508 0.048102416 0.15390551
0.026906591 0.048071235 0.15290475
0.20630525 0.047062177 0.1596384
0.024787609 0.044220373 0.16216823
0.11882278 0.048717175 0.16368772
