# .PCD v0.7 - Point Cloud Data file format
VERSION 0.7
FIELDS x y z
SIZE 4 4 4
TYPE F F F
COUNT 1 1 1
WIDTH 857
HEIGHT 1
VIEWPOINT 0 0 0 1 0 0 0
POINTS 857
DATA ascii
-0.31626296 0.03826727 -0.093109831
-0.23446465 0.038596898 -0.093475081
-0.18231282 0.037822247 -0.092616707
-0.1775088 0.038180642 -0.093013838
-0.036078945 0.036143426 -0.090756424
4.9889088e-05 0.037019417 -0.091727093
0.022392226 0.038316555 -0.093164429
0.041136689 0.039367992 -0.094329529
0.10533169 0.035815638 -0.090393201
-0.34628126 0.04188811 -0.096213214
-0.32092774 0.041344371 -0.096519522
-0.29841048 0.043620035 -0.099041149
-0.28929198 0.04349295 -0.097170167
-0.20503087 0.043201622 -0.098308392
-0.17442736 0.043863229 -0.094963491
-0.16523306 0.043640733 -0.092419386
-0.14233038 0.043726534 -0.099159159
-0.13869436 0.040199593 -0.095251009
-0.072998524 0.042578939 -0.097887531
-0.06660533 0.04388617 -0.095225796
0.0026054103 0.043644629 -0.092463866
0.035948262 0.042432815 -0.097725607
0.044027373 0.043604977 -0.092010505
0.061419874 0.044083107 -0.097477682
0.078434944 0.043676697 -0.092830576
0.087097384 0.043805607 -0.094304644
0.10200696 0.043866239 -0.096943602
0.12407307 0.043803804 -0.094283998
0.14982222 0.041017126 -0.096156903
0.16778095 0.043834113 -0.094630554
0.17552383 0.044167913 -0.098447405
0.18177131 0.043688446 -0.092964917
0.2041702 0.043469243 -0.090458445
0.23530307 0.04304425 -0.098403133
0.24810341 0.040558845 -0.095649093
-0.27045721 0.027480092 -0.081156701
-0.1325793 0.028934378 -0.082768172
-0.088469282 0.027221734 -0.080870412
0.18228841 0.029152891 -0.083010308
0.24679457 0.028960649 -0.082797289
-0.34931943 0.033197194 -0.085081823
-0.32783252 0.033019796 -0.087295175
-0.25391206 0.032380763 -0.080419697
-0.16602904 0.03451347 -0.083237603
-0.14981884 0.030235901 -0.084210366
-0.13161258 0.034527883 -0.088966265
-0.081112698 0.03371349 -0.080593631
-0.064280957 0.032162108 -0.080391169
-0.031507313 0.0342796 -0.088691145
-0.023854241 0.031957418 -0.086117975
0.004986316 0.034665726 -0.080717921
0.01425852 0.032729723 -0.084170684
0.07946828 0.035309032 -0.080801874
0.10896443 0.035429403 -0.089965224
0.16217275 0.030289924 -0.080146812
0.18591923 0.030864688 -0.080221824
0.21312986 0.035838433 -0.080870971
0.22495593 0.035085149 -0.089583762
0.23956087 0.030544069 -0.084551856
0.25698912 0.034159932 -0.08855854
0.27914527 0.037984777 -0.081151098
0.28657019 0.036246162 -0.080924183
0.3051129 0.037748512 -0.08112026
0.31857815 0.036452778 -0.080951154
0.34056541 0.0326536 -0.082256027
-0.372998 0.04705359 -0.082017139
-0.36361569 0.046220548 -0.088313334
-0.25323182 0.042032883 -0.08299575
-0.22510883 0.042927939 -0.083917283
-0.1814568 0.042860501 -0.083497763
-0.024118081 0.043399692 -0.089663126
0.047035888 0.04297781 -0.08483915
0.14302245 0.042905036 -0.08400698
0.18085653 0.043237191 -0.087805033
0.20532024 0.042875223 -0.083666064
0.26823699 0.043410696 -0.089789003
0.32603741 0.042914167 -0.084111385
0.3708086 0.057118446 -0.082870141
-0.21295139 0.028114915 -0.079862937
-0.13386264 0.028469929 -0.07990928
0.053965285 0.029052272 -0.079985283
0.12364253 0.026947714 -0.079710618
0.17606083 0.027651768 -0.079802498
-0.36235031 0.036214996 -0.078896359
0.3447932 0.03402552 -0.07606671
-0.10460136 0.042709202 -0.072290584
-0.089446716 0.042709202 -0.073057391
-0.054030292 0.042709202 -0.078852557
-0.030488268 0.042709202 -0.071620211
-0.014867537 0.042709202 -0.07949198
0.035073526 0.042709202 -0.074312471
0.05273401 0.042709202 -0.071248382
0.12117606 0.042709202 -0.076416835
0.13879065 0.042709202 -0.078143701
0.14518581 0.042709202 -0.079814777
0.16720137 0.042709202 -0.075779893
0.19709681 0.042709202 -0.073263891
0.21887563 0.042709202 -0.079654321
0.23689845 0.042709202 -0.078982733
0.24315761 0.042709202 -0.074774437
-0.38531572 0.055967055 -0.079487205
-0.37965393 0.050716221 -0.079472236
0.36367831 0.054707602 -0.074200913
0.37860405 0.057841457 -0.077563241
-0.39318019 0.061482549 -0.07248114
-0.37579352 0.036624826 -0.068459667
-0.34605742 0.04482596 -0.06281089
-0.30366871 0.044082299 -0.061493903
-0.25612575 0.044082299 -0.060981814
-0.2477771 0.042709202 -0.067595467
-0.23648526 0.042709202 -0.064620189
-0.1979475 0.042709202 -0.064885631
-0.15374403 0.042891566 -0.0621146
-0.039753839 0.042709202 -0.068857566
0.018333126 0.042709202 -0.065765634
0.14269878 0.042709202 -0.069285676
0.15624109 0.042709202 -0.065890662
0.19500491 0.042709202 -0.06438601
0.20912273 0.042709202 -0.06372007
0.32881698 0.042921148 -0.064166531
-0.36996338 0.053308278 -0.060950488
0.37419963 0.058265023 -0.069695517
0.39005822 0.063626952 -0.067858033
-0.25496596 -0.0056957859 -0.054014102
-0.2367655 -0.0063306978 -0.052218296
-0.20899677 -0.0065310914 -0.054014102
-0.17067672 -0.0025976449 -0.054014102
-0.26391494 0.0054354887 -0.050298896
-0.21171862 0.0053606769 -0.05084455
-0.28224665 0.014513683 -0.054014102
-0.2636199 0.011694719 -0.054014102
-0.24436241 0.015533015 -0.054014102
-0.22783634 0.012148126 -0.054014102
-0.16910926 0.015496951 -0.054014102
-0.15989017 0.01715076 -0.054014102
-0.14238042 0.01840814 -0.054014102
-0.10982451 0.018995959 -0.054014102
0.01938761 0.017586401 -0.050588984
0.058258481 0.018041503 -0.054014102
0.11321381 0.017586401 -0.050108407
0.1351198 0.017586401 -0.052840449
0.16405307 0.017586401 -0.053612158
0.21017459 0.017586401 -0.053835481
0.29965478 0.017586401 -0.053977899
-0.28647807 0.024133855 -0.054014102
-0.23508248 0.024370924 -0.054014102
-0.20323156 0.028917506 -0.054014102
-0.17305605 0.023133593 -0.054014102
-0.12260029 0.02708216 -0.054014102
-0.08995305 0.022832507 -0.054014102
-0.038178116 0.024751121 -0.054014102
0.017951354 0.027475297 -0.054014102
0.066211581 0.025228174 -0.054014102
0.072229877 0.022151243 -0.054014102
0.081720956 0.020458812 -0.054014102
0.20592281 0.025037043 -0.054014102
0.24498159 0.021263156 -0.054014102
-0.298951 0.034404121 -0.054014102
-0.28300279 0.030240331 -0.054014102
-0.26295686 0.035049587 -0.054014102
-0.18735214 0.033147223 -0.054014102
-0.17426209 0.035541166 -0.054014102
-0.14468956 0.032890126 -0.054014102
-0.11854048 0.037113652 -0.054014102
-0.095360897 0.038622305 -0.054014102
-0.077865146 0.031781558 -0.054014102
-0.026407987 0.03134691 -0.054014102
-0.0049041361 0.035392478 -0.054014102
0.012908652 0.03660496 -0.054014102
0.045378093 0.036397055 -0.054014102
0.058763959 0.035568751 -0.054014102
0.099983387 0.037874877 -0.054014102
0.17483497 0.03399995 -0.054014102
0.19567424 0.033850752 -0.054014102
0.22678572 0.033514436 -0.054014102
-0.354992 0.047996718 -0.054188199
-0.33641061 0.042709202 -0.051823888
-0.32303464 0.042709202 -0.058818355
-0.28473166 0.044082299 -0.057818022
-0.23510894 0.044082299 -0.056445144
-0.20800784 0.044082299 -0.058380581
-0.13399996 0.044082299 -0.057665147
-0.096216083 0.042709202 -0.051949572
-0.082793221 0.044082299 -0.058435768
0.0050831251 0.040669724 -0.054014102
0.10277421 0.043758862 -0.054014102
0.13980776 0.044082299 -0.059901886
0.16869527 0.041070204 -0.054014102
0.19292335 0.0406694 -0.054014102
0.20035991 0.041721556 -0.054014105
0.21020865 0.041309092 -0.054014102
0.23142961 0.044082299 -0.054979496
0.27449659 0.044082299 -0.058283888
0.29047093 0.044082299 -0.056596622
-0.36210138 0.050519146 -0.055064682
0.37557876 0.058731169 -0.059644304
0.39560461 0.056779556 -0.055372953
-0.40326893 0.065085948 -0.05459699
-0.39958477 0.063789696 -0.054810204
-0.24352133 -0.0061632106 -0.043345738
-0.22713447 -0.0061632101 -0.047630176
-0.19859846 -0.0061632097 -0.040838845
-0.18797036 -0.0075363801 -0.049089275
-0.28635597 0.0053317701 -0.041216172
-0.27469134 0.0054451078 -0.046398282
-0.26828974 0.0054393937 -0.046630479
-0.25614896 0.0054285573 -0.047183298
-0.2100662 0.0053317701 -0.043742616
-0.19936481 0.005377871 -0.045360494
-0.17970811 0.0053603253 -0.042278443
-0.11692198 0.0084715206 -0.043657728
-0.11141968 0.011331839 -0.044689827
-0.032710005 0.017586401 -0.042603161
-0.019745868 0.017586401 -0.04853208
-0.0084477216 0.017586401 -0.044320524
0.0083979294 0.017586401 -0.046017073
0.11372948 0.017586401 -0.046007656
0.181664 0.017586401 -0.041509427
0.20563215 0.017586401 -0.041904468
-0.33501309 0.042709202 -0.049305752
-0.28034598 0.042709202 -0.04472968
-0.27736166 0.042709202 -0.044337321
-0.25559884 0.042709202 -0.049121194
-0.16106676 0.042709202 -0.043766014
-0.12603772 0.042709202 -0.044043072
-0.083395474 0.042709202 -0.048901729
-0.074637778 0.042709202 -0.047145598
-0.030920606 0.042709202 -0.04949262
0.15431505 0.042709202 -0.043498531
0.18467933 0.042709202 -0.041579649
0.34739253 0.049201462 -0.045905538
-0.40149263 0.051622905 -0.046404999
-0.36473981 0.051455278 -0.044435225
0.36502218 0.055161983 -0.042708963
0.37630031 0.058975052 -0.044742174
0.38261285 0.061109371 -0.043972418
-0.26047447 -0.0061632101 -0.035290252
-0.25493664 -0.0061632101 -0.030969847
-0.23012474 -0.0061632101 -0.031171203
-0.20082623 -0.0061632097 -0.039934222
-0.18029854 -0.0061632106 -0.038906761
-0.17254019 -0.0061632101 -0.035018317
-0.15858464 -0.0061632097 -0.032553378
-0.29721808 0.0033583273 -0.03756927
-0.28414285 0.0053924471 -0.038222119
-0.27458486 0.0054450133 -0.035796188
-0.26479203 0.0054362719 -0.032549769
-0.22563206 0.0053317701 -0.034066588
-0.21014571 0.0053874943 -0.03879527
-0.20826116 0.0053317701 -0.032463755
-0.16948611 0.0053317701 -0.030449133
-0.30612832 0.013948515 -0.034595694
-0.10328118 0.015562567 -0.034902383
-0.088803276 0.017586401 -0.037446678
0.004399389 0.017586401 -0.031005342
0.052722491 0.017586401 -0.030136839
0.091573134 0.017586401 -0.030757621
0.16905493 0.017586401 -0.037997935
0.19367334 0.017586399 -0.034288563
0.2243387 0.017586401 -0.03352423
0.29236791 0.017586401 -0.034455143
-0.35726881 0.048804544 -0.036606744
-0.2996847 0.042709202 -0.034540921
-0.25446329 0.042709202 -0.031537998
-0.24669854 0.042709202 -0.039564822
-0.16116551 0.042709202 -0.038973078
-0.15708709 0.042709202 -0.031737234
-0.12448539 0.042709202 -0.032556664
-0.099837743 0.042709202 -0.035050195
-0.085175797 0.042709202 -0.03084423
-0.063543968 0.042709202 -0.031633623
-0.052594002 0.042709202 -0.036060885
-0.044591457 0.042709202 -0.036207773
-0.012280583 0.042709202 -0.034364551
0.057082396 0.042709202 -0.034019399
0.1922476 0.042709202 -0.036192663
0.31173196 0.042709202 -0.036214892
-0.37723315 0.055888139 -0.033275139
0.35154611 0.050605718 -0.032117084
0.36604628 0.055508256 -0.039338522
0.4132885 0.066725492 -0.032476582
-0.1965805 -0.0061632101 -0.023809467
-0.18409884 -0.0061632101 -0.022014517
-0.30073291 0.0067737671 -0.026572779
-0.29364038 0.0053317701 -0.028423384
-0.22769408 0.0053679058 -0.024151009
-0.19728565 0.0053547528 -0.025914287
-0.12667799 0.0033999435 -0.024902333
-0.11628426 0.0088030314 -0.02380906
-0.042060956 0.017586403 -0.028131379
-0.0011658855 0.017586401 -0.027342249
0.0046663918 0.017586401 -0.025841175
0.037330307 0.017586401 -0.023639562
0.065716825 0.017586401 -0.023895534
0.079956576 0.017586401 -0.028714063
0.091446519 0.017586401 -0.025645165
0.10875865 0.017586401 -0.024730423
0.17104098 0.017586401 -0.021331757
0.19636007 0.017586401 -0.023842892
0.2111257 0.017586401 -0.021178566
0.28756973 0.017586401 -0.021531245
-0.28441152 0.042709202 -0.021635314
0.037603386 0.042709202 -0.020001575
0.042465262 0.042709202 -0.028017875
0.053728376 0.042709202 -0.026086118
0.1413849 0.042709202 -0.020966129
0.19828829 0.042709202 -0.023917452
0.21610035 0.042709202 -0.022936616
0.22705147 0.042709202 -0.025112592
-0.41559207 0.053144772 -0.024396652
0.36970329 0.056744754 -0.02710063
0.40382454 0.054877281 -0.022270331
0.41131777 0.057515107 -0.020274278
-0.4240219 0.064535677 -0.027349938
-0.40875193 0.067070916 -0.023674028
0.41765729 0.072958201 -0.029510798
-0.23763679 -0.0061632101 -0.011849525
-0.14594841 -0.0065456862 -0.015809285
-0.13637525 -0.0016410879 -0.011179372
-0.29601333 0.0054641399 -0.018686634
-0.28453439 0.0053317701 -0.016543843
-0.27194953 0.0053317701 -0.013672403
-0.26605555 0.0053317705 -0.019931387
-0.24549943 0.0054190513 -0.013429062
-0.23409726 0.0054088738 -0.01532995
-0.19919753 0.005377722 -0.01240433
-0.1626735 0.0053317701 -0.013532905
-0.147484 0.0031809132 -0.011999318
-0.12858912 0.0024064577 -0.016539326
-0.072048917 0.017586401 -0.015975455
0.0072210766 0.017586401 -0.015432936
0.013359748 0.017586401 -0.014497641
0.050238237 0.017586401 -0.012632784
0.094283015 0.017586401 -0.013551079
0.12971908 0.017586401 -0.018572111
0.19964914 0.017586401 -0.019289084
0.25719291 0.017586401 -0.016336508
0.27181774 0.017586401 -0.017305119
-0.34001312 0.042709202 -0.011061285
-0.33095163 0.042709202 -0.015842913
-0.32096809 0.042709202 -0.013724701
-0.31060067 0.042709202 -0.019377593
-0.26773047 0.042709202 -0.014591806
-0.19691154 0.042709202 -0.016263928
-0.12949923 0.042709202 -0.015495393
-0.095178947 0.042709202 -0.017337393
-0.086411372 0.042709202 -0.015835814
-0.015212166 0.042709202 -0.018417299
-0.0016129091 0.042709198 -0.01902934
0.046688389 0.042709202 -0.013041865
0.10357666 0.043588158 -0.01719051
0.12939894 0.042709202 -0.015261118
0.14283225 0.042709202 -0.019314533
0.18748116 0.042709202 -0.017705029
0.19178492 0.042709202 -0.011532085
0.24079499 0.042709202 -0.010463458
0.25075859 0.042709202 -0.018527966
0.28630325 0.042709202 -0.014533023
0.30083606 0.044082299 -0.014837766
-0.4213883 0.054432482 -0.013561502
-0.41436768 0.059950363 -0.019411782
0.35049865 0.050251588 -0.014317542
0.37906742 0.059910696 -0.018761538
0.40912938 0.052273199 -0.015146706
0.41196293 0.057394743 -0.016921695
-0.40108433 0.064350434 -0.01703286
0.38098419 0.060558733 -0.011509606
0.40523458 0.06875819 -0.01419179
-0.43230671 0.074991621 -0.019067889
0.41980934 0.070332281 -0.014788228
-0.27116004 -0.0073557072 -0.0061340015
-0.26238656 -0.0075363796 -0.0021513663
-0.20927244 -0.0061632101 -0.0070510563
-0.16419369 -0.0061632101 -0.0039194399
-0.13817523 -0.0025767926 -0.0059853662
-0.28492361 0.0054542413 -0.0092972787
-0.26239929 0.0053317701 -0.0080029126
-0.24444765 0.005418112 -0.002682657
-0.23963383 0.0053317701 -0.0091308337
-0.22337796 0.0053317701 -0.0046811011
-0.20704372 0.0053317701 -0.00083192997
-0.19245455 0.0053317701 -0.0036690505
-0.17530447 0.005345948 -0.0050413883
-0.14996795 0.0053317701 -0.0057041608
-0.097715944 0.017586401 -0.0079132188
-0.083051793 0.017586401 -0.00750633
-0.077934735 0.017586401 -0.0048355162
-0.035734847 0.017586401 -0.0059573548
0.024662174 0.017586401 -0.0094295349
0.035972882 0.017586401 -0.00072291214
0.051904976 0.017586401 -0.00084665371
0.1546839 0.017586401 -0.0046884455
0.19134864 0.017586401 -0.0010833861
0.21785814 0.017586401 -0.0094647631
0.30043599 0.019007538 -0.0022943411
-0.31233701 0.038273204 -0.0015852628
-0.34772059 0.045416024 -0.0032169595
-0.32278872 0.042709202 -0.0083986539
-0.28864288 0.042709202 -0.0019555036
-0.24122348 0.042709202 -0.0029144417
-0.19491336 0.042709202 -0.006682734
-0.14889403 0.042709202 -0.0023193797
-0.12728134 0.042709202 -0.0036790343
-0.10873297 0.042709202 -0.0034102136
-0.028868848 0.042709202 -0.0066801226
-0.011566292 0.042709202 -0.0017102747
-0.0048811221 0.042709202 -0.0092813848
0.014704037 0.042709202 -0.0078701191
0.15079917 0.04328775 -0.0099755125
0.24907282 0.042709202 -0.0077140164
-0.38698551 0.059348512 -0.0058344519
0.41310731 0.057426065 -0.0061020707
-0.41514057 0.06933108 -0.00048786576
0.40269947 0.064489186 -0.0073565412
0.4199096 0.067925587 -0.00019295189
-0.4334954 0.073675111 -0.00038330452
0.4121559 0.071098074 -0.0059618726
-0.26201978 -0.0061632101 0.0029515605
-0.22248997 -0.0061632101 0.0066233417
-0.19527534 -0.0061632101 0.0099553466
-0.15403439 -0.0061632101 0.0021350235
-0.147484 -0.0069784024 0.0032027233
-0.13792901 -0.0024488047 0.0040293178
-0.29350471 0.0053975084 0.0038466919
-0.28730196 0.0053317701 0.0022030044
-0.27384257 0.0054443507 0.0038255397
-0.23561394 0.0054102275 0.0017590162
-0.22835651 0.0053317701 0.0087353867
-0.20795739 0.0053595575 0.0015039044
-0.19775528 0.0053317701 0.0049936734
-0.14916764 0.0053330651 0.00344841
-0.13279693 0.00021906395 0.0038386602
-0.12069523 0.0065100295 0.0035099499
-0.11581806 0.0090453867 0.0074279066
-0.054980569 0.017586401 0.0046371948
-0.041504662 0.017586401 0.0078794211
-0.022757068 0.017586401 0.0023349049
-0.0045060869 0.017586401 0.0044385018
0.033022873 0.017586401 0.0001731785
0.05958242 0.017586401 0.0090306271
0.11278268 0.017586399 0.0078085428
0.19428499 0.017586401 0.0023760395
0.20265216 0.017586401 0.00071559288
0.27949882 0.017586401 0.001226082
0.2861509 0.017586401 0.0053808438
0.30043599 0.026190897 0.0033885539
-0.30364609 0.042709202 0.0085041691
-0.27268666 0.042709202 0.0075392127
-0.20077772 0.042709202 0.0072003286
-0.19703269 0.042709202 0.0041115368
-0.15452185 0.042709202 0.0035426011
-0.12524082 0.042709202 4.94899e-06
-0.021992359 0.042709202 0.0052685221
0.0079031307 0.042709202 0.0053810235
0.083744712 0.042709202 0.0094728395
0.093467802 0.042709202 0.0036558304
0.23582849 0.042709202 0.0044208793
0.24187437 0.042709202 0.0062825354
0.30685341 0.044082299 0.0016435608
-0.42098993 0.053955045 0.0011365594
-0.38332039 0.058048107 0.0094242729
-0.36801529 0.052617431 0.0046050437
0.40901598 0.052333858 0.0068893004
-0.40301371 0.065442368 0.0030820591
-0.28502536 -0.0042564562 0.010320505
-0.25415036 -0.0061632106 0.010817456
-0.17342845 -0.0061632101 0.013852485
-0.14019912 -0.0036288998 0.015528044
-0.25800586 0.0053317701 0.015327894
-0.24629205 0.0053317701 0.012903085
-0.23570743 0.0054103108 0.012880797
-0.18477643 0.0053571444 0.013256974
-0.16621092 0.0053317701 0.015465287
-0.3069396 0.015422115 0.013633234
-0.083573006 0.017586401 0.011608935
-0.070086613 0.017586401 0.010920098
-0.068535432 0.017586401 0.018084595
-0.037979499 0.017586401 0.012526428
0.046602543 0.017586401 0.014589104
0.052582052 0.017586401 0.01302013
0.074556112 0.017586401 0.01865704
0.088213772 0.017586401 0.014632515
0.13679191 0.017586401 0.019692976
0.19622807 0.017586401 0.013488372
0.20454407 0.017586401 0.0156288
0.210347 0.017586401 0.012185853
0.27688888 0.017586401 0.012579175
-0.30921882 0.02025092 0.012773904
0.30043599 0.02825103 0.015525481
0.30043602 0.038087077 0.01956122
-0.33771285 0.042709202 0.018587166
-0.29946917 0.042709202 0.018111944
-0.18735966 0.042709202 0.019513091
-0.1766226 0.042709202 0.018839721
-0.13125551 0.042709202 0.012513384
-0.12319589 0.042709202 0.012618857
0.001452369 0.042709202 0.018871302
0.019687293 0.042709202 0.016833289
0.051622372 0.042709202 0.015944621
0.089886457 0.042709202 0.01144639
0.19921769 0.042709202 0.013534391
0.24448949 0.042709202 0.01915833
0.25924659 0.042709202 0.018324636
0.27011627 0.042709202 0.011866966
0.31533986 0.042709202 0.016154135
0.33096701 0.043647997 0.012735667
0.40889436 0.051540978 0.010357559
-0.4250679 0.061328843 0.015242826
-0.41357043 0.068470418 0.011972809
0.39619723 0.06570252 0.016175166
0.4173699 0.066416182 0.016052205
0.42205977 0.074446842 0.015107018
-0.147484 -0.0021140696 0.025219083
-0.29456693 0.0054628495 0.025525933
-0.26060334 0.0053317701 0.029777098
-0.22772014 0.0053317705 0.02580414
-0.20746641 0.0053851027 0.021023681
-0.1999965 0.0053784354 0.027613504
-0.1767894 0.0053317701 0.02205357
-0.16713315 0.0053491006 0.020940125
-0.13022351 0.0015568379 0.027903587
-0.11612427 0.0088861994 0.024823582
-0.30659309 0.014719527 0.027452864
0.0043087602 0.017586401 0.025933217
0.02926971 0.017586401 0.028522246
0.035966709 0.017586401 0.026744779
0.067972384 0.017586401 0.021438198
0.075213976 0.017586399 0.027915867
0.13989834 0.017586401 0.023947639
0.18797725 0.017586401 0.021175018
0.21538493 0.017586401 0.024201863
0.26038426 0.017586401 0.020549666
-0.30932686 0.02056928 0.0242952
-0.31199765 0.031223711 0.023033733
-0.30600476 0.042709202 0.029770903
-0.29366395 0.042709202 0.027814843
-0.17939363 0.042709202 0.028602
-0.12386496 0.042709202 0.020103956
-0.093400098 0.042709202 0.023191314
-0.078278795 0.042709202 0.028037529
-0.064138971 0.042709202 0.028320154
-0.058923598 0.042709202 0.020941947
-0.033646237 0.042709202 0.023671295
-0.01738641 0.044082299 0.024546843
0.00078130508 0.044082299 0.028052703
0.035079934 0.042709202 0.026936296
0.17634118 0.042709202 0.021961622
0.22849356 0.042709202 0.026683724
0.24843241 0.042709202 0.020992398
0.2566663 0.042709202 0.029434921
0.29213786 0.042709202 0.022832565
0.31746605 0.042709202 0.026962634
0.33182907 0.043939419 0.02140237
0.3533991 0.051232189 0.029327767
0.40555692 0.051364012 0.022290686
-0.40162009 0.064540684 0.026210934
0.39392203 0.06472981 0.023633627
0.41169828 0.062949628 0.029948747
-0.42964357 0.070400573 0.020023121
0.42000273 0.07350748 0.024818219
-0.29202253 -0.00054573687 0.038864225
-0.26922125 -0.0074826675 0.035918862
-0.20384496 -0.0061632106 0.031245269
-0.19127497 -0.0061632097 0.038450051
-0.30028602 0.0062642847 0.033450577
-0.23132324 0.0054063974 0.039275918
-0.22592831 0.0053317701 0.037054822
-0.17796792 0.0053317701 0.03719233
-0.16807184 0.0053317701 0.031905528
-0.147717 0.0053160973 0.038075622
0.058083549 0.017586401 0.034969933
0.1047977 0.017586401 0.033316098
0.15671113 0.017586401 0.033780467
0.17904422 0.017586401 0.035347201
0.21638088 0.017586401 0.034869999
0.28731418 0.017586401 0.037166741
-0.3274163 0.042709202 0.038254976
-0.28964564 0.042709202 0.0364866
-0.019589219 0.042709202 0.035098772
0.089585893 0.042709202 0.030883562
0.116607 0.042709202 0.036168762
0.14917283 0.042709202 0.035481252
0.16223688 0.042709202 0.035204381
0.23913334 0.042709202 0.036307923
0.24512407 0.042709202 0.033767466
0.25315404 0.042709202 0.030769335
0.4018932 0.048878215 0.032714102
-0.41457102 0.051390368 0.032282125
0.40293193 0.051998354 0.034958124
-0.39977321 0.063885406 0.030733094
0.40813616 0.0608682 0.037047219
-0.42693734 0.073448129 0.033264145
-0.28442532 -0.0044601811 0.042141259
-0.26661313 -0.0075363801 0.047019597
-0.24968643 -0.0075363806 0.048844621
-0.21558082 -0.0061632101 0.043471735
-0.186461 -0.0061632097 0.042670287
-0.27004477 0.0053317701 0.04664785
-0.26403105 0.0053835232 0.043107349
-0.21410806 0.0053317705 0.043951403
-0.20245096 0.0053317705 0.045638569
-0.19390041 0.0053317701 0.043401383
-0.18362978 0.0053638262 0.047628503
-0.15971982 0.0053317701 0.04743614
-0.11686807 0.0084995413 0.047426086
-0.055856004 0.017586403 0.046590965
0.048349887 0.017586401 0.048233107
0.086395487 0.017586403 0.047295734
0.091978639 0.017586401 0.044700176
0.1858781 0.017586401 0.043812323
0.20190519 0.017586401 0.040020585
0.29699162 0.017586401 0.047734313
-0.35470587 0.048623502 0.049091723
-0.31233701 0.042906851 0.045783099
-0.26570326 0.042709202 0.0403505
-0.24611636 0.042709202 0.046426203
-0.2291784 0.042709202 0.040018961
-0.19989003 0.042709202 0.046077412
-0.18323618 0.042709202 0.044437625
-0.17056835 0.042709202 0.042004291
-0.16359895 0.042709202 0.040187068
-0.14540134 0.042709202 0.043062747
-0.11337806 0.042709202 0.046777103
-0.058709398 0.042709202 0.048260272
0.0009886995 0.042709202 0.047935724
0.026117861 0.042709202 0.042256996
0.03883943 0.042709202 0.044771127
0.06545981 0.042709202 0.045997515
0.12659255 0.042709202 0.04751724
0.13264924 0.042709202 0.044232629
0.14253245 0.042709202 0.044003159
0.17735767 0.042709202 0.044681802
0.25575137 0.042709202 0.048084181
0.26855749 0.042709202 0.04022254
0.27064082 0.042709202 0.046442781
0.3068406 0.04339575 0.044807311
0.34524873 0.048476674 0.047681559
-0.41284251 0.058430657 0.045486789
-0.36909494 0.053000499 0.041276924
0.39316577 0.064677551 0.046609621
0.40838513 0.069823205 0.041845426
-0.27153483 -0.0073311655 0.050521597
-0.23059233 -0.0042738332 0.054014601
-0.25304806 0.0053317701 0.051090144
-0.22750229 0.0053317701 0.05180461
-0.21679547 0.005622467 0.054014601
-0.20032069 0.0080376398 0.054014601
-0.16356915 0.0032255691 0.054014601
-0.125258 0.0069694887 0.054014601
-0.28442124 0.013044022 0.054014601
-0.27580187 0.010322326 0.054014601
-0.18936662 0.016272141 0.054014601
-0.13169335 0.016952716 0.054014601
-0.1169991 0.019657975 0.054014601
-0.10141504 0.016532663 0.053613298
-0.095215708 0.018598212 0.054014601
0.01413324 0.019363157 0.054014601
0.18187705 0.017586401 0.050957911
0.19507059 0.017586401 0.052805468
0.2543962 0.019599907 0.054014601
-0.30943534 0.020888895 0.051662534
-0.29611462 0.026235478 0.054014601
-0.2794404 0.023518696 0.054014601
-0.1943782 0.021537967 0.054014601
-0.13649219 0.025844537 0.054014601
-0.1226109 0.021687753 0.054014601
-0.11248131 0.023999169 0.054014601
-0.094161734 0.026809627 0.054014601
-0.037195671 0.021076364 0.054014601
0.0086281598 0.028343586 0.054014601
0.051618066 0.029132383 0.054014601
0.22720836 0.029866509 0.054014601
0.24904138 0.026328435 0.054014601
0.27884012 0.026413843 0.054014601
-0.30966547 0.035583522 0.054014601
-0.28821069 0.030532315 0.054014601
-0.2704578 0.03007484 0.054014601
-0.21641579 0.033736099 0.054014601
-0.20574564 0.035380132 0.054014601
-0.19082174 0.032558236 0.054014601
-0.18480326 0.036763474 0.054014601
-0.11968625 0.035029981 0.054014601
0.029018901 0.030984674 0.054014601
0.13409308 0.032521036 0.054014601
0.16837932 0.036536627 0.054014601
0.20342681 0.031589333 0.054014601
0.21544749 0.036562096 0.054014605
0.27648085 0.031787418 0.054014601
0.28041828 0.037952822 0.054014601
-0.40045416 0.049952876 0.055574238
-0.3496173 0.046088934 0.05414436
-0.33489287 0.042709202 0.055930346
-0.31931424 0.044082299 0.052569699
-0.29512182 0.044082299 0.059294187
-0.25217587 0.042709198 0.052532971
-0.064216129 0.042709202 0.053898454
0.017117932 0.044082299 0.058215596
0.022762328 0.042709202 0.051946267
0.069272302 0.044082299 0.055130567
0.098834097 0.042709202 0.050316215
0.12553364 0.043887846 0.054014601
0.13933115 0.044082299 0.058804188
0.14380315 0.042419076 0.052895553
0.20241643 0.04342293 0.054014601
0.245195 0.044078052 0.054014601
0.26790169 0.044082299 0.056288518
0.27431789 0.044082299 0.055285048
0.29347664 0.042709202 0.052823778
0.38517165 0.048394792 0.056308538
-0.38988486 0.050293714 0.056993242
0.35567713 0.05321043 0.056858923
0.3791728 0.05994631 0.058605671
0.39529723 0.065398254 0.055687744
-0.37898535 0.039870262 0.069031946
-0.3543849 0.049238041 0.064532474
-0.31914672 0.044082299 0.061754972
-0.2828528 0.042709202 0.069962583
-0.26252508 0.044082299 0.061550044
-0.17219561 0.042709202 0.067724727
-0.1450524 0.042709202 0.066563219
-0.11106898 0.042709202 0.0631328
-0.095807113 0.044082299 0.061131418
-0.078502163 0.042709202 0.062495355
-0.067989469 0.042709202 0.068927169
-0.033395447 0.04339575 0.061494201
0.035088237 0.042709202 0.067181617
0.072277106 0.042709202 0.065904558
0.16476268 0.04339575 0.063794114
0.18805346 0.044082299 0.060163684
0.21703947 0.042709202 0.064780325
0.25450966 0.042709202 0.062264282
0.29682523 0.042709202 0.067409851
0.32534605 0.042709202 0.063925147
0.34798479 0.04940198 0.064158961
0.37196708 0.040170573 0.063642249
-0.40290439 0.064930499 0.064553343
0.3911714 0.062865198 0.0678868
-0.29133624 0.026651938 0.079672024
-0.21012361 0.026387867 0.079946436
-0.18149406 0.027480297 0.079780161
-0.078951754 0.028486162 0.07991147
-0.0066925474 0.02894493 0.079971358
0.088454142 0.026224924 0.079616278
-0.36220947 0.033042181 0.075724855
-0.37005788 0.040666699 0.070904359
-0.11154948 0.042709202 0.070386216
-0.10411976 0.042709202 0.071020797
-0.073458336 0.042709202 0.073373139
-0.012886956 0.042709202 0.075618155
0.0026991218 0.042709202 0.075728141
0.050388709 0.042709202 0.074920014
0.12032948 0.042709202 0.070815921
0.27375695 0.042709202 0.079745606
0.30727002 0.042709202 0.077682853
0.33759519 0.042576831 0.078538604
0.34352297 0.047893189 0.077947102
0.36939132 0.046043627 0.073826998
0.37017027 0.047914665 0.075051755
-0.37534356 0.055185795 0.074907981
0.3658489 0.055441529 0.071902223
-0.39922497 0.062739886 0.071040861
-0.32532364 0.029149476 0.083006613
-0.18240258 0.02994013 0.083882749
0.096557803 0.028167721 0.081918709
0.11423026 0.026698887 0.080291077
0.13220488 0.029282972 0.083154537
0.26338106 0.02926125 0.080012657
-0.35423076 0.036650367 0.085139342
-0.34138158 0.039734844 0.081342772
-0.33731329 0.03474696 0.080728777
-0.32753444 0.03020267 0.084173664
-0.31770018 0.034257274 0.088666633
-0.29039329 0.033719145 0.080594599
-0.28664434 0.036427725 0.080948189
-0.27233481 0.038520966 0.081221446
-0.25005159 0.033585247 0.087921947
-0.24282727 0.030674402 0.084696397
-0.21486405 0.035044 0.083138183
-0.20382658 0.038582422 0.081229478
-0.18432829 0.039004967 0.081284635
-0.17428033 0.034481771 0.080694161
-0.10244283 0.032419957 0.086630672
-0.083571754 0.037257571 0.08105652
-0.053497359 0.033134103 0.087422028
-0.031537488 0.031974375 0.086136922
-0.025591534 0.031701606 0.08583466
0.00014816225 0.031394809 0.085494697
0.019710273 0.031692617 0.085824698
0.06757953 0.035313223 0.08509168
0.078378804 0.03940979 0.081337482
0.093051806 0.037820082 0.081129953
0.12332853 0.036476891 0.080954611
0.14303604 0.033122875 0.080516763
0.17605008 0.03272602 0.086969823
0.18588844 0.037250862 0.081055649
0.20940034 0.039210767 0.081311502
0.26044285 0.039293699 0.081322327
0.29040328 0.037073452 0.081032485
0.31703216 0.030545317 0.084553353
0.32828167 0.030928463 0.084977932
0.34723625 0.039750312 0.085021995
-0.34101495 0.041538112 0.081457168
-0.21527864 0.040517401 0.081482075
-0.20935129 0.043330375 0.088871032
-0.19567513 0.0427793 0.082569771
-0.12551333 0.042375002 0.080931038
-0.090558551 0.042709202 0.081753202
-0.021674961 0.041117936 0.081560478
0.014657848 0.043091394 0.086138383
0.020384306 0.042909648 0.084060259
0.084328219 0.043140594 0.086701006
0.10155602 0.042798392 0.082788065
0.19553059 0.041521084 0.081613101
0.2284524 0.04298351 0.084904775
0.24319476 0.043255784 0.088018119
0.25465184 0.042897671 0.08392325
0.26132891 0.041384887 0.081595317
0.2702899 0.043320078 0.088753298
0.29837501 0.041591082 0.081622235
0.31414208 0.043145142 0.086753003
0.32377338 0.042744584 0.082172796
0.3576335 0.046051145 0.084360823
0.3664133 0.055632338 0.080296218
-0.29355127 0.038091663 0.092915565
-0.26094139 0.037651561 0.092427887
-0.18042785 0.036131367 0.090743333
-0.11317447 0.03608489 0.090691835
0.042407755 0.035967976 0.090562277
0.18269113 0.039562069 0.094544947
0.19798002 0.039957911 0.094983578
0.24158144 0.036286078 0.090914771
0.33517528 0.038146965 0.091164157
-0.3550927 0.047955483 0.095808782
-0.33884782 0.043712039 0.099143587
-0.30628303 0.043767259 0.093866631
-0.28519499 0.041118018 0.096269108
-0.26874197 0.044271823 0.09963607
-0.24316996 0.043934956 0.09578421
-0.22708081 0.04400447 0.096579045
-0.15138641 0.041714787 0.096930414
-0.124038 0.040032331 0.095066048
-0.10342886 0.043512911 0.090958238
-0.077321008 0.043116353 0.097002119
-0.047048289 0.043598033 0.091931619
-0.020638034 0.043502353 0.090837523
0.041618362 0.040901117 0.09602876
0.10170824 0.043740701 0.093562938
0.111702 0.044032078 0.096894696
0.14106865 0.043638844 0.099062473
0.16358382 0.043345034 0.098736897
0.18110865 0.044148527 0.098226272
0.20311508 0.043538332 0.091248944
0.21383306 0.043235172 0.09861517
0.22000012 0.043709688 0.09320832
0.24817979 0.040779024 0.095893472
0.28759646 0.044147182 0.098210849
0.34185314 0.046643145 0.095969915
