# .PCD v0.7 - Point Cloud Data file format
VERSION 0.7
FIELDS x y z
SIZE 4 4 4
TYPE F F F
COUNT 1 1 1
WIDTH 881
HEIGHT 1
VIEWPOINT 0 0 0 1 0 0 0
POINTS 881
DATA ascii
-0.34742728 -0.039575674 -0.13517697
-0.35518402 -0.029521985 -0.12959819
-0.35065651 -0.02987352 -0.1101357
-0.34522712 -0.038094107 -0.10001771
-0.35270318 -0.040437762 -0.0964453
-0.34611353 -0.023253262 -0.092009775
-0.040389832 0.047992274 -0.090015396
0.0037509277 0.049452174 -0.090015396
0.05487518 0.046832029 -0.090015396
0.076446906 0.049156759 -0.090015396
0.10203763 0.049470156 -0.090015396
0.17975214 0.045735728 -0.090015396
-0.11701027 0.052760676 -0.090011321
-0.1064156 0.053672351 -0.090015396
-0.08017379 0.057354353 -0.090015396
-0.058581866 0.058174178 -0.090015396
-0.047926944 0.051167194 -0.090015396
0.10146219 0.058899764 -0.090015396
0.1887024 0.054018296 -0.090015396
0.10242298 0.065770857 -0.090015396
0.12857285 0.060430683 -0.090015396
-0.35460693 -0.023351874 -0.080201522
-0.22482371 0.042458002 -0.085569382
-0.20610452 0.042458002 -0.083885476
-0.16590239 0.044538211 -0.086064324
-0.15061228 0.042458002 -0.08558841
-0.14573982 0.042457998 -0.086636305
-0.13625889 0.044276342 -0.089830928
-0.11978077 0.042458002 -0.082439914
-0.085835949 0.042457998 -0.083342567
-0.050643992 0.042458002 -0.080680564
-0.040636413 0.042458002 -0.082039796
-0.036272988 0.042457998 -0.080201745
0.02169396 0.042458002 -0.086201675
0.067274131 0.042458002 -0.088295758
0.11250098 0.042458002 -0.085779011
0.15854424 0.042458002 -0.080390595
0.16291162 0.042457998 -0.084135525
0.20910801 0.042458002 -0.086738788
0.23975866 0.042458005 -0.084860116
0.2461555 0.042457998 -0.083534479
0.30403936 0.048377477 -0.086497709
0.32501847 0.049327802 -0.08397197
0.34445703 0.04731071 -0.081015721
0.29992497 0.056402344 -0.08694943
0.32521349 0.056859717 -0.083944365
0.33645165 0.051204428 -0.082353547
-0.22818017 0.062514044 -0.085741095
-0.21878996 0.061149783 -0.086431541
-0.16601722 0.068176791 -0.086723819
-0.13515973 0.063270271 -0.089842424
-0.1298264 0.068176799 -0.080745146
0.024042334 0.068176799 -0.086196616
0.037384987 0.068176799 -0.087879919
0.047320418 0.068176799 -0.084345922
0.054416738 0.068176806 -0.08698906
0.1089296 0.068176799 -0.0820297
0.11274341 0.068176799 -0.089348257
0.18483929 0.068176799 -0.087985218
0.1921194 0.068176799 -0.087031245
0.28233665 0.068176799 -0.082029775
0.32771024 0.06656979 -0.08359094
-0.33627316 -0.034962635 -0.078275792
-0.32373992 0.046605397 -0.073700674
-0.30406657 0.042458002 -0.07416866
-0.28689918 0.048075009 -0.079898983
-0.27191329 0.042458002 -0.072139122
-0.19969133 0.042458002 -0.078045666
-0.14131863 0.042458002 -0.070327744
-0.072179466 0.042458005 -0.078538999
0.017907955 0.042458002 -0.072315209
0.041039653 0.042458002 -0.078022823
0.14571935 0.042457998 -0.071148872
0.15712899 0.042458002 -0.073428109
0.18920188 0.042458002 -0.075242639
0.2295122 0.042458002 -0.07107918
0.2474352 0.042458002 -0.075675644
0.25229955 0.042458002 -0.073015273
0.27949432 0.042458002 -0.074488923
0.3114602 0.042458002 -0.070734128
-0.32290277 0.058979761 -0.073877305
-0.31149104 0.051886506 -0.075976565
0.36269626 0.055502392 -0.077607781
-0.31465217 0.063700557 -0.075406343
-0.27500317 0.068176799 -0.076312818
-0.24300191 0.068176799 -0.070541926
-0.21993761 0.068176799 -0.076112263
-0.20701209 0.068176799 -0.071864814
-0.089963965 0.068176799 -0.078750782
-0.067810535 0.068176799 -0.073956564
-0.028210867 0.068176799 -0.076068141
-0.0099568069 0.068176806 -0.071877018
0.19634438 0.068176799 -0.072183803
0.25639927 0.068176799 -0.07388293
0.31934911 0.068176799 -0.075016387
0.35204276 0.068176799 -0.071240395
0.3644605 0.061576813 -0.077210717
0.3702305 0.068176799 -0.07468994
0.38787892 0.064584918 -0.070132226
-0.33937103 -0.044131048 -0.067393064
-0.34598827 -0.021710295 -0.069606453
-0.33981323 -0.024539489 -0.06226771
-0.34502304 0.042486109 -0.068988495
-0.33157018 0.042458002 -0.068994954
-0.32861546 0.042458002 -0.069117509
-0.28634116 0.042457998 -0.063880235
-0.24361472 0.042458002 -0.065124601
-0.20634954 0.042458002 -0.065261826
-0.18194379 0.042458002 -0.065471709
-0.15790166 0.042458002 -0.064019457
-0.096895486 0.042458002 -0.069809042
-0.0012793615 0.042458002 -0.067684643
0.048141465 0.042458002 -0.069806233
0.082798593 0.042458002 -0.06699878
0.11865153 0.042458005 -0.060376935
0.15226254 0.042457998 -0.063888066
0.24891846 0.042458002 -0.069496848
0.25221163 0.042458002 -0.063265331
0.30637032 0.042458002 -0.067048527
0.39802161 0.042458002 -0.062528051
0.40437108 0.044564113 -0.062979944
0.39990091 0.05469612 -0.065070637
-0.33692756 0.068176799 -0.063514471
-0.27599001 0.068176799 -0.063251458
-0.2333833 0.067150176 -0.060266383
-0.22914854 0.068059444 -0.069088526
-0.18137681 0.066736698 -0.061158851
-0.070246711 0.068176799 -0.065334812
-0.028695513 0.068176799 -0.063775145
-0.0169442 0.066755772 -0.06799911
0.035457075 0.067388728 -0.062097281
0.10961024 0.067808643 -0.064919785
0.13450336 0.067581512 -0.068687692
0.14794365 0.068176799 -0.064484507
0.1627626 0.067772187 -0.066151723
0.26916778 0.06716691 -0.068341888
0.29666021 0.066775098 -0.063990533
0.30603769 0.066769034 -0.061580844
0.31494892 0.067915529 -0.065749303
0.32157591 0.067690827 -0.068778917
0.38853365 0.062343497 -0.069888145
0.39799049 0.064641774 -0.065934494
-0.31935525 0.042458002 -0.055216864
-0.30872282 0.042458002 -0.053508848
-0.28646779 0.042458002 -0.051519677
-0.20329297 0.042457998 -0.052879922
-0.080167018 0.042458002 -0.058819607
-0.076948211 0.042458002 -0.053058036
-0.048053812 0.042458002 -0.052356295
-0.013160639 0.042458002 -0.050103489
0.12894782 0.042458002 -0.052912131
0.13690931 0.042458005 -0.054439686
0.24251294 0.042458002 -0.05987227
0.27030933 0.042458002 -0.054226477
0.3638857 0.042458005 -0.052652106
0.40404204 0.042458002 -0.058734123
0.4168224 0.049300782 -0.056061506
-0.38002437 0.060960069 -0.058017395
-0.36588007 0.068176799 -0.057627354
-0.31716186 0.068176799 -0.058911495
-0.26962388 0.068176799 -0.05074897
-0.25648606 0.068176799 -0.056949064
-0.081580631 0.067759097 -0.053329073
-0.045486912 0.068176799 -0.058260031
-0.028155625 0.06778796 -0.059734829
-0.0015293956 0.068176799 -0.051299982
0.037253581 0.068176799 -0.054877851
0.17429894 0.067839429 -0.059691932
0.20041084 0.068176799 -0.050335996
0.27080953 0.066736698 -0.054453444
0.29851413 0.067402989 -0.055679321
0.35608116 0.068085961 -0.058599196
0.4024865 0.067015663 -0.053948626
-0.37228721 0.042458005 -0.044142738
-0.35925749 0.042458002 -0.044431597
-0.27842683 0.042458002 -0.045530818
-0.23750503 0.042458002 -0.0409756
-0.20976752 0.042458002 -0.049654149
-0.19226232 0.042458002 -0.049215578
-0.16415688 0.042458002 -0.047448818
-0.13500965 0.042458002 -0.044194326
0.0069566295 0.042458002 -0.045178685
0.019067308 0.042458002 -0.049705498
0.030290514 0.042458002 -0.041969676
0.066609964 0.042458002 -0.048715275
0.085759319 0.042458002 -0.045491405
0.10814232 0.042458002 -0.04146941
0.13206233 0.042457998 -0.047443062
0.23704787 0.042458002 -0.043217145
0.35642156 0.042458002 -0.044036366
0.37164748 0.042458002 -0.04366003
0.38468027 0.042457998 -0.044740707
0.41197944 0.042458002 -0.045716222
0.42833668 0.042458002 -0.044188518
-0.41116297 0.050657414 -0.044092786
-0.38862753 0.068176799 -0.044938818
-0.3091746 0.066736698 -0.048192874
-0.28751773 0.068176799 -0.046195641
-0.27491593 0.068176799 -0.045384344
-0.24652691 0.068176799 -0.04339087
-0.23148455 0.067646354 -0.046993032
-0.21761739 0.066736698 -0.047911227
-0.20052664 0.067226589 -0.049102504
-0.19228655 0.068176799 -0.04553761
-0.179598 0.068176799 -0.046211533
-0.12812276 0.068176799 -0.042503107
-0.066276595 0.068176799 -0.042060558
-0.042981245 0.067881942 -0.046105087
0.04807546 0.067983136 -0.044892006
0.051321305 0.067048378 -0.048953965
0.1134986 0.066736698 -0.0478113
0.12116681 0.068176799 -0.044103593
0.15790059 0.068176799 -0.043527856
0.18006802 0.066736698 -0.048665345
0.22023176 0.068176799 -0.041099079
0.26020268 0.067698784 -0.049496047
0.29767233 0.068176799 -0.040682621
0.41269183 0.068176791 -0.040807307
0.43318301 0.063229792 -0.044933677
-0.34079492 -0.047048591 -0.035241485
-0.31628922 0.036028098 -0.037887372
-0.30831078 0.036028098 -0.035800479
-0.37840301 0.042458002 -0.030198786
-0.3459166 0.042458002 -0.032932498
-0.3181628 0.042457998 -0.038741797
-0.30802238 0.042458002 -0.034521703
-0.26094174 0.042458002 -0.032151468
-0.21877828 0.042458002 -0.03142675
-0.13599175 0.042458002 -0.037225358
-0.09438929 0.042458002 -0.03704612
-0.063221782 0.042458002 -0.037634321
0.1096479 0.042458005 -0.036610052
0.11551028 0.042458002 -0.036994446
0.14608213 0.042458002 -0.035939872
0.21208771 0.042458002 -0.038899176
0.22580467 0.042458002 -0.035881974
0.24047983 0.042458005 -0.039689913
0.42501271 0.042458005 -0.030386146
0.44558901 0.059883263 -0.034408525
-0.30671343 0.068176799 -0.039799087
-0.22387794 0.068176799 -0.031524692
-0.20371111 0.068176799 -0.033827562
-0.15862927 0.068176799 -0.032101907
-0.14165807 0.068176799 -0.033265825
-0.1117601 0.068176799 -0.038704786
-0.096053571 0.068176799 -0.033564575
-0.076789245 0.068176799 -0.031942777
-0.02622804 0.068176799 -0.034590852
0.086156338 0.068176799 -0.035745382
0.20029318 0.068176799 -0.039466448
0.22849515 0.068176799 -0.037871547
0.2550512 0.068176799 -0.036982551
0.3417215 0.068176799 -0.033326387
0.35804135 0.068176799 -0.037950289
0.38333806 0.068176799 -0.035952333
0.39308509 0.068176799 -0.037554611
0.40200874 0.068176799 -0.037793957
0.43131089 0.068176799 -0.039605189
0.44596428 0.063715592 -0.034049608
-0.35033214 -0.049801353 -0.020310342
-0.36387664 -0.031360924 -0.023039889
-0.34015793 -0.022682719 -0.025767419
-0.44839063 0.049876004 -0.021091852
-0.4378404 0.042457998 -0.027488045
-0.40813839 0.042458002 -0.023529597
-0.37790629 0.041686721 -0.02568521
-0.36226055 0.042458002 -0.025795333
-0.32122126 0.042458002 -0.024098296
-0.30729738 0.042458002 -0.026968841
-0.2495193 0.042458002 -0.022448918
-0.10218859 0.042457998 -0.028988484
-0.063735358 0.042458002 -0.027619449
-0.023191549 0.042458002 -0.025898002
0.02844961 0.042458002 -0.025847368
0.034865811 0.042458002 -0.029837396
0.081556872 0.042458002 -0.028021814
0.11571364 0.042458002 -0.028644629
0.21178369 0.042458002 -0.028839035
0.43134961 0.042458002 -0.020853806
-0.44168937 0.056830563 -0.025806235
-0.43756285 0.067203373 -0.028551321
-0.40741873 0.067537971 -0.021342639
-0.3173379 0.068176799 -0.02433824
-0.27298605 0.068176799 -0.024928238
-0.17543054 0.068176799 -0.028128956
-0.16528966 0.066736698 -0.022599136
-0.15486975 0.067039594 -0.023228053
0.025260556 0.067432471 -0.021432335
0.079034209 0.066736698 -0.022817262
0.17205593 0.068176799 -0.028660892
0.20996799 0.068139367 -0.024153439
0.21000028 0.067527346 -0.021351676
0.23010036 0.068176799 -0.025450256
0.24659438 0.068176799 -0.02672768
0.31347474 0.066900671 -0.021884415
0.36541054 0.068176799 -0.026644247
0.45323205 0.068176799 -0.02541256
-0.34059322 -0.04742017 -0.016309055
-0.33797425 -0.045301229 -0.013761846
-0.33246413 -0.036182802 -0.016837021
-0.33542752 -0.027635016 -0.0192883
-0.3259483 -0.029504834 -0.016181024
-0.30095989 -0.026150638 -0.015160464
-0.34767133 -0.016693695 -0.019187558
-0.32392344 -0.011525838 -0.019174427
-0.29074007 -0.017942814 -0.011539419
-0.28950641 -0.016806824 -0.010390763
-0.33629802 -0.0024647946 -0.01689942
-0.30487216 -0.0078394525 -0.017840799
-0.28874651 -0.0054663075 -0.011327782
-0.30306226 0.0088184476 -0.017317228
-0.29244286 0.0056843553 -0.015283536
-0.33762071 0.015853707 -0.01634207
-0.31064934 0.011547512 -0.01162849
-0.43495214 0.042458002 -0.015807178
-0.41563919 0.042458002 -0.013545015
-0.40072858 0.042458002 -0.018234905
-0.31088525 0.042458005 -0.01227705
-0.30672884 0.042458002 -0.015261355
-0.14911145 0.042458002 -0.018360786
-0.11820628 0.042458002 -0.017784871
-0.083095148 0.042458002 -0.016208954
-0.053935703 0.042458002 -0.011543863
0.023671607 0.042458002 -0.018427331
0.032366976 0.042458002 -0.019064307
0.11163428 0.042458002 -0.019345386
0.13679321 0.042458002 -0.013130067
0.23402107 0.042458002 -0.014409574
0.44353303 0.042458002 -0.013081644
-0.3671416 0.067276157 -0.015153307
-0.27073085 0.068176799 -0.013735234
-0.26944643 0.068176799 -0.013712173
-0.25348184 0.067810237 -0.014707997
-0.21600872 0.068176799 -0.018647358
-0.16364837 0.068176799 -0.012672151
-0.092686921 0.067823581 -0.011735039
-0.067253374 0.066736698 -0.015739895
-0.047969244 0.066736698 -0.016149998
-0.036226816 0.066736698 -0.01576726
-0.00040184706 0.067661658 -0.010887003
0.024388216 0.066761978 -0.01558202
0.075695962 0.068066105 -0.014661295
0.084673807 0.068176799 -0.019067202
0.10241452 0.068176799 -0.0121703
0.12727503 0.068176799 -0.012407117
0.16393821 0.067946672 -0.013283366
0.17743604 0.067581229 -0.01406817
0.23303828 0.068176799 -0.01999386
0.26424199 0.068176799 -0.013454393
0.34174386 0.067561008 -0.017232519
0.37073424 0.067926854 -0.012152091
0.44197494 0.068176799 -0.011920398
-0.35810894 -0.047054708 -0.005056655
-0.29724672 -0.03606905 -0.0014157477
-0.31956112 -0.029844748 -0.00077693525
-0.30561954 -0.022216573 -0.0036232108
-0.29421625 -0.022230566 -0.0083232997
-0.36348978 -0.015935335 -0.0018895041
-0.31546515 -0.014943019 -0.0031238864
-0.30367053 -0.016910445 -0.0097142262
-0.32172155 -0.0075963559 -0.0046993257
-0.35497856 0.0089257732 -0.0072367312
-0.33581138 0.00016242175 -0.0029506453
-0.30309772 0.0039946949 -0.0029446904
-0.28456452 0.0057836147 -0.007201138
-0.33761886 0.015739428 -0.0058288942
-0.30511522 0.01301531 -0.0024838957
-0.38395303 0.033730574 -0.0033599301
-0.28610471 0.03611917 -0.0010763133
-0.44609934 0.042458002 -0.0039299419
-0.43723917 0.042458002 -0.0038970215
-0.31774005 0.042458002 -0.0097197536
-0.30536303 0.042458005 -0.0040306402
-0.10110828 0.042458005 -0.00071682991
-0.088222921 0.042458002 -0.0098917857
-0.017126895 0.042458002 -0.0028558876
0.0097766966 0.042458005 -0.0006323196
0.10752209 0.042458002 -0.0078130662
0.28099328 0.042458002 -0.0099819321
0.41358769 0.042458002 -0.0032435623
0.44530442 0.042457998 -0.00025473069
0.45737609 0.042457998 -0.0083517358
0.4710055 0.048079751 -0.0050792531
-0.47086731 0.051883213 -0.0031706528
-0.47263861 0.06721215 -0.0016310086
-0.40457568 0.067854717 -0.004618126
-0.39506337 0.068176799 -0.006063506
-0.3031491 0.068176799 -0.00068414322
-0.27471375 0.068063267 -0.0048377751
-0.24488106 0.068176799 -0.00082022563
-0.22776504 0.068033099 -0.0048040794
-0.16902889 0.067191638 -0.0087936828
-0.15303877 0.068176799 -0.0011797622
-0.12447108 0.066736698 -0.0031183818
-0.11759321 0.068176791 -0.0036299117
-0.10169944 0.068176799 -0.0051971097
-0.075391203 0.068176799 -0.0077225855
-0.065603703 0.066770397 -0.002715349
-0.017921299 0.068176799 -0.0077293254
0.022770241 0.068176799 -0.0055853641
0.030329496 0.068176799 -0.00058468414
0.076596573 0.068176799 -0.0061951624
0.1069596 0.067456752 -0.0015280955
0.14302182 0.067621224 -0.0044234293
0.16293597 0.068176799 -0.0049941679
0.19417807 0.068176799 -0.0066145333
0.20823953 0.068131566 -0.0049140463
0.21548599 0.067965709 -0.0081308167
0.26250094 0.068176799 -0.0054791202
0.30501258 0.06744647 -0.0042777117
0.34842587 0.068176799 -0.0059986194
0.35035878 0.067220166 -0.0023401889
0.36102119 0.067268334 -0.0023000089
0.40827826 0.068176799 -0.0076545817
0.45721966 0.068176799 -0.0074188029
-0.32693648 -0.030317765 0.0077828891
-0.327645 -0.027697641 0.0026233776
-0.30727088 -0.027251564 0.00412816
-0.29157639 -0.023035806 0.0069584204
-0.36170518 -0.01529736 0.0086004864
-0.3218554 -0.014897345 0.0088313641
-0.31267238 -0.017060034 0.0050650788
-0.30488089 -0.013893303 0.0037256791
-0.28921729 -0.018990051 0.0089355949
-0.31904429 -0.00088357739 0.006553865
-0.28307632 -0.001310231 0.0040760152
-0.28209037 0.0035464121 0.0046544974
-0.36908907 0.010695706 0.0024315575
-0.35091808 0.011720823 0.0026323718
-0.34368128 0.013907527 0.0064764237
-0.31463808 0.014204096 0.0046730209
-0.30544361 0.010293984 0.0027930406
-0.38072896 0.020138275 0.00036609732
-0.29529843 0.037702195 0.0040373988
-0.42050475 0.042458002 0.0062070843
-0.3574425 0.042458002 0.0090384549
-0.23800087 0.042458002 0.0079345666
-0.19563903 0.042457998 0.0039367583
-0.1863393 0.042458002 0.0030132178
-0.16593724 0.042458002 0.0078465007
-0.15724429 0.042458002 0.0045940951
-0.067848645 0.042458002 0.0039720377
-0.027483732 0.042458002 0.0035168305
-0.0075310431 0.042458002 0.0046073422
0.0093466789 0.042458002 0.0072122477
0.029668212 0.042458002 0.0091105737
0.036829919 0.042458002 0.0045057051
0.045355927 0.042458002 0.0037087575
0.05014481 0.042458002 0.00095618144
0.096345574 0.042458002 0.0099292379
0.15021895 0.042457998 0.0011928864
0.18898571 0.042458002 0.0092205442
0.2186207 0.042458002 0.0020436291
0.22291414 0.042458002 0.0021152974
0.26921511 0.042458002 0.0046178401
0.39778656 0.042458002 0.0094336718
0.41081434 0.042457998 0.0077637811
0.44416767 0.042457998 0.0011481785
0.45557266 0.042458002 0.0030966792
-0.47324771 0.065804064 0.0011017993
-0.42005587 0.068176799 0.0064594643
-0.39054751 0.067518011 0.0020920518
-0.34124833 0.068160549 0.0049464032
-0.3004345 0.066762641 0.0027218256
-0.26294836 0.066816308 0.0091069425
-0.25902581 0.066736698 0.0092854509
-0.23708248 0.066736698 0.0096988482
-0.204962 0.067134991 0.0040183212
-0.1173704 0.066495433 7.2369897e-07
-0.10394139 0.066640303 7.2369897e-07
-0.09394519 0.067816131 0.0045859963
-0.07712882 0.067262448 0.0087350821
-0.041824266 0.068176799 0.0014278553
-0.019126475 0.06767825 0.0044710804
-0.006117776 0.06717746 0.0040537082
0.039094955 0.067819655 7.2369897e-07
0.041558728 0.067996755 0.0047635068
0.086180128 0.067886725 0.0061034448
0.094249606 0.068176791 0.005988216
0.12907444 0.068156809 0.0045412434
0.16328099 0.066736698 0.0032082885
0.18611044 0.067735367 0.0019108315
0.20961688 0.068176799 0.0069568753
0.23333991 0.068176799 0.0076427762
0.25578034 0.066175222 7.2369897e-07
0.32522488 0.068166092 0.001209593
0.35524368 0.066240974 7.2369903e-07
0.38433114 0.067585588 7.2369897e-07
0.4139322 0.066812716 7.2369897e-07
0.42842269 0.066736698 0.0035862224
0.44167861 0.067555472 0.0043687536
0.47451121 0.061869666 4.7834337e-06
-0.35912794 -0.046195861 0.017624743
-0.32213563 -0.026357688 0.012743687
-0.29699105 -0.025687592 0.011885552
-0.32066491 -0.01561231 0.010519475
-0.31480175 -0.017390801 0.018165942
-0.29358932 -0.019599209 0.010853693
-0.34633678 -0.0049151876 0.016785711
-0.33118451 -0.0093039386 0.019019466
-0.31699905 -0.0062451931 0.012130518
-0.35732159 0.0097867809 0.012253169
-0.28828692 0.0046220804 0.014893416
-0.27985346 0.0095644612 0.016457856
-0.31804872 0.017147083 0.018572208
-0.26927084 0.035641439 0.01748885
-0.43119553 0.042458002 0.015678352
-0.42101747 0.042458002 0.01145371
-0.38375315 0.042458005 0.017024087
-0.34373173 0.042458002 0.015514109
-0.15291457 0.042458002 0.013184881
-0.022472501 0.042458002 0.016011618
-0.013584726 0.042457998 0.010653639
0.049125552 0.042458002 0.012510641
0.066071421 0.042457998 0.016017484
0.1349951 0.042458002 0.013596179
0.25922942 0.042457998 0.010009494
0.39685073 0.042458002 0.014322267
0.41618574 0.042458005 0.013464609
-0.45474684 0.050165363 0.016456919
-0.45379817 0.062597491 0.017148655
-0.42909795 0.068176799 0.019966921
-0.41596383 0.066898912 0.010251393
-0.40402511 0.066736698 0.010058327
-0.39651728 0.067977287 0.014547747
-0.36484754 0.067147911 0.01526041
-0.25704572 0.068092629 0.014418911
-0.19644877 0.066736698 0.01606122
-0.18848501 0.066736698 0.015635975
-0.17548849 0.067064323 0.016818698
-0.081874982 0.067505665 0.010757092
-0.064855173 0.068176799 0.01278037
0.0087936819 0.067492247 0.014973456
0.012796022 0.068176799 0.012030701
0.10822315 0.068176799 0.013189396
0.11145724 0.066736698 0.01586128
0.1352136 0.067619033 0.014867792
0.1832847 0.068176806 0.01328885
0.22754174 0.067738317 0.014768388
0.32468581 0.066911981 0.016691661
0.36215046 0.067778692 0.010984645
0.41043639 0.067823753 0.014697194
0.43014672 0.067581236 0.017249741
-0.34324548 -0.048615463 0.023486178
-0.36352468 -0.039440088 0.021046277
-0.33504838 -0.029530782 0.029109631
-0.37020048 0.028445896 0.020932654
-0.38234341 0.036028098 0.025912546
-0.44266039 0.042458005 0.02305896
-0.31282619 0.042458002 0.020530704
-0.29643589 0.042458002 0.028210696
-0.273067 0.042458002 0.025960114
-0.26855046 0.042457998 0.02132008
-0.22732216 0.042458002 0.026475418
-0.20728454 0.042458002 0.023909016
-0.17249793 0.042458002 0.024988173
-0.12587288 0.042458005 0.025331475
-0.067576155 0.042458002 0.024919201
0.016640559 0.042458002 0.021698676
0.028033309 0.042458005 0.024439886
0.031018898 0.042458002 0.026624626
0.063690983 0.042458002 0.023036495
0.072033525 0.042458002 0.027507104
0.11191017 0.042458002 0.024161818
0.14450084 0.042458002 0.022479016
0.15190296 0.042458002 0.026046084
0.21629757 0.042458002 0.02096382
0.4306494 0.042458002 0.022775946
0.44475752 0.042457998 0.023488047
0.45251513 0.049678061 0.027719311
0.45215261 0.055796839 0.028116453
-0.41438299 0.068176799 0.024916457
-0.38998899 0.067433186 0.023556333
-0.36262256 0.067936122 0.026013548
-0.34973168 0.068176799 0.026315711
-0.29607624 0.068176799 0.024449414
-0.28918964 0.068176799 0.024446707
-0.16402888 0.068176799 0.027756903
-0.080208138 0.068176799 0.02771556
-0.034692459 0.067340791 0.022891507
-0.021472134 0.066736698 0.022292294
0.0047172755 0.067009799 0.023203192
0.15336917 0.068176799 0.020619603
0.18117343 0.068176799 0.026486386
0.20805158 0.068176799 0.027818002
0.22857448 0.068176799 0.029952146
0.24534732 0.068176799 0.027181365
0.29476076 0.068176799 0.029194582
0.31386378 0.066736698 0.022235777
0.35666886 0.068176799 0.028939303
0.37652943 0.068176799 0.02854884
0.41365322 0.067092188 0.023209475
0.43429035 0.068176799 0.028769515
0.44945529 0.068176799 0.02645288
-0.33429527 -0.03377882 0.035949644
-0.33663785 -0.02640238 0.030249542
-0.3315784 0.036028098 0.038696036
-0.30114177 0.036028098 0.032701459
-0.40434223 0.042458005 0.038584277
-0.35512981 0.042458002 0.032947533
-0.33631718 0.042458002 0.034433667
-0.28219908 0.041274924 0.031752661
-0.23751149 0.042458005 0.036998741
-0.17281328 0.042458002 0.036327835
-0.16734286 0.042458002 0.034120619
-0.0097650737 0.042458002 0.030072158
0.02858071 0.042458002 0.032322824
0.036199823 0.042458002 0.031092718
0.091596335 0.042458002 0.032819126
0.12755348 0.042458002 0.039823618
0.15998326 0.042458002 0.039765961
0.20205963 0.042458002 0.030952012
0.22974923 0.042458002 0.035551026
0.23855385 0.042458002 0.032442957
0.24873927 0.042458002 0.037382454
0.38775864 0.042458002 0.035590276
0.42101264 0.042458002 0.037002794
0.44804317 0.046902589 0.032061037
-0.41651958 0.068176799 0.031886354
-0.38104105 0.068176806 0.03420068
-0.37980902 0.068176799 0.035144936
-0.35327649 0.068176799 0.03395167
-0.30273741 0.068176799 0.037598185
-0.27383047 0.068176799 0.036509976
-0.25860977 0.068176799 0.038666576
-0.22079436 0.068176799 0.038672693
-0.18359216 0.068176799 0.033223726
0.0092669502 0.068176799 0.032108504
0.13289785 0.068176799 0.036671512
0.17957738 0.068176799 0.036288086
0.21347935 0.068176799 0.034049693
0.37161097 0.068176799 0.035009287
0.44364917 0.068176799 0.031329639
-0.36258185 -0.039694943 0.047991652
-0.30628091 0.039890438 0.041794099
-0.28236523 0.039751846 0.041794099
-0.40148309 0.044839926 0.048869912
-0.38242763 0.042458002 0.045064505
-0.33151975 0.042458005 0.047800429
-0.31567729 0.041938778 0.041794099
-0.26295337 0.042458002 0.040246755
-0.2527132 0.042458002 0.04850661
-0.19587575 0.042458002 0.04818105
-0.18093921 0.042458002 0.048150446
-0.13682775 0.042458002 0.043264046
-0.12533504 0.042457998 0.041334271
-0.064841785 0.042458002 0.047448419
-0.049000256 0.042457998 0.046268642
-0.011178289 0.042458002 0.040839288
-0.0041099116 0.042458002 0.047533311
0.036785387 0.042457998 0.046522763
0.16312172 0.042458005 0.040900622
0.26030794 0.042458002 0.04855179
0.33511263 0.042458002 0.040211514
0.42893457 0.055483431 0.048016682
-0.41268638 0.062174901 0.04327089
-0.38988891 0.068176799 0.044534333
-0.35315433 0.067728594 0.046924435
-0.3244594 0.068176799 0.044423711
-0.27040598 0.0679923 0.049766727
-0.26563066 0.067291081 0.04915648
-0.25147352 0.068176799 0.045663334
-0.10806054 0.068176799 0.040587507
-0.082637221 0.068176799 0.04622554
-0.02121529 0.067194328 0.049075805
-0.0025625639 0.068176799 0.043607682
0.0046383962 0.068176799 0.043984067
0.020882934 0.067436866 0.049278054
0.050245643 0.068176799 0.042767495
0.066988871 0.068176799 0.04579936
0.14438736 0.068176799 0.042823583
0.20603868 0.068176799 0.044120215
0.26488119 0.068176799 0.046237968
0.30728292 0.068176799 0.045208063
0.31669337 0.066736698 0.048109159
0.36785391 0.067768022 0.045489587
0.37060547 0.068176799 0.043233261
0.38966694 0.068176799 0.041163042
-0.36314017 -0.034712635 0.055857893
-0.34815463 -0.01797449 0.054150291
-0.39019164 0.042458005 0.053520467
-0.374944 0.042458002 0.059880286
-0.33570158 0.042458005 0.058252715
-0.25341403 0.042458002 0.051481538
-0.12615286 0.042458002 0.055093296
-0.082323886 0.042458002 0.052093465
-0.016434245 0.042458002 0.052056409
0.049552113 0.042458005 0.05167228
0.063208401 0.042458002 0.056283209
0.095425993 0.042458002 0.050224893
0.10932656 0.042458002 0.056296252
0.11547494 0.042458002 0.058751456
0.12858374 0.042458005 0.055083349
0.19992997 0.042457998 0.059792668
0.21449 0.042457998 0.054495022
0.22523189 0.042458002 0.058351651
0.23702343 0.042458002 0.055870056
0.3009603 0.042458002 0.058543719
0.31069347 0.042458002 0.05240415
0.34634021 0.042458002 0.052150317
0.35691497 0.042458002 0.054916345
0.39418224 0.042458002 0.057454787
-0.38237321 0.057430621 0.057099
-0.30801803 0.06682837 0.054105163
-0.29177761 0.068176799 0.058669426
-0.27475923 0.067444459 0.053591479
-0.26414034 0.068176799 0.05142295
-0.17880708 0.068176799 0.057600077
-0.15570083 0.068176799 0.052233264
-0.047938116 0.068131581 0.059383497
0.12103635 0.068176799 0.05930363
0.14271712 0.066736698 0.054592051
0.16798891 0.068176799 0.054279521
0.17502023 0.068176799 0.057471193
0.18382439 0.067763813 0.055980042
0.19479629 0.068176799 0.056733426
0.22701132 0.066736698 0.054940321
0.24502571 0.067848951 0.058608785
0.26568505 0.066736765 0.054181542
0.2790029 0.067690268 0.053386524
0.28878152 0.06683185 0.055203307
0.41491345 0.061632797 0.057258114
-0.33808565 -0.042437416 0.067318916
-0.3415775 -0.023398457 0.063863233
-0.32612997 0.042458002 0.067503333
-0.31513438 0.042458005 0.0667051
-0.23703091 0.042458005 0.064643286
-0.22354405 0.042458002 0.06348183
-0.21271369 0.042458002 0.06409283
-0.17750145 0.042458002 0.062966265
-0.12930618 0.042458002 0.062635988
-0.11522973 0.042457998 0.067120701
-0.054628316 0.042458002 0.062406912
0.0020373613 0.042458005 0.069987841
0.085741371 0.042458002 0.069942251
0.10680421 0.042458002 0.065877691
0.11341861 0.042458002 0.066874988
0.14404096 0.042458002 0.061756883
0.20873398 0.042458002 0.069286168
0.22592248 0.042458002 0.065527454
0.24060741 0.042458002 0.06390135
0.35297903 0.042458005 0.064410053
0.38768661 0.042458002 0.061707191
0.39365363 0.049045209 0.067894652
0.39540523 0.051018335 0.067102678
-0.31469154 0.068176799 0.069741219
-0.24897684 0.068176799 0.065376595
-0.2388677 0.06716308 0.060255885
-0.21848556 0.067456752 0.066393942
-0.20582394 0.068176799 0.06456624
-0.1947245 0.068176799 0.069362514
-0.1861878 0.066781431 0.061591174
-0.13999605 0.067893669 0.066048563
-0.10304351 0.068176799 0.069859229
-0.0813777 0.067087077 0.064172938
-0.079660162 0.068176799 0.06438861
-0.064653724 0.066736698 0.060717426
-0.03971982 0.068176799 0.063583851
-0.0038174456 0.068176799 0.066503026
0.045427121 0.067668632 0.068760619
0.073708951 0.066736698 0.060786478
0.13321272 0.068176799 0.06444779
0.14045066 0.068176799 0.069580965
0.1855813 0.066736698 0.067927927
0.26097274 0.068176799 0.064409792
0.35128331 0.06709747 0.068284363
0.39607069 0.068176799 0.065061189
-0.28010777 0.042458002 0.070146814
-0.25969902 0.042458002 0.073586367
-0.23400024 0.042458002 0.075507119
-0.20905918 0.042458002 0.075444803
-0.15735446 0.042458002 0.075477026
-0.12668343 0.042457998 0.078436151
-0.052633129 0.042458002 0.077520706
-0.021686662 0.042458005 0.071000315
-0.005748257 0.042458005 0.073862329
0.0036571138 0.042458002 0.076689668
0.02236205 0.042458002 0.074391633
0.036087438 0.042458002 0.079230413
0.046738118 0.042458005 0.078819752
0.10858779 0.042457998 0.077981777
0.13835503 0.042458005 0.077309616
0.24364719 0.042458005 0.077840351
0.27074674 0.042457998 0.075391188
0.35388744 0.0456733 0.079379305
0.37030348 0.04900746 0.075855553
-0.33451813 0.058100022 0.071427584
-0.31812263 0.054593019 0.074780338
0.36379585 0.05946967 0.077360295
0.37734783 0.05708573 0.073761106
-0.32820106 0.062001303 0.072759911
-0.31018421 0.065042444 0.076212294
-0.27843145 0.068176799 0.070121363
-0.2327107 0.068176799 0.073686399
-0.21285847 0.068176799 0.075180873
-0.18299031 0.068176799 0.072603889
-0.13011794 0.068176799 0.078719191
-0.12274686 0.068176799 0.071089245
-0.096141636 0.068176799 0.070819065
-0.036287397 0.068176799 0.070536129
-0.027995907 0.068176799 0.075342484
0.010969266 0.068176799 0.072605297
0.071542352 0.068176799 0.07881254
0.15335758 0.068176799 0.070099637
0.21276426 0.068176799 0.076229826
0.22754593 0.068176799 0.076540031
0.27994701 0.068176799 0.077418894
0.33994371 0.068176799 0.07367599
0.35726082 0.068176799 0.078274824
0.36427373 0.068176799 0.076846898
0.38366508 0.060755767 0.07170365
-0.35832471 -0.042724393 0.086383089
-0.36088803 -0.032002538 0.088983499
-0.27261555 0.042458002 0.080394499
-0.2672984 0.046252653 0.082255416
-0.25306767 0.045460813 0.08360184
-0.22966239 0.048686251 0.085632116
-0.20464469 0.042458002 0.084293835
-0.19807173 0.04445792 0.087735496
-0.18464133 0.047523186 0.088440068
-0.13791746 0.048691519 0.089814112
-0.11718022 0.042458002 0.083726831
-0.095201284 0.042458002 0.084394291
0.012873478 0.042458005 0.080381915
0.072862886 0.042458002 0.085458376
0.083476081 0.042458002 0.08350797
0.093974382 0.042458005 0.08806099
0.13172689 0.042458002 0.08492285
0.14347057 0.042458002 0.088001862
0.15750317 0.042458002 0.089719228
0.19471394 0.042458002 0.089571863
0.21966997 0.042458002 0.083474137
0.26055211 0.042457998 0.088799454
-0.16536286 0.057398461 0.089174382
-0.14127165 0.05153764 0.089778841
0.25599506 0.052561827 0.089724228
0.31809056 0.059499621 0.084952645
-0.23608813 0.064609095 0.085159644
-0.2119108 0.068176799 0.085593134
-0.19308271 0.068176799 0.087771297
-0.18943416 0.060398079 0.088188633
-0.1713472 0.068176799 0.086025313
-0.13418774 0.065779798 0.086481452
-0.036450766 0.068176799 0.088303201
-0.017188754 0.068176799 0.083486229
0.02625487 0.068176799 0.083054341
0.035908356 0.068176799 0.084019065
0.085292205 0.068176799 0.080207631
0.09909068 0.068176799 0.089561827
0.11975034 0.068176799 0.085453525
0.13033925 0.068176799 0.085331321
0.14428708 0.068176799 0.086085245
0.17652994 0.068176799 0.088965312
0.2069132 0.068176799 0.087363154
0.2313786 0.068176799 0.082906187
0.24820745 0.062073492 0.089845866
0.27099055 0.061607409 0.08906737
0.30543149 0.064549133 0.08634486
-0.34619465 -0.046089351 0.093825698
-0.35349411 -0.033161953 0.098063946
-0.33792889 -0.030498587 0.090428554
0.14078587 0.047816027 0.090016901
0.16700137 0.044866111 0.090016901
0.1844939 0.0470961 0.090016901
0.19325127 0.046311758 0.090016901
0.23713773 0.042499635 0.090016901
-0.025171353 0.055901311 0.090016901
0.033244148 0.053540967 0.090016901
0.059883703 0.059659429 0.090016901
0.075244784 0.05508868 0.090016901
0.15390943 0.050617132 0.090016901
-0.077434033 0.063513793 0.090016901
-0.032062016 0.063173927 0.090016901
-0.025817083 0.061483473 0.090016901
0.008471448 0.061319139 0.090016901
0.017696172 0.061934561 0.090016901
0.10057981 0.062249672 0.090016901
0.21919723 0.061748669 0.090016901
-0.35268307 -0.031075502 0.13064829
-0.34422362 -0.028364651 0.13022435
-0.34965801 -0.03140283 0.14016899
