# .PCD v0.7 - Point Cloud Data file format
VERSION 0.7
FIELDS x y z
SIZE 4 4 4
TYPE F F F
COUNT 1 1 1
WIDTH 909
HEIGHT 1
VIEWPOINT 0 0 0 1 0 0 0
POINTS 909
DATA ascii
0.26200294 -0.035805661 -0.115272
0.2596201 -0.026155403 -0.115272
0.24409074 -0.016109239 -0.115272
0.25500485 -0.017842375 -0.115272
0.24755308 -0.0080242772 -0.11425593
-0.36322153 0.017397514 -0.11128124
-0.35258371 0.01235255 -0.111751
-0.33097264 0.016649781 -0.111751
-0.070278764 0.0141862 -0.11161272
0.00043275394 0.018083362 -0.111751
0.017402288 0.0141862 -0.11091605
0.020860694 0.019046262 -0.11175101
0.11925009 0.019924933 -0.11175099
0.12986559 0.011669481 -0.111751
0.13832411 0.013294648 -0.111751
0.14355811 0.016180683 -0.1117498
0.24381582 0.01963171 -0.11175036
0.2779026 0.014311744 -0.11175056
0.30094117 0.011969628 -0.11175099
0.33491993 0.0141862 -0.11133133
0.36300421 0.015683051 -0.1109466
-0.33279628 0.020113746 -0.11175099
-0.23134811 0.020774866 -0.111751
-0.048144553 0.021527899 -0.11143273
-0.0024598525 0.022804715 -0.111751
0.018177494 0.021527899 -0.11173899
0.020308003 0.021115158 -0.11175101
0.049872026 0.023828723 -0.11175101
0.21255516 0.0241223 -0.1100936
0.27306548 0.021527899 -0.11094568
0.34355244 0.020431431 -0.11175092
0.26130816 -0.05422207 -0.10222754
-0.2774955 -0.032330662 -0.104459
-0.24769378 -0.03325513 -0.10442151
0.22680303 -0.038339481 -0.10725197
-0.23467989 -0.022362938 -0.10048312
0.24264975 -0.026205465 -0.10885829
0.23074126 -0.01664247 -0.1063088
-0.36333185 0.012386329 -0.10982922
-0.21721907 0.0141862 -0.10746735
-0.14447086 0.0115917 -0.10974889
-0.056175113 0.0141862 -0.10350724
-0.028216481 0.011591701 -0.10565009
-0.0003050426 0.0115917 -0.107631
0.00043147802 0.0115917 -0.10455471
0.058105018 0.0141862 -0.10119463
0.14428517 0.0115917 -0.10508128
0.20353225 0.0115917 -0.10194976
0.21648192 0.0141862 -0.10329924
0.27618134 0.0115917 -0.10036083
0.32221526 0.0115917 -0.10355937
0.3302528 0.0115917 -0.10452005
-0.40403551 0.025723461 -0.10270986
-0.3929396 0.026048511 -0.10693462
-0.35497415 0.021527899 -0.10763006
-0.26391262 0.021527899 -0.10886233
-0.18270999 0.0241223 -0.10986307
-0.13645115 0.021527899 -0.10664111
-0.062431503 0.0241223 -0.10822958
-0.046663508 0.021527899 -0.10010188
0.018378392 0.024122301 -0.1058228
0.14815949 0.0241223 -0.10938865
0.24082379 0.0241223 -0.10020977
-0.2366209 -0.017781038 -0.098210074
0.26310918 -0.0096049365 -0.097295292
-0.30934787 0.0141862 -0.093735263
-0.2576097 0.011591699 -0.093392201
-0.19952661 0.0141862 -0.094542198
-0.1848135 0.0115917 -0.09552487
-0.062901691 0.0141862 -0.093317717
-0.032531373 0.0115917 -0.090318181
0.010942563 0.0115917 -0.092059813
0.061938658 0.0115917 -0.091912851
0.16613126 0.0141862 -0.092260279
0.37695509 0.018812262 -0.095324092
-0.40459883 0.02265509 -0.096360624
-0.38744211 0.026633754 -0.093874052
-0.37764826 0.027537316 -0.092214853
-0.31312951 0.021527898 -0.093527675
-0.294312 0.024122301 -0.095299564
-0.15834433 0.024122298 -0.095991887
-0.11772235 0.0241223 -0.091634415
-0.079264238 0.0241223 -0.090486556
0.01144392 0.021527899 -0.09301044
0.30720574 0.024122301 -0.091808081
0.3731218 0.026635978 -0.094243109
0.39552909 0.021194097 -0.091250218
-0.25086123 -0.03213542 -0.085071683
-0.28144485 -0.024535203 -0.089628428
-0.24200696 -0.01164143 -0.087239936
-0.29849312 0.0141862 -0.08389131
-0.22249699 0.012888949 -0.084813669
-0.14219068 0.0115917 -0.086151645
-0.081492379 0.0141862 -0.089683786
-0.034594122 0.0141862 -0.084881105
-0.023733407 0.0115917 -0.081556395
-0.009257704 0.011591699 -0.087882772
0.0053877681 0.0115917 -0.08620102
0.085861742 0.0141862 -0.089499414
0.15461692 0.0115917 -0.082219541
0.21904688 0.0141862 -0.084265374
0.24537416 0.0141862 -0.08474426
0.27321985 0.0141862 -0.080600776
0.30706441 0.0141862 -0.080539085
-0.40936553 0.023932222 -0.080800317
-0.36563703 0.024165168 -0.083353616
-0.35453367 0.024122298 -0.080462627
-0.28094828 0.021527899 -0.089488715
-0.20915756 0.021527899 -0.083554283
-0.13290432 0.021527899 -0.08011505
-0.062216923 0.0241223 -0.089713499
-0.023111582 0.0241223 -0.080307394
0.058514759 0.021527899 -0.082325429
0.074352607 0.024122298 -0.088019945
0.11069942 0.021527899 -0.082767069
0.12757325 0.021527899 -0.08507739
0.20557795 0.024122298 -0.085491553
0.21677011 0.024122301 -0.080642939
0.23851147 0.0241223 -0.088559277
0.24873348 0.0241223 -0.081952587
0.31886828 0.024122298 -0.08540868
0.32652134 0.021527901 -0.087504156
0.41019779 0.025124855 -0.085469797
0.42001075 0.030348666 -0.082098797
0.43617326 0.037672129 -0.088979632
0.43515486 0.042098403 -0.081475034
-0.23620376 -0.042281915 -0.078654312
-0.24079399 -0.031496238 -0.078004003
-0.38834146 0.019893292 -0.074833885
-0.33187497 0.0141862 -0.071280144
-0.30674326 0.0115917 -0.074792251
-0.26548284 0.0141862 -0.075200602
-0.25832617 0.0141862 -0.075147875
-0.19343594 0.0141862 -0.075920485
-0.10465437 0.011591701 -0.07138665
-0.039000757 0.012888949 -0.075714283
-0.014907286 0.0115917 -0.078399867
0.1095448 0.011591701 -0.072593249
0.24431708 0.011591701 -0.072534919
0.28114101 0.0141862 -0.076597698
0.31525093 0.0115917 -0.078754053
-0.44075918 0.029833928 -0.070947379
-0.29833055 0.021527899 -0.070926175
-0.16349864 0.021527899 -0.071424261
-0.15636012 0.0228251 -0.07343024
-0.11123628 0.0241223 -0.079353184
-0.078970939 0.021527899 -0.073662728
-0.05171679 0.0241223 -0.070007592
-0.047534712 0.021527899 -0.076576367
0.026551567 0.0241223 -0.07928589
0.17802778 0.024122301 -0.076360598
0.27794114 0.021527899 -0.07213065
0.29605603 0.021527899 -0.07669349
0.30984196 0.0241223 -0.075705953
0.31569046 0.021527899 -0.079084866
0.3278684 0.021527899 -0.07007397
0.34816211 0.021527899 -0.079615228
0.36559528 0.023256846 -0.071526513
0.38709036 0.021528002 -0.072712474
0.39733654 0.024273327 -0.076584145
-0.45203522 0.037790809 -0.072173335
0.45080575 0.036005307 -0.077144057
-0.26184052 -0.026431546 -0.066069715
-0.37231952 0.013938619 -0.060833924
-0.358731 0.015534347 -0.069663376
-0.34811246 0.0141862 -0.061022349
-0.21181136 0.0115917 -0.06235943
-0.19676492 0.0115917 -0.06476552
-0.18452163 0.0115917 -0.068992011
-0.023144469 0.0115917 -0.062945753
0.013658822 0.0141862 -0.068938553
0.026100695 0.0141862 -0.06770014
0.070617102 0.011591699 -0.064677283
0.17721748 0.011591699 -0.061721332
0.19039097 0.0115917 -0.067676477
0.26476559 0.0141862 -0.061306827
0.34233159 0.0115917 -0.060843527
0.36808455 0.013840559 -0.065849483
-0.42350772 0.02278067 -0.062346868
-0.39849898 0.028543828 -0.068108678
-0.25593585 0.0241223 -0.065704003
-0.21960227 0.024122301 -0.061650433
-0.16881442 0.021527898 -0.062187105
-0.1557487 0.021527899 -0.063387558
-0.13861839 0.0241223 -0.06480398
-0.090390317 0.0241223 -0.066457495
-0.088358603 0.021527899 -0.064102583
-0.048276111 0.0241223 -0.061080627
-0.025951639 0.0241223 -0.064559899
-0.0039427429 0.021527899 -0.068158336
0.093440309 0.021527899 -0.069741249
0.10491697 0.021527899 -0.06828925
0.1361668 0.021527899 -0.066133745
0.14582881 0.0241223 -0.062651537
0.16797924 0.021527898 -0.064974502
0.18781491 0.021527899 -0.066371642
0.21650133 0.021527899 -0.063123457
0.22878405 0.021527899 -0.061728776
0.2372171 0.021527899 -0.060015008
0.42250705 0.028423019 -0.06217692
0.44656914 0.047751926 -0.066765636
-0.32392329 0.0141862 -0.051533632
-0.29017249 0.0141862 -0.058387805
-0.28383455 0.0115917 -0.050155722
-0.23743665 0.0115917 -0.051942274
-0.22441179 0.0141862 -0.050713498
-0.1874643 0.0141862 -0.05695691
-0.16639546 0.0141862 -0.053359717
-0.15303165 0.0141862 -0.052119911
-0.10154408 0.0141862 -0.058260445
-0.055975631 0.012888949 -0.055500481
-0.041827455 0.0141862 -0.053413365
0.028823167 0.0141862 -0.050148793
0.046337038 0.0115917 -0.059539277
0.05061014 0.0141862 -0.053338878
0.095881641 0.011591699 -0.057082899
0.1187437 0.011591701 -0.058425725
0.14069062 0.0141862 -0.052748635
0.16007347 0.0115917 -0.053533308
0.20502168 0.0115917 -0.056224294
0.2494929 0.011591701 -0.056110792
0.29237756 0.0115917 -0.057064179
0.33461088 0.0141862 -0.056314774
-0.43789458 0.025265273 -0.056885011
-0.39902046 0.028633913 -0.057689607
-0.3652814 0.025401015 -0.05320242
-0.35017779 0.0241223 -0.059555039
-0.33489224 0.0241223 -0.056162424
-0.12426233 0.024122298 -0.05279173
-0.05478999 0.024122298 -0.054386288
0.020115655 0.024122301 -0.050661094
0.032275483 0.0241223 -0.057589859
0.057488419 0.0241223 -0.054706708
0.096664071 0.0241223 -0.058974031
0.13319647 0.0241223 -0.05848112
0.26579589 0.0241223 -0.059034832
0.28632504 0.021527899 -0.052576311
0.32547772 0.0241223 -0.052813224
0.33468151 0.021527899 -0.058569167
0.35109499 0.024122301 -0.050173186
0.3635776 0.024017442 -0.052488666
0.3957862 0.021263199 -0.05547896
-0.40849194 0.030270111 -0.057075158
0.46131408 0.038821138 -0.057003245
-0.45239356 0.040448222 -0.057930633
0.46994784 0.044726852 -0.051599581
-0.25253409 -0.02394494 -0.040794317
-0.2825152 0.0141862 -0.040038854
-0.27546746 0.011591701 -0.04593968
-0.24414647 0.0115917 -0.04141064
-0.23106302 0.0141862 -0.04067811
-0.18948391 0.0141862 -0.049004283
-0.17292556 0.0115917 -0.048160166
-0.15525895 0.0141862 -0.047971398
-0.056803588 0.011591701 -0.04726766
0.024858495 0.0141862 -0.040939394
0.086274251 0.0141862 -0.049311019
0.19908388 0.0141862 -0.048804201
0.26885816 0.0141862 -0.04553812
0.27759823 0.0115917 -0.045546718
0.30327597 0.0141862 -0.047529332
-0.46027964 0.029132033 -0.047099542
-0.3973667 0.021487895 -0.04078659
-0.20865697 0.024122301 -0.043984406
-0.16571182 0.0241223 -0.040592887
-0.078314215 0.021527899 -0.048096456
-0.016816698 0.0241223 -0.045215499
-0.00043027103 0.0241223 -0.042036775
0.019260354 0.021527898 -0.042894736
0.026562482 0.021527899 -0.041255001
0.050840251 0.0241223 -0.0498912
0.19282606 0.021527899 -0.043885011
0.20898664 0.024122298 -0.046209812
0.23175167 0.021527899 -0.04198391
0.26525953 0.021527898 -0.042818837
0.28892073 0.0241223 -0.044945151
-0.44596177 0.036741864 -0.040623002
-0.40874282 0.032908157 -0.047199912
0.40384033 0.033707917 -0.040660702
-0.46829498 0.043195006 -0.049245317
-0.358731 0.015530828 -0.038766451
-0.33286986 0.0141862 -0.036218368
-0.23112425 0.0141862 -0.034727342
-0.13817775 0.0115917 -0.032329053
-0.083926305 0.012888949 -0.036442831
-0.030211307 0.0141862 -0.036607742
-0.017027549 0.011591701 -0.039172575
0.038364835 0.011591699 -0.033513475
0.11133138 0.011591701 -0.034497865
0.14382218 0.0115917 -0.030092089
0.17512131 0.012888949 -0.033137277
0.18604162 0.0115917 -0.033951234
0.21194117 0.0141862 -0.033964042
0.24202195 0.0141862 -0.032974821
0.27836651 0.0115917 -0.034683637
0.288288 0.0141862 -0.03026998
0.3582195 0.0141862 -0.039025892
0.36640999 0.015986612 -0.035638977
-0.41299134 0.024568327 -0.030391963
-0.40987155 0.020425275 -0.036652897
-0.38924488 0.026945181 -0.039847739
-0.36105055 0.024670163 -0.034465503
-0.34490383 0.0228251 -0.034863241
-0.33406299 0.0241223 -0.032658279
-0.28733745 0.021527899 -0.031542912
-0.20146373 0.021527899 -0.031977732
-0.18881974 0.021527899 -0.035862047
-0.16570026 0.0228251 -0.035938099
-0.15129864 0.0241223 -0.038309947
0.021973558 0.021527901 -0.038874373
0.03544461 0.021527899 -0.038526434
0.10671712 0.021527901 -0.031589553
0.12294316 0.024122298 -0.032588281
0.28108197 0.021527899 -0.036925804
0.29494923 0.021527898 -0.038912684
0.37236077 0.025221385 -0.035815127
-0.46017027 0.033784989 -0.039580502
-0.44440603 0.036473133 -0.037356213
0.43133828 0.033384301 -0.030409973
-0.26245272 -0.029301804 -0.024818007
0.25772548 -0.022460068 -0.02765299
0.22680372 0.0072715599 -0.023766384
0.23750159 0.0072715599 -0.029989608
0.26884118 0.0072715599 -0.024527781
-0.3807902 0.01540176 -0.023636034
-0.3584044 0.0141862 -0.02672828
-0.31893495 0.0115917 -0.021353777
-0.2170742 0.017744981 -0.025651161
-0.1907164 0.0115917 -0.02206908
-0.18810272 0.0115917 -0.025727792
-0.17902474 0.0141862 -0.021265781
-0.15626855 0.0115917 -0.02075527
-0.13737826 0.0141862 -0.020939678
-0.10182928 0.0115917 -0.026313532
-0.09798827 0.0141862 -0.026572622
0.046024844 0.0141862 -0.020139923
0.097086795 0.0141862 -0.020060249
0.18618399 0.0141862 -0.023215642
0.21340004 0.0115917 -0.022384491
0.26617295 0.0115917 -0.022926446
0.2993058 0.0141862 -0.023979988
0.37305123 0.01517125 -0.02861974
-0.4261817 0.023242131 -0.029241454
-0.38377792 0.02600087 -0.021186333
-0.3676433 0.025809018 -0.02701465
-0.32768807 0.021527899 -0.024461456
-0.28146887 0.022263203 -0.026289877
-0.19364665 0.021527899 -0.022242924
-0.1791929 0.024122298 -0.028625818
0.01777954 0.0241223 -0.023450693
0.037807524 0.0241223 -0.024937052
0.114048 0.0241223 -0.028944438
0.16093966 0.0241223 -0.026118761
0.17547821 0.021527899 -0.023066424
0.19141623 0.0241223 -0.02453433
0.3889066 0.029706785 -0.025339108
-0.42130053 0.03507727 -0.023522099
-0.39681467 0.030847885 -0.020373665
0.38692355 0.031770021 -0.023643933
0.39657921 0.031762466 -0.028720308
0.43716249 0.042636633 -0.022860825
0.46125856 0.041401595 -0.024181303
0.47703639 0.045629054 -0.021992194
0.47800028 0.05075448 -0.023638166
0.24721181 -0.035528995 -0.01635256
-0.27364033 0.0072715599 -0.017756337
-0.39013457 0.017016016 -0.015963394
-0.37571394 0.015822291 -0.017332386
-0.36214846 0.014776492 -0.015814032
-0.26444694 0.011591699 -0.016131531
-0.22119001 0.0141862 -0.016534492
-0.21841538 0.011591699 -0.017702339
-0.20168766 0.0141862 -0.015935993
-0.18057153 0.0115917 -0.015421731
-0.10619162 0.0115917 -0.015891641
-0.094900012 0.0141862 -0.011373291
-0.021596732 0.0115917 -0.018970512
0.089312084 0.0115917 -0.017871307
0.10739166 0.0115917 -0.018471444
0.13092574 0.0115917 -0.01180249
0.1722796 0.01288895 -0.015330295
0.20734251 0.011591699 -0.016346764
0.22607821 0.0115917 -0.018926391
0.2314211 0.0115917 -0.016256066
0.25053793 0.0115917 -0.013953133
0.26648158 0.0115917 -0.010141098
0.2759636 0.011591699 -0.015316587
0.30936271 0.0115917 -0.015406788
0.32668841 0.0115917 -0.014747344
0.36299103 0.012475863 -0.017687194
-0.35800961 0.021550452 -0.017581629
-0.32998019 0.0241223 -0.018577155
-0.15006873 0.0241223 -0.015784925
-0.089372754 0.024122298 -0.01610936
-0.015618946 0.0241223 -0.011834795
0.057867654 0.024122301 -0.019752834
0.070158578 0.0241223 -0.017890006
0.098475568 0.021527901 -0.013689519
0.12617129 0.021527901 -0.013955304
0.13822949 0.021527899 -0.017320085
0.1835103 0.024122301 -0.012232393
0.21620512 0.021527899 -0.012345699
0.2655524 0.0228251 -0.013897453
0.29251298 0.021527898 -0.012448296
0.35239172 0.021527899 -0.012123186
0.36367488 0.025396563 -0.019632325
-0.46417761 0.039888721 -0.016906057
-0.4466427 0.036859691 -0.016526958
0.38355047 0.030866209 -0.017947294
0.44552815 0.037186693 -0.01913199
-0.46646979 0.042879187 -0.010525269
-0.24199972 -0.035356186 -0.0011461857
-0.23161808 -0.031243365 -0.0010399584
-0.25525352 -0.022852995 -0.0054254299
0.2640464 -0.026495868 -0.0070515829
-0.22749388 -0.012600701 -0.0063124858
-0.27988392 0.0066472515 -0.0093992976
-0.4012751 0.018940385 -0.0003368482
-0.36606297 0.015452646 -0.0074168816
-0.31594577 0.0115917 -0.0064379424
-0.29123566 0.0141862 -0.00093585439
-0.24394909 0.0115917 -0.0033614198
-0.22702534 0.0115917 -0.0046259579
-0.21976057 0.0115917 -0.0065449895
-0.11392069 0.0141862 -0.0026502311
-0.05178953 0.0141862 -0.0028830497
-0.0060877502 0.012888949 -0.0054193819
0.055127896 0.012888949 -0.0073987111
0.074054167 0.0115917 -0.0011498677
0.22072402 0.0115917 -0.0014592155
0.28133956 0.0115917 -0.0013373466
0.33002925 0.0141862 -0.0015428737
0.36553335 0.014454324 -0.0064845579
-0.31803429 0.0241223 -0.0015631542
-0.25648415 0.0241223 -0.0022414895
-0.24130242 0.0241223 -0.0062855924
-0.13861482 0.0241223 -0.0047519738
-0.12313859 0.021527899 -0.0014574248
-0.11849031 0.024122298 -0.0002693804
-0.086957991 0.021527899 -0.0026260233
-0.011832701 0.0241223 -0.0078802137
0.10273866 0.0241223 -0.0085436944
0.3099243 0.021527899 -0.0065801144
0.3399497 0.021527899 -0.0096025504
0.34701037 0.024122301 -0.0032531396
0.36631206 0.026171461 -0.00021659955
-0.46260393 0.039616838 -0.0093269255
-0.44441116 0.039069511 -0.0048730969
0.39355984 0.03354815 -0.0084209619
0.41202018 0.038494244 -0.0092707351
-0.47193775 0.041229032 -0.0033713107
0.42779791 0.040127523 -0.0060298815
0.24783882 -0.032583296 0.006496564
0.23596393 -0.012600701 0.0051150434
0.26771083 -0.014941095 0.0041813804
-0.28402358 0.0115917 0.0081521263
-0.27784801 0.0141862 0.0079808198
-0.2695024 0.0141862 0.0098344963
-0.23825155 0.0115917 0.0087936651
-0.22985166 0.0115917 0.0077184029
-0.19636072 0.0141862 0.009275469
-0.14556935 0.0141862 0.00084710307
-0.099310756 0.0141862 0.009711463
-0.066877663 0.0115917 0.0045002578
-0.04750973 0.0115917 0.0032004053
-0.015562753 0.0141862 0.0059701619
0.041921236 0.0141862 0.0026229126
0.15562883 0.012888949 0.0069008903
0.17082261 0.0115917 0.0067185126
0.26216477 0.0115917 0.0048477175
0.28078175 0.0115917 0.0083073331
0.29394239 0.0115917 0.006188496
0.34219748 0.0115917 0.0074103381
0.35303214 0.0141862 0.0086456891
-0.41773456 0.025261151 0.006803073
-0.35445952 0.022133544 0.0028463192
-0.33101237 0.021527899 0.0019397251
-0.32066959 0.021527899 0.0087908376
-0.29508454 0.0241223 0.00023255125
-0.27516916 0.021527898 0.0044958275
-0.17076525 0.0241223 0.0093425289
-0.14734447 0.0241223 0.0087244017
-0.11365986 0.024122301 0.0047567142
-0.10044362 0.0241223 0.0053137606
-0.088896208 0.0241223 0.0026667137
-0.054710679 0.021527899 0.00059584063
-0.039215066 0.0241223 0.0037573748
-0.010053787 0.021527899 0.0099536125
0.015579023 0.021527899 0.004964157
0.056150101 0.021527899 0.0060083182
0.14227486 0.024122298 0.002959318
0.16538674 0.021527899 0.0091537545
0.18864042 0.024122298 0.0019473881
0.21642755 0.021527899 0.0053124479
0.23346758 0.0241223 0.0068703834
0.30857664 0.0241223 0.0037369188
0.41199034 0.02560498 0.00083703548
0.39025342 0.032662228 0.0054500215
-0.47428569 0.044229567 0.0057107182
0.24919201 -0.03530205 0.014657322
0.25139099 -0.039095245 0.0134291
-0.26546103 -0.0042370567 0.013897927
-0.25927299 -0.003775062 0.014768459
0.26188484 0.004457809 0.016098389
0.29093429 0.0072715599 0.011068145
-0.35934603 0.011697926 0.01002593
-0.33855438 0.0141862 0.010424804
-0.27123973 0.0141862 0.010127319
-0.23640889 0.0141862 0.017685069
-0.22264874 0.012888949 0.011656439
-0.21500039 0.0115917 0.01559251
-0.19151616 0.011591701 0.013871507
-0.13660404 0.0115917 0.019399064
-0.12452727 0.0115917 0.015872013
-0.11043799 0.0115917 0.011277255
-0.050912246 0.0115917 0.013882811
0.027365986 0.0141862 0.012023062
0.12138625 0.011591701 0.015895501
0.21905541 0.0141862 0.015804507
0.22018252 0.0141862 0.017402658
0.2844609 0.011591699 0.010675118
0.31512716 0.0141862 0.015278976
0.34374106 0.0141862 0.012216514
0.38258123 0.01772503 0.011123169
-0.42936128 0.023791453 0.016870407
-0.36352935 0.025098365 0.017480109
-0.34391925 0.0241223 0.014736829
-0.2313453 0.0241223 0.012090076
-0.16633706 0.021527901 0.01430775
-0.15053447 0.021527899 0.014392178
-0.092147924 0.0228251 0.011929184
-0.084411785 0.021527899 0.01552723
0.0020987391 0.021527901 0.018621083
0.023249442 0.021527899 0.015431238
0.11691923 0.021527899 0.019088114
0.14314018 0.0241223 0.015996141
0.18158048 0.0241223 0.010312995
0.20670626 0.021527898 0.019560285
0.2293414 0.024122298 0.016822966
0.31909925 0.021527899 0.012767969
0.36395711 0.022941228 0.016284641
-0.44955122 0.039956808 0.019199427
-0.43646801 0.037697475 0.012344492
-0.4160254 0.034166221 0.015936401
-0.39889225 0.031206712 0.012071632
0.38905805 0.032341938 0.012443088
0.4043811 0.033852927 0.010180352
0.45607525 0.037417885 0.019682229
0.47381824 0.052458372 0.014571001
-0.27376553 0.0072715599 0.023820229
-0.20963193 0.0072715599 0.026210185
-0.40442264 0.01948382 0.022196582
-0.39375114 0.017640676 0.027574625
-0.33825099 0.0141862 0.022133805
-0.27642304 0.0115917 0.027056478
-0.23265386 0.0115917 0.023219695
-0.22122611 0.0141862 0.028483002
-0.14713734 0.0115917 0.020924432
-0.090572298 0.0115917 0.025433265
-0.0041749552 0.0115917 0.020338871
0.013690758 0.012888949 0.025262581
0.024034701 0.0141862 0.024310168
0.1472864 0.0115917 0.028960481
0.15612714 0.0115917 0.020947477
0.18510868 0.0141862 0.022191716
0.2098389 0.0115917 0.029151442
0.23007795 0.0141862 0.024735402
0.25754908 0.0141862 0.026819605
0.26307464 0.0141862 0.022649175
0.36589414 0.015848391 0.024329821
-0.42245728 0.022598939 0.025786811
-0.38240626 0.028359236 0.027099807
-0.37536955 0.024548676 0.024979705
-0.33666345 0.0241223 0.024995647
-0.29488203 0.024122301 0.02839734
-0.25856328 0.021527899 0.025057273
-0.2053211 0.0241223 0.025707901
-0.18301195 0.0241223 0.025742047
-0.097176775 0.021527899 0.028679885
-0.084746271 0.021527899 0.023512946
-0.059943773 0.021527899 0.024910385
-0.023266882 0.0241223 0.027740065
0.024104699 0.021527899 0.020560207
0.16255483 0.021527899 0.021352421
0.1730243 0.0241223 0.026035542
0.22025554 0.020178266 0.02169824
0.2336624 0.024122301 0.020496894
0.31288958 0.0241223 0.026897386
0.3854869 0.021098137 0.02307586
0.39206305 0.020265667 0.020514466
0.41101286 0.02793809 0.020127159
-0.45346487 0.038038131 0.020448325
0.41996163 0.038027778 0.021641321
0.45635274 0.047778603 0.020279925
-0.39414033 0.017707787 0.036679771
-0.30898458 0.0141862 0.034736976
-0.22809067 0.0141862 0.037333671
-0.16536728 0.011591699 0.03272365
-0.13784674 0.0115917 0.0347258
-0.058134474 0.0115917 0.034992285
0.0387289 0.011591701 0.035975542
0.084978677 0.0115917 0.030509563
0.10534292 0.0141862 0.034150515
0.16329169 0.0141862 0.036082953
0.33748272 0.0141862 0.031530611
-0.43467176 0.02845856 0.038385045
-0.358731 0.020121217 0.039666962
-0.34773988 0.021527899 0.034573436
-0.33890313 0.021527899 0.032849487
-0.30790532 0.0241223 0.035607457
-0.29749084 0.021527898 0.038162299
-0.25938326 0.021527844 0.037875608
-0.24202278 0.021527899 0.031534497
-0.23001193 0.021527899 0.032746922
-0.18880121 0.0241223 0.037394453
-0.140268 0.021527898 0.033920113
-0.11503204 0.021527899 0.030398689
-0.098593608 0.021527899 0.035725415
-0.054306194 0.021527899 0.03825134
-0.030712411 0.021527899 0.037231468
0.031158611 0.021527899 0.03975758
0.11546249 0.0232575 0.035445061
0.20316769 0.0241223 0.036341839
0.23093078 0.021527899 0.031763483
0.32656214 0.021527899 0.038110379
0.34508806 0.021527899 0.03109413
0.41239619 0.025713906 0.03564867
-0.42224568 0.033943158 0.032016285
-0.40443027 0.032163344 0.032106314
0.38518301 0.031303659 0.036531795
0.46178883 0.038948722 0.030449422
0.45025721 0.048739795 0.039580051
0.46047452 0.041191243 0.032674421
0.47409248 0.050889838 0.034459967
0.2557798 -0.025864778 0.04821004
-0.36034492 0.014464972 0.044388659
-0.33331165 0.0141862 0.043601591
-0.32296994 0.0141862 0.049215171
-0.31190997 0.0115917 0.043683611
-0.27130684 0.0141862 0.041176435
-0.094621226 0.011591701 0.043781906
-0.088563673 0.0141862 0.041145682
-0.072636351 0.0141862 0.042784356
-0.062765419 0.011591701 0.040196214
-0.016371697 0.011591701 0.044326931
0.065848015 0.0141862 0.042338088
0.078566082 0.0115917 0.041782405
0.17596032 0.0115917 0.040116116
0.20453843 0.0141862 0.044837777
0.22172303 0.0115917 0.044399861
0.23026815 0.0141862 0.040528391
0.26236829 0.012888949 0.04535196
0.27602506 0.0141862 0.04327067
0.35751337 0.0141862 0.040078394
-0.40429839 0.029545415 0.043241248
-0.29221106 0.021527899 0.040693611
-0.21202108 0.0241223 0.04758691
-0.19337916 0.021527696 0.049282596
-0.16095203 0.021527899 0.047139779
-0.11314251 0.0241223 0.045847282
-0.03274186 0.024122301 0.048928849
0.18113646 0.0241223 0.040089034
0.23228008 0.021527899 0.0417815
0.26912421 0.021527899 0.043912426
0.28685361 0.021527899 0.047393352
0.29572505 0.021527899 0.048156079
0.30293211 0.021527899 0.044022072
0.32781938 0.0241223 0.043583509
0.3820805 0.027877821 0.048736103
0.40007973 0.02241369 0.045288034
-0.45319971 0.032135524 0.048934851
-0.41869915 0.033330567 0.045564022
0.43928656 0.035513848 0.041753903
-0.46525571 0.040075 0.047985986
-0.45123428 0.040247537 0.047257155
-0.24245007 -0.037435692 0.053770695
-0.36445421 0.012580175 0.051495112
-0.35568976 0.014286554 0.055400793
-0.34570259 0.0141862 0.052107368
-0.32078063 0.0115917 0.050998155
-0.28035194 0.011591699 0.053369943
-0.11434762 0.012888949 0.050821349
-0.081611603 0.0115917 0.055208221
-0.060782447 0.0115917 0.053787086
0.045237347 0.012888949 0.051434837
0.13441442 0.0115917 0.058753792
0.17352301 0.0141862 0.056746513
0.21553451 0.0115917 0.056700755
0.22733885 0.0141862 0.058080919
0.27459127 0.014186201 0.058431398
0.31841612 0.0115917 0.054585282
0.33446288 0.014186199 0.056157731
0.36416557 0.012790558 0.055086419
-0.337565 0.021527899 0.059231676
-0.3126615 0.0228251 0.057457648
-0.30243498 0.022825096 0.058000013
-0.2874836 0.021527858 0.058338173
-0.25078189 0.021527791 0.057555217
-0.22291048 0.021527749 0.051025085
-0.1803391 0.024122298 0.055291783
-0.16413622 0.024122298 0.055423055
-0.12370964 0.021527899 0.055714406
-0.061874256 0.024122301 0.056608323
-0.034116492 0.021527899 0.050127577
0.021207049 0.021527899 0.058694411
0.063694634 0.021527899 0.054880008
0.071690723 0.0241223 0.052805822
0.090895779 0.0241223 0.050081443
0.16396755 0.0241223 0.052116349
0.19707644 0.0241223 0.05740777
0.22851479 0.0241223 0.055291787
0.23475066 0.024122301 0.051616475
0.24198732 0.024122301 0.057230078
0.26611078 0.0241223 0.053220861
0.28142333 0.0241223 0.057986062
0.32544422 0.021527899 0.058027074
0.37984818 0.027279655 0.05165901
-0.46703652 0.032606069 0.05334191
-0.44538751 0.037940383 0.057089299
-0.42867041 0.036350235 0.050096385
0.44349679 0.03404728 0.055337574
0.27058753 -0.034226865 0.067842908
-0.29910389 0.0141862 0.06286189
-0.28231186 0.0141862 0.060904216
-0.20944959 0.0141862 0.063735984
-0.11373646 0.0141862 0.064674288
-0.053896815 0.0115917 0.066158481
-0.01453332 0.0141862 0.061319828
-0.0097951889 0.0141862 0.064338781
0.076460689 0.011591701 0.067757338
0.15987384 0.0115917 0.066929579
0.16643244 0.01288895 0.062367555
0.28492284 0.0141862 0.062273204
0.31888071 0.0141862 0.068586498
0.33463967 0.0141862 0.069038272
0.37700555 0.016231064 0.061617456
-0.32302299 0.021527899 0.068621516
-0.31039989 0.024122301 0.064020246
-0.20694837 0.024122301 0.060076557
-0.19886254 0.021527678 0.066157192
-0.14225352 0.0241223 0.069047213
-0.13487014 0.021527551 0.067685612
-0.066507101 0.021527421 0.068567052
0.013777733 0.021527899 0.060815498
0.047687411 0.021527899 0.063541308
0.13325617 0.0241223 0.067722529
0.39799473 0.02444974 0.066537388
-0.43589818 0.03759902 0.06975174
-0.41161776 0.033405036 0.06110172
0.38934222 0.03241808 0.060089491
0.4433583 0.034010079 0.066136576
0.45600677 0.050280731 0.061759342
0.25219738 -0.050183997 0.077936299
0.26801056 -0.047250316 0.077936299
0.27797776 -0.030461041 0.077936299
-0.29535776 0.0141862 0.075418212
-0.25685337 0.0115917 0.074197493
-0.19669369 0.011591699 0.078380331
-0.18485612 0.011591699 0.0711485
-0.14294128 0.0115917 0.075110808
-0.13309827 0.0141862 0.074947111
-0.10321921 0.0141862 0.076878473
-0.039122477 0.0141862 0.074242085
-0.011261903 0.0115917 0.074939236
0.11661097 0.0115917 0.079604387
0.18120708 0.0141862 0.079246528
0.33633393 0.0141862 0.079333797
-0.29170138 0.021527845 0.070349172
-0.23457338 0.0241223 0.076941669
-0.13575888 0.0241223 0.075589217
-0.044254273 0.021527357 0.079445586
0.054618195 0.0241223 0.07840912
0.06012845 0.021527899 0.070672825
0.072587155 0.024122298 0.071065009
0.11541964 0.021527899 0.077263549
0.15370177 0.021527899 0.076704159
0.18322423 0.021527899 0.07976909
0.22098346 0.024122298 0.071399756
0.25312659 0.021527901 0.076816037
0.28187424 0.0228251 0.073703103
0.32666045 0.024122298 0.075849839
-0.39339781 0.030257799 0.078416042
0.39323884 0.033462107 0.074489363
0.43290964 0.033805396 0.079840004
0.27786615 -0.051358096 0.087183192
-0.26425093 -0.036766365 0.088715486
-0.25526917 -0.030488562 0.08405038
-0.39443108 0.017758097 0.080932759
-0.28178233 0.0141862 0.081848711
-0.26175335 0.0141862 0.083820313
-0.22857124 0.0141862 0.080213919
-0.18068312 0.011591699 0.087836064
-0.076789588 0.0141862 0.080726624
-0.04003194 0.0141862 0.087862328
-0.039582223 0.0115917 0.084671006
0.020963132 0.0115917 0.081794716
0.07300368 0.0115917 0.083884433
0.15199511 0.0141862 0.083924018
0.19183132 0.0115917 0.084418841
0.23230377 0.012888949 0.082539231
0.34821129 0.0141862 0.080683224
-0.40681258 0.029979683 0.082044378
-0.39957502 0.021241155 0.0856269
-0.38894245 0.029488243 0.081760831
-0.28264156 0.0241223 0.089715861
-0.20854777 0.0241223 0.083756045
-0.16719776 0.0241223 0.086857259
0.0043218434 0.0241223 0.08929421
0.11013515 0.021527901 0.081127785
0.13765234 0.0241223 0.087634757
0.16444127 0.0241223 0.083643533
0.1827213 0.024122301 0.081650205
0.19763967 0.021527898 0.082792819
0.21192409 0.024122301 0.080440208
0.30226174 0.021527899 0.085814066
0.38343784 0.020549178 0.086645663
0.4099496 0.027653176 0.08930178
0.2725035 -0.032315593 0.099633299
-0.24922428 -0.02353429 0.097206011
-0.36529905 0.015320693 0.091393143
-0.358731 0.019294526 0.094976291
-0.32407522 0.012888949 0.097227737
-0.27450627 0.0141862 0.097136497
-0.225411 0.0115917 0.096643746
-0.21750955 0.011591701 0.096587047
-0.18770304 0.0115917 0.098559558
-0.15541059 0.0141862 0.09326072
-0.1210873 0.0141862 0.09307263
-0.054952979 0.0141862 0.092601277
0.13375254 0.011591699 0.09727186
0.14716014 0.011591699 0.091374956
0.23794386 0.0141862 0.095173277
0.24909802 0.0141862 0.092427589
0.28529829 0.0115917 0.092298284
0.29125938 0.0115917 0.094683044
0.32085937 0.0115917 0.09240631
0.38335025 0.017931104 0.098735444
-0.39474332 0.02789491 0.096365444
-0.31261027 0.0241223 0.096615128
-0.24014166 0.0215277 0.096403256
-0.22985443 0.024122301 0.091754869
-0.17058066 0.0241223 0.092472099
-0.10492231 0.024122298 0.096881449
-0.070859589 0.0241223 0.09072917
0.0047895014 0.0241223 0.091329142
0.031288959 0.024122298 0.093532264
0.11262507 0.024122298 0.094330959
0.1338343 0.021527898 0.091324233
0.15978236 0.0241223 0.095728986
0.34856108 0.021527899 0.091075033
0.37538859 0.028679144 0.093038321
0.38637996 0.025183707 0.093209021
-0.40959072 0.030459581 0.091518067
-0.25705916 -0.052752558 0.10496134
0.24595341 -0.048614044 0.10194062
0.26820323 -0.030755294 0.10533842
-0.24814466 -0.021894323 0.10765903
0.28306887 -0.021468449 0.10439199
-0.38211218 0.018225059 0.10774496
-0.37140155 0.018936107 0.10952592
-0.26988742 0.0141862 0.10503758
-0.18823469 0.0141862 0.10337078
-0.16852121 0.0115917 0.10981292
-0.15635404 0.012888949 0.10480018
-0.14922214 0.011591699 0.10053205
-0.12960893 0.0141862 0.10361193
-0.068629935 0.014186201 0.10983986
0.026138619 0.0141862 0.10776545
0.030781493 0.011591701 0.10562944
0.098457873 0.0115917 0.10634118
0.17234178 0.0141862 0.10206681
0.19722672 0.0115917 0.10285136
-0.37679991 0.027390771 0.1081633
-0.32925358 0.0241223 0.10682201
-0.31251436 0.021527827 0.10465872
-0.25040868 0.0215277 0.10744521
-0.19902852 0.021527605 0.10611894
-0.14254659 0.02152751 0.10016026
-0.051745735 0.021527331 0.10326755
0.022319019 0.021527193 0.10293146
0.12396352 0.021526987 0.1089718
0.13247146 0.024122298 0.1010724
0.19602861 0.0228251 0.10230788
0.21946481 0.024122298 0.10206053
0.31202954 0.0241223 0.10869492
0.34178084 0.021527899 0.10054245
0.37401265 0.020917902 0.10859163
-0.39794502 0.031043241 0.10242169
0.39911938 0.033114459 0.10390677
-0.24574867 -0.024143387 0.11611107
-0.26606765 -0.019553404 0.11251472
-0.12433891 0.017001569 0.11067435
-0.0060623735 0.017435838 0.11064621
0.0048206672 0.015393211 0.1106651
0.078685053 0.014166392 0.11068641
0.14414181 0.013009489 0.11070646
0.18107376 0.01773541 0.1106242
0.19763584 0.014186201 0.11059538
0.24543513 0.014347697 0.11072816
0.25340384 0.017836692 0.11066432
0.28104132 0.015170582 0.11066888
0.32272807 0.018579859 0.11064785
0.33351713 0.015180653 0.11066867
-0.053690847 0.02024979 0.1106572
-0.035240456 0.020288736 0.11065281
0.017031498 0.020293416 0.11064036
0.11134191 0.024122301 0.11045979
0.18172441 0.021235598 0.1105994
0.35711002 0.0241223 0.11042555
