# .PCD v0.7 - Point Cloud Data file format
VERSION 0.7
FIELDS x y z
SIZE 4 4 4
TYPE F F F
COUNT 1 1 1
WIDTH 896
HEIGHT 1
VIEWPOINT 0 0 0 1 0 0 0
POINTS 896
DATA ascii
0.30449781 -0.047035791 -0.1001
0.31290323 -0.049928512 -0.1001
0.32755965 -0.042107239 -0.1001
0.30613634 -0.023071218 -0.1001
0.34355512 -0.026043395 -0.1001
-0.28737795 0.02722129 -0.1001
-0.27910823 0.029779376 -0.1001
-0.22913279 0.02665828 -0.1001
-0.17383561 0.026788134 -0.1001
-0.15839046 0.02660946 -0.1001
-0.066702873 0.029957965 -0.10010001
0.18210061 0.027874807 -0.1001
0.19630748 0.026577875 -0.10010001
-0.37636188 0.039750315 -0.1001
-0.34121189 0.032803334 -0.10010001
-0.29830638 0.033754691 -0.10010001
-0.2036612 0.033059098 -0.1001
-0.16796812 0.032211371 -0.10010001
-0.1509842 0.033344723 -0.10010001
-0.13079453 0.035896391 -0.1001
-0.064514056 0.036114253 -0.1001
-0.059800923 0.039460286 -0.10010001
-0.039166108 0.037661619 -0.1001
0.017710343 0.035193693 -0.1001
0.030155808 0.034120947 -0.1001
0.080129087 0.038086336 -0.1001
0.19739117 0.030160312 -0.1001
0.22480792 0.039216019 -0.10010001
0.26622131 0.030569162 -0.1001
0.29127234 0.033539254 -0.1001
0.33406442 0.032750096 -0.1001
-0.38307101 0.043925464 -0.1001
-0.33442682 0.047751144 -0.1001
-0.28056684 0.044161871 -0.1001
-0.15645999 0.046562776 -0.1001
0.1495156 0.04784419 -0.1001
0.22523516 0.046467956 -0.1001
0.23753244 0.047673777 -0.1001
0.2474335 0.042280342 -0.10010001
-0.38153726 0.050911713 -0.1001
0.32357341 -0.062075879 -0.094992094
-0.30875796 -0.055104874 -0.09957882
-0.32521042 -0.031754296 -0.093877897
-0.30052656 -0.031516913 -0.09998481
0.31326324 -0.038389184 -0.097347975
-0.33197093 -0.02337235 -0.099606961
0.33280647 -0.025389796 -0.097227946
0.35204369 -0.029689983 -0.098425031
-0.30288148 -0.016108464 -0.09998481
-0.29216674 -0.012990472 -0.093520574
0.29407775 -0.018479111 -0.099465214
0.32879177 -0.019776773 -0.092520475
-0.30572188 -0.0042237453 -0.09932109
0.32811984 -0.0013198029 -0.099695899
0.34543717 -0.0046152659 -0.090886563
-0.31871161 0.0043481211 -0.092664719
-0.36060834 0.029817218 -0.094683506
-0.27196038 0.026517801 -0.099582218
-0.21773736 0.026517799 -0.092941448
-0.17072676 0.026517801 -0.093010031
-0.091497995 0.026517797 -0.096223682
-0.056322038 0.026517799 -0.093557179
0.013925672 0.026517799 -0.096373573
0.18666399 0.026517799 -0.094794966
0.31443918 0.026517799 -0.093923867
0.37158012 0.031422827 -0.090249598
-0.41816598 0.047744539 -0.098331034
-0.23201516 0.04809 -0.091157019
-0.15397649 0.04809 -0.090993807
-0.12940595 0.04809 -0.098342896
-0.074474461 0.04809 -0.090861946
0.011041299 0.04809 -0.09298265
0.023638934 0.04809 -0.098512121
0.08380691 0.04809 -0.09657827
0.13646427 0.04809 -0.092768028
0.16336681 0.048090003 -0.092507623
0.19751778 0.04809 -0.094744727
0.24022701 0.04809 -0.095305614
0.27527371 0.04809 -0.095657349
0.30403703 0.04809 -0.095520824
0.34278643 0.048546731 -0.092803329
-0.39661068 0.05375015 -0.09924572
0.41553766 0.054272965 -0.098495826
0.42897865 0.050612766 -0.094418466
0.33240083 -0.06224104 -0.089556366
0.34377262 -0.055934761 -0.089128196
-0.35361448 -0.043750435 -0.085453004
-0.32677019 -0.040158935 -0.08665365
-0.29186517 -0.049515948 -0.083073802
-0.28849843 -0.042426191 -0.085560776
0.32499385 -0.040894859 -0.08693736
-0.31402737 -0.038975663 -0.083995767
-0.30989116 -0.033357885 -0.081625909
0.32334569 -0.034408681 -0.08459191
0.32414448 -0.026841352 -0.081537649
-0.35235298 0.028609132 -0.086455747
-0.28258187 0.026517799 -0.089500867
-0.25900424 0.026517799 -0.088399887
-0.21018296 0.026517799 -0.080017895
-0.19872683 0.026517799 -0.086424507
-0.17817861 0.026517801 -0.088272065
-0.14467615 0.026517799 -0.087448388
0.025194272 0.026517797 -0.083067983
0.11317961 0.026517799 -0.087323502
0.17738989 0.026517797 -0.082191236
0.30645803 0.026517799 -0.08377181
0.3247681 0.026517801 -0.080239393
0.34711286 0.027842302 -0.085155554
-0.41885471 0.03834084 -0.081405833
-0.38656786 0.033616126 -0.083205223
-0.37952161 0.03258498 -0.081461549
0.36504263 0.030466132 -0.089709729
0.37898403 0.032506309 -0.084982961
0.40303621 0.03602609 -0.082811706
0.42799741 0.039678924 -0.088701725
-0.33291259 0.048090003 -0.082865946
-0.26535574 0.04809 -0.088254221
-0.20934281 0.048090003 -0.088908777
-0.17708866 0.04809 -0.080389574
-0.12982854 0.04809 -0.083924621
-0.064412862 0.04809 -0.08808656
-0.038781762 0.04809 -0.086102791
-0.018621173 0.04809 -0.085913315
0.044073615 0.048089996 -0.087332644
0.075288311 0.048090003 -0.087532297
0.10251021 0.04809 -0.083325624
0.1212424 0.04809 -0.08521536
0.14606595 0.04809 -0.085167378
0.22929007 0.04809 -0.086154491
0.26848033 0.04809 -0.083427608
0.33597106 0.04809 -0.082062572
0.43411672 0.040574558 -0.080361813
-0.36183524 0.050388258 -0.08467111
0.43473911 0.058811571 -0.087098055
-0.32821777 -0.064560935 -0.079531193
0.34227809 -0.058398206 -0.076395109
-0.35623258 -0.034368545 -0.070105687
-0.3168259 -0.032462142 -0.074408412
0.3267194 -0.030341746 -0.078072585
0.35573408 -0.039919063 -0.079593763
-0.35691237 -0.024692528 -0.077320255
-0.32347864 -0.022666328 -0.074224107
-0.31590849 -0.028387606 -0.075877219
-0.2859537 -0.02460701 -0.073192686
0.32776421 -0.026597494 -0.076456733
-0.31847382 -0.017468594 -0.071609311
-0.28892589 -0.014199872 -0.0738291
-0.34475684 -0.0021439232 -0.075915903
-0.30779257 0.0038892969 -0.076516427
-0.33739242 0.026517797 -0.071945019
-0.27576727 0.026517799 -0.073485643
-0.25814727 0.026517799 -0.078457884
-0.23847468 0.026517801 -0.077336252
-0.086678356 0.026517801 -0.075888596
-0.051593401 0.026517799 -0.070421524
-0.032916151 0.026517799 -0.076167688
-0.0113241 0.026517799 -0.07693132
-0.0044008642 0.026517797 -0.077591687
0.048621006 0.026517799 -0.071974203
0.060129941 0.026517801 -0.071912594
0.14198349 0.026517799 -0.07900922
0.19563787 0.026517799 -0.078363918
0.24728209 0.026517799 -0.074061677
0.25207371 0.026517799 -0.076564744
0.28165954 0.026517799 -0.079054676
-0.36465552 0.030409485 -0.071545824
-0.30299038 0.04809 -0.073353715
-0.2758157 0.04809 -0.076438487
-0.26231676 0.04809 -0.079908028
-0.24635546 0.04809 -0.070145823
-0.21357845 0.04809 -0.076975241
-0.045718968 0.04809 -0.072367676
0.0084745809 0.04809 -0.0776527
0.016242199 0.04809 -0.074495941
0.059132092 0.04809 -0.071797401
0.061019372 0.048089996 -0.075274289
0.20936809 0.04809 -0.071888715
0.21376924 0.04809 -0.070693724
0.25050941 0.04809 -0.074591063
0.26367736 0.048090003 -0.079166383
-0.42802572 0.057829522 -0.077888966
-0.38858128 0.052973911 -0.072065718
-0.37629193 0.051785849 -0.072808154
0.41616145 0.056093119 -0.070284858
0.44933107 0.06007123 -0.079230785
0.45162824 0.061283294 -0.071439058
0.34597594 -0.052466311 -0.063386835
-0.32732823 -0.034466825 -0.06973733
0.31762588 -0.035920341 -0.06988699
0.32371801 -0.036458775 -0.06011425
0.33096942 -0.036627688 -0.062917247
-0.33332381 -0.027695935 -0.068091929
-0.32677394 -0.029112671 -0.065414697
-0.31643227 -0.027751556 -0.067652181
0.33269787 -0.025127597 -0.065264866
-0.35334486 -0.01557947 -0.06739673
-0.30081686 -0.0022514071 -0.06424953
-0.29592741 -0.0071552838 -0.063184656
-0.30191535 0.026517799 -0.06654337
-0.26720744 0.026517799 -0.069604069
-0.22675265 0.026517799 -0.066357866
-0.17535433 0.026517799 -0.062017836
-0.097184487 0.026517797 -0.069794163
-0.065407515 0.026517801 -0.063080996
-0.050363921 0.026517797 -0.061516225
0.017300367 0.026517797 -0.067638412
0.037462443 0.026517799 -0.061374519
0.14277333 0.026517801 -0.06320481
0.17423753 0.026517797 -0.067964688
0.19904555 0.026517799 -0.062630922
0.21449532 0.026517799 -0.067564048
0.25260767 0.026517799 -0.060523063
0.30813783 0.026517799 -0.066492058
-0.40726686 0.036645204 -0.065424167
-0.39637065 0.035050657 -0.064836718
-0.38638669 0.033589613 -0.062762991
0.36346781 0.030235678 -0.063424006
0.40756917 0.036689453 -0.063310608
0.42247912 0.038871214 -0.063315868
-0.45558149 0.043715868 -0.064200841
-0.32484001 0.04809 -0.062929526
-0.28826565 0.04809 -0.062162802
-0.27087575 0.04809 -0.064605892
-0.25417337 0.04809 -0.069983594
-0.16208261 0.048089996 -0.066695623
-0.15889257 0.048090003 -0.069122441
-0.1033273 0.048089996 -0.067237139
-0.088548549 0.04809 -0.061932825
-0.034701288 0.048089996 -0.063220128
0.033320181 0.04809 -0.067810953
0.058840685 0.048089996 -0.065538101
0.097986244 0.048089996 -0.066784896
0.12527615 0.04809 -0.068652198
0.15715343 0.04809 -0.069703877
0.16719609 0.048090003 -0.069571771
0.17521463 0.04809 -0.06139674
0.46516269 0.045117743 -0.061918061
-0.41200975 0.055485632 -0.065259404
-0.39028534 0.053138651 -0.061609514
-0.37337518 0.051503874 -0.068061829
0.38844329 0.052960578 -0.064207256
0.40815914 0.054922201 -0.061208546
-0.32226878 -0.051506668 -0.056125399
0.32298017 -0.052612327 -0.0562407
-0.33018523 -0.045453642 -0.056125399
-0.32726485 -0.048391752 -0.056125399
0.30884811 -0.04236225 -0.0562407
-0.31571829 -0.035843208 -0.056125399
-0.32289577 -0.024426086 -0.057088371
-0.31518805 -0.025781425 -0.056125399
-0.29748654 -0.026531793 -0.056125402
0.31468508 -0.024980687 -0.057203025
-0.31301737 -0.009518343 -0.056125399
0.30928239 -0.001053388 -0.058132615
-0.35693869 0.029280208 -0.055208746
-0.24107009 0.026517801 -0.056454379
-0.21912521 0.026517799 -0.051467158
-0.13400269 0.026517797 -0.059848182
-0.11205927 0.026517797 -0.053193349
-0.10531411 0.026517797 -0.051201474
-0.08883474 0.026517799 -0.056839544
-0.071846336 0.026517799 -0.058975704
0.01386112 0.026517799 -0.050059877
0.14011188 0.026517799 -0.057530463
0.16750538 0.026517799 -0.05063444
0.22225435 0.026517799 -0.056923769
0.31170261 0.026517799 -0.052570459
-0.38407585 0.033251446 -0.059747573
0.38974896 0.034081645 -0.053314473
-0.47106701 0.046890359 -0.056440689
-0.35677823 0.049899381 -0.053431712
-0.30932617 0.048090003 -0.057712767
-0.29989219 0.04809 -0.052333459
-0.2816689 0.048090003 -0.057743747
-0.27362508 0.048090003 -0.05203167
-0.24422464 0.04809 -0.050967783
-0.17627814 0.048090003 -0.052450955
-0.12589683 0.04809 -0.054321706
-0.10399991 0.04809 -0.054263644
-0.04986579 0.048090003 -0.055532306
0.23045719 0.04809 -0.055529416
0.25361252 0.04809 -0.059172478
0.30803376 0.048090003 -0.051818892
0.4668076 0.047559854 -0.056440145
-0.4115456 0.055417717 -0.056210477
-0.39607331 0.053698201 -0.055469941
0.4673726 0.057656839 -0.057926007
-0.45254627 0.061417647 -0.058748767
0.32433039 -0.033596169 -0.049688723
0.32663596 -0.029837532 -0.045577858
-0.29473591 0.026517801 -0.048912458
-0.25272956 0.026517801 -0.047178738
-0.10917129 0.026517797 -0.049535029
-0.084111542 0.026517797 -0.046217848
0.072502434 0.026517799 -0.048352458
0.10615514 0.026517797 -0.045575559
0.13761343 0.026517799 -0.046191435
0.1623846 0.026517799 -0.046154022
0.31221753 0.026517799 -0.048221644
0.35686731 0.029269762 -0.046932369
-0.40727592 0.036646534 -0.042159144
-0.39471158 0.034807876 -0.042891555
-0.38748631 0.03375053 -0.040310986
0.39899629 0.035434894 -0.043805737
-0.44144374 0.041646887 -0.045533512
-0.32976523 0.04809 -0.048454054
-0.17528471 0.04809 -0.045284465
-0.16664559 0.04809 -0.049951769
-0.1478211 0.04809 -0.049752921
-0.13690668 0.04809 -0.046928275
-0.076827578 0.04809 -0.049422104
0.061734762 0.04809 -0.045931704
0.24591142 0.04809 -0.042301193
0.35122484 0.049362503 -0.043528646
-0.47559202 0.051949862 -0.044330683
-0.3973746 0.053824004 -0.048097316
-0.35980862 0.050192341 -0.047555152
0.37023205 0.05120001 -0.04350736
0.38886249 0.053001098 -0.043019518
-0.31925964 -0.033987954 -0.032230519
0.31811857 -0.033515383 -0.035260171
-0.32184452 -0.021624092 -0.030146705
-0.31578952 -0.029314596 -0.034405064
-0.32215196 0.026517797 -0.03466858
-0.29688436 0.026517797 -0.039301019
-0.26168501 0.026517801 -0.037909742
-0.25162148 0.026517799 -0.038841438
-0.15404397 0.026517799 -0.037531696
-0.039239444 0.026517799 -0.033025257
0.16762596 0.026517799 -0.035784401
0.28966695 0.026517801 -0.032109816
0.30082065 0.026517799 -0.030281471
0.31630445 0.026517799 -0.039937202
0.36817449 0.030924445 -0.034206346
0.41024294 0.03708072 -0.032197963
0.42997313 0.039968114 -0.034900688
-0.47774231 0.046958704 -0.037309978
-0.44855157 0.042687081 -0.035721414
-0.34550232 0.04880929 -0.037803933
-0.30246973 0.048090003 -0.038261734
-0.24837379 0.048089996 -0.034050658
-0.038718857 0.04809 -0.037461165
0.078454427 0.04809 -0.03043082
0.14050472 0.04809 -0.031905569
0.15092355 0.04809 -0.039933626
0.22194204 0.04809 -0.032386176
0.27700737 0.048090003 -0.039532587
0.44998217 0.042896431 -0.034104414
0.45734191 0.043973491 -0.030772988
0.39514494 0.053608455 -0.030062471
0.42148936 0.056872934 -0.03989413
0.4517771 0.06130508 -0.033025306
0.46680892 0.063504733 -0.031336296
0.31346411 -0.016074315 -0.023063511
-0.33806202 0.022720097 -0.023188459
-0.18667531 0.026517801 -0.022230193
-0.17463984 0.026517801 -0.028294552
-0.09726461 0.026517797 -0.02493082
-0.043356597 0.026517797 -0.023598915
-0.013256837 0.026517799 -0.026975129
0.033962801 0.026517799 -0.02419983
0.083953783 0.026517797 -0.02582147
0.22073156 0.026517799 -0.025699053
0.30041322 0.026517801 -0.024469068
0.31131798 0.026517797 -0.021558758
-0.42762384 0.039624244 -0.020739477
-0.38846949 0.033894408 -0.024220945
0.36740217 0.030811422 -0.029493932
0.38006482 0.03266447 -0.028191527
0.42034265 0.038558565 -0.02261368
-0.34012416 0.048289359 -0.027323412
-0.27980986 0.048090003 -0.02025196
-0.24490984 0.04809 -0.024255415
-0.16967428 0.04809 -0.024220292
-0.14937901 0.04809 -0.025069371
-0.12519811 0.04809 -0.020002756
-0.027262829 0.048090003 -0.025356267
0.027114203 0.04809 -0.022515018
0.076940402 0.048090003 -0.025156286
0.083466373 0.04809 -0.022923792
0.27704138 0.04809 -0.026738016
-0.39615148 0.053705752 -0.028186038
-0.36359286 0.05055818 -0.021041535
0.36336404 0.050536055 -0.028213758
0.39680368 0.05376881 -0.026043557
-0.46136785 0.062708713 -0.020565487
0.44688454 0.060589079 -0.025866928
0.46836969 0.063733272 -0.02286857
-0.32502893 -0.024937812 -0.017489385
-0.31706592 -0.013805762 -0.010333662
0.30767697 -0.012467599 -0.018230429
0.31809759 -0.016579315 -0.015942819
0.31083697 0.0029447824 -0.01646637
-0.31433889 0.024913775 -0.012420238
-0.28480321 0.026517797 -0.016404031
-0.25783387 0.026517797 -0.015910225
-0.12944752 0.026517799 -0.010531218
-0.11004756 0.026517799 -0.012653596
0.021966323 0.026517797 -0.011459772
0.045866951 0.026517799 -0.013139035
0.069234401 0.026517801 -0.016783379
0.088153347 0.026517799 -0.019172411
0.13244568 0.026517799 -0.012230893
0.24017812 0.026517799 -0.014651182
0.29437768 0.026517801 -0.019675868
0.35126552 0.028449999 -0.017926831
-0.37956044 0.032590665 -0.016453519
0.40174112 0.035836574 -0.011569833
0.42736346 0.039586134 -0.011926573
-0.44034743 0.041486442 -0.018330656
-0.3353827 0.04809 -0.0142891
-0.25684831 0.04809 -0.012632996
-0.16374598 0.04809 -0.01150102
0.020794921 0.04809 -0.015784809
0.16081607 0.04809 -0.0175854
0.23717126 0.048090003 -0.019614724
0.25399297 0.048089996 -0.01960871
0.27401167 0.048090003 -0.014658879
0.29684868 0.04809 -0.011171527
0.43521503 0.040735293 -0.011197251
-0.42931914 0.058018729 -0.013022278
0.42416412 0.057264432 -0.019183565
0.44611186 0.060476001 -0.018515695
-0.31591132 -0.029008444 -0.0075664907
0.31250587 -0.025452893 -0.0051970598
0.31864139 -0.018042261 -0.0097539509
-0.31092858 0.0026975609 -0.0041190246
0.29664189 0.017206676 -0.0038598743
-0.34515095 0.027555194 -0.0086958669
-0.33309525 0.026517801 -0.0067435075
-0.23377323 0.026517799 -0.00022331625
-0.1338568 0.026517797 -0.0047709597
-0.10342669 0.026517799 -0.0066214334
-0.098144174 0.026517797 -0.0091889137
-0.060876697 0.026517797 -0.0020203553
-0.037152126 0.026517799 -0.0061582271
0.091587327 0.026517799 -0.0087419711
0.33956981 0.026738454 -0.005212903
0.35929483 0.029625002 -0.0007643234
-0.39798704 0.035287205 -0.0091512036
0.36895519 0.03103869 -0.006339211
0.38236707 0.033001386 -0.0020602942
-0.35226479 0.049463045 -0.00065583736
-0.28397983 0.048090003 -0.002745077
-0.23014131 0.04809 -0.0010784566
-0.053265315 0.04809 -0.0071107745
-0.031762525 0.04809 -0.0044377409
0.045568869 0.048090003 -0.0029763915
0.064953029 0.04809 -0.008862895
0.07121294 0.048090003 -0.0065452568
0.28163856 0.04809 -0.0012358911
0.32391518 0.04809 -0.0094838999
0.43393597 0.040548105 -0.0081434362
-0.42890829 0.057958625 -0.0076325238
-0.40554184 0.054613568 -0.0045768544
-0.39723861 0.053810857 -0.0049485276
-0.4806422 0.064307638 -0.0084711518
0.48132935 0.062993757 -0.0020936332
-0.32185075 -0.022564571 0.0066093975
-0.31566119 -0.010028402 0.0089385016
0.30563149 -0.0069668265 0.0053899623
0.30057141 0.0066400715 0.0036419062
-0.32494694 0.026517799 0.0098971566
-0.29539588 0.024091681 0.0087787397
-0.11511728 0.026517801 0.0091906711
-0.078664571 0.026517799 0.0035495982
-0.022388965 0.026517799 0.0037193522
0.060006328 0.026517799 0.0076492988
0.11626473 0.026517799 8.7888911e-05
0.14190114 0.026517797 0.0048802234
0.17270422 0.026517801 0.0012670662
0.25177458 0.026517797 0.0035828091
0.30318063 0.021686025 0.00045573106
0.3147428 0.026517799 0.0036271431
-0.41671154 0.038027253 0.0090764118
0.40685818 0.036585398 0.002996359
0.42274535 0.03891018 0.0055277306
-0.3195141 0.04809 0.0092634261
-0.27765411 0.048090003 0.0045035854
-0.26583487 0.04809 0.0039358623
-0.18792163 0.048089996 0.0032021683
-0.11326402 0.048090003 0.0048251934
-0.079215661 0.04809 0.003681805
-0.04349336 0.048090003 0.0066583678
-0.024475412 0.04809 0.0098127313
0.036919564 0.04809 0.0075879022
0.052188553 0.04809 0.0017035194
0.079676248 0.04809 0.0045751603
0.10588521 0.04809 0.0090851644
0.13283183 0.04809 0.007712625
0.1536907 0.04809 0.005219087
0.18051122 0.04809 0.0076105855
0.25613698 0.04809 0.0038823672
0.47039092 0.045882899 0.0064496794
-0.38199002 0.052336708 0.0081845708
0.35986531 0.050197825 0.0070850551
-0.47059625 0.064059287 0.0030841473
-0.46080449 0.062626317 0.0094551705
0.31377041 -0.0049433527 0.017560676
-0.31004816 0.0010678594 0.017144186
0.30792463 0.0095018391 0.01322962
-0.30567285 0.010957503 0.012081044
-0.34983948 0.028241308 0.014002329
-0.33581528 0.026517799 0.014048985
-0.31350926 0.021653783 0.015095917
-0.27556324 0.026517801 0.012840368
-0.1966306 0.026517801 0.018452324
-0.16246827 0.026517799 0.014611611
-0.14529535 0.026517797 0.011432474
-0.12797222 0.026517797 0.019201612
-0.07629215 0.026517797 0.018706223
-0.064522572 0.026517799 0.014764532
-0.051732093 0.026517799 0.013065085
0.012837976 0.026517799 0.017742828
0.057081878 0.026517799 0.010188837
0.12665729 0.026517801 0.01384811
0.15815741 0.026517797 0.01269624
0.23042107 0.026517799 0.010976471
0.30954778 0.026517801 0.01500703
0.31043655 0.026517799 0.01384539
0.324368 0.026517799 0.018479068
-0.42806107 0.039688244 0.016555585
-0.36712366 0.030770671 0.016854193
0.40486673 0.036293972 0.019686243
-0.31982476 0.04809 0.015796542
-0.22651866 0.04809 0.013818953
-0.20387316 0.04809 0.019903883
-0.15126911 0.04809 0.011510354
-0.054193631 0.04809 0.017178576
0.024329778 0.04809 0.016698763
0.22570208 0.04809 0.016205728
0.26167324 0.048089996 0.015916487
0.33489364 0.048089996 0.019427504
0.45887166 0.044197299 0.011653714
0.47433478 0.046460032 0.01644651
0.48148015 0.047505617 0.016493015
-0.39191824 0.053296514 0.015048523
0.36165601 0.050370932 0.010596771
0.37983441 0.052128319 0.015261743
0.41077691 0.055305239 0.019751126
-0.31388959 -0.020445229 0.027044937
-0.34393626 0.02737744 0.025691174
-0.33285141 0.026517797 0.022808447
-0.30716723 0.026517799 0.020356143
-0.28107846 0.024642181 0.02109741
-0.23338082 0.026517799 0.024300929
-0.17302221 0.026517797 0.024112355
-0.13736701 0.026517801 0.029283594
-0.10619405 0.026517801 0.022148412
-0.084377185 0.026517797 0.025893405
-0.059428096 0.026517801 0.027103316
0.14739946 0.026517799 0.026794277
0.16184077 0.026517799 0.024924044
0.2432341 0.026517799 0.025543611
0.29503635 0.026517801 0.026385739
0.41351411 0.03755939 0.026759051
-0.47540861 0.046617262 0.026532304
-0.15426688 0.04809 0.02436877
-0.10369562 0.04809 0.021844551
0.035690084 0.04809 0.026543416
0.085903049 0.04809 0.02195156
0.17223223 0.04809 0.021768542
0.33515853 0.04809 0.025590975
0.4529469 0.043330312 0.021571709
0.46140754 0.044568308 0.022948319
-0.43291223 0.058544334 0.022084855
-0.40112239 0.054186322 0.02817701
-0.36699775 0.050887343 0.02042323
0.41870475 0.056465354 0.02552297
0.438146 0.059310131 0.025760571
-0.32589492 -0.031627506 0.037647858
-0.3247517 -0.024728578 0.032005444
-0.34669429 0.027781051 0.035477083
-0.11924804 0.026517799 0.039452016
-0.10442098 0.026517801 0.032557286
-0.092948042 0.026517799 0.035486437
-0.046641774 0.026517797 0.034418952
0.024164975 0.026517799 0.030512163
0.061331034 0.026517799 0.036415838
0.18254279 0.026517799 0.038233891
0.24384168 0.026517801 0.035138391
0.27506226 0.026517799 0.03586426
0.33697259 0.026517799 0.031261776
0.34041631 0.026862331 0.032968719
-0.40125114 0.035764858 0.032905217
0.39523739 0.034884822 0.039009653
-0.33468616 0.048090003 0.035923395
-0.30303386 0.04809 0.033705369
-0.24493876 0.048090003 0.034176536
-0.21729486 0.04809 0.034564674
-0.070721149 0.04809 0.037839338
0.014552653 0.048089996 0.035164259
0.18108577 0.048090003 0.039975062
0.32982799 0.04809 0.036759011
0.46732336 0.045433957 0.031217074
-0.41593057 0.056059334 0.036617663
-0.40317544 0.054384794 0.032613806
-0.3940115 0.053498875 0.031455934
0.4258863 0.057516512 0.037238386
0.4330754 0.058568202 0.039767634
-0.46472159 0.063199267 0.036458433
0.459932 0.062498692 0.034769714
0.46390408 0.063079685 0.030935179
0.32561874 -0.032294556 0.044973377
-0.31050423 0.026517799 0.042806171
-0.30810905 0.026517799 0.04727181
-0.29285079 0.026517799 0.046700627
-0.26164415 0.026517799 0.044408571
-0.25813848 0.026517797 0.041921053
-0.22651798 0.026517799 0.043138683
0.0062598884 0.026517801 0.043472603
0.058860809 0.026517799 0.044200491
0.17899524 0.026517799 0.043144822
0.19109221 0.026517799 0.042821027
0.31861359 0.026517797 0.04532928
0.34151322 0.02702285 0.049432244
-0.2570937 0.04809 0.045921452
-0.24826542 0.04809 0.046956912
-0.18502019 0.04809 0.045607198
-0.16586429 0.048089996 0.043138176
-0.10975124 0.04809 0.040802822
-0.013945021 0.048090003 0.046088547
0.00083451718 0.048089996 0.043280937
0.031984378 0.048090003 0.04386162
0.25173506 0.04809 0.045206502
0.31719023 0.048089996 0.049820684
0.33964506 0.048243042 0.040011138
-0.4642669 0.063132755 0.048190482
-0.45848253 0.062286567 0.043901321
-0.33989263 -0.055206627 0.059504624
0.33873346 -0.052500825 0.056653187
-0.32222962 -0.045114629 0.0562407
0.31308872 -0.038255267 0.059535023
0.32284197 -0.036821596 0.056815058
-0.31356457 -0.029808627 0.0562407
0.31416047 -0.026937651 0.058362272
0.32244363 -0.025708398 0.056124896
-0.3489188 -0.019125788 0.056902513
0.3031272 -0.017086547 0.056124903
0.31218329 -0.012754299 0.0561249
0.3472251 -0.012319898 0.058211088
-0.32027206 -0.0032858101 0.0562407
0.32234532 -0.0056841876 0.056124896
0.33199781 9.7777403e-05 0.058597721
-0.30300438 0.026517799 0.051387593
-0.24737133 0.026517799 0.059035197
-0.12049484 0.026517799 0.052768886
-0.028444111 0.026517799 0.052907631
0.014188159 0.026517799 0.057772435
0.040474497 0.026517801 0.053272348
0.080834925 0.026517799 0.055760264
0.16255188 0.026517799 0.057368848
0.25953621 0.026517801 0.057578951
0.33826953 0.026548175 0.057153605
-0.4264701 0.039455369 0.052441411
-0.41506478 0.037786294 0.059596103
-0.38686848 0.033660114 0.051645007
-0.36697081 0.0307483 0.0553561
0.37608451 0.032081995 0.053833302
0.38706663 0.033689111 0.050406851
-0.46987748 0.04580776 0.056835059
-0.35239053 0.0494752 0.055341877
-0.2863524 0.048090003 0.05549603
-0.24642485 0.04809 0.055869665
-0.23698887 0.04809 0.058612242
-0.21255763 0.048090003 0.055085994
-0.20367283 0.048090003 0.05799669
0.022894185 0.048090003 0.052837197
0.033467002 0.048089996 0.057493415
0.12653342 0.04809 0.050767068
0.20563647 0.048089996 0.054913014
0.43864256 0.04123693 0.055318471
0.45563561 0.043723784 0.055613071
-0.42687675 0.057661451 0.054936532
-0.40684927 0.054739956 0.050916765
-0.4432359 0.060055096 0.053692795
0.44757882 0.060690686 0.054047756
0.45298678 0.061482124 0.054408692
0.46247 0.062869929 0.053285226
-0.3474566 -0.050557945 0.063430019
-0.35465622 -0.035132244 0.063898832
0.28684029 -0.03107707 0.065831095
0.31080368 -0.035493109 0.061247244
0.32453987 -0.033509389 0.069096088
0.33238763 -0.034237906 0.060208566
-0.32120579 -0.021213431 0.061970245
0.33133188 -0.022461075 0.069894217
0.35448787 -0.024549063 0.062751137
0.31376216 -0.019844797 0.066838585
-0.33856159 -0.0012232733 0.061339527
0.34778136 -0.0068528294 0.066656701
-0.31643292 0.003143888 0.061412066
0.30779588 0.0024940141 0.066304341
-0.31884724 0.026517797 0.069565281
-0.20937735 0.026517799 0.062034182
-0.16140355 0.026517799 0.060505986
-0.15363765 0.026517799 0.066393696
-0.1281025 0.026517799 0.066468462
-0.11857717 0.026517799 0.06987977
-0.095899649 0.026517797 0.068783745
-0.054834574 0.026517799 0.068576679
-0.018347986 0.026517797 0.06470675
-0.0053046383 0.026517799 0.065088369
0.07679344 0.026517797 0.062683076
0.095015496 0.026517797 0.062507845
0.1066964 0.026517801 0.065236516
0.13278195 0.026517797 0.06540966
0.20378834 0.026517799 0.063771173
0.27509642 0.026517799 0.067252465
0.3152163 0.026517799 0.064792186
0.32016265 0.026517799 0.069299117
-0.36943802 0.031109352 0.064293168
0.38573575 0.033494357 0.065441996
0.42724431 0.039568692 0.062894344
-0.43729949 0.041040365 0.068317264
-0.33549553 0.04809 0.063811451
-0.3046779 0.04809 0.068877846
-0.24873045 0.04809 0.064057469
-0.16710466 0.04809 0.067792252
-0.040384963 0.04809 0.06437692
-0.013383359 0.04809 0.067978695
0.095028281 0.048090003 0.06912221
0.11953314 0.048089996 0.068213791
0.14062542 0.04809 0.063703805
0.19617313 0.04809 0.061503686
0.22711948 0.048090003 0.066279128
0.25126043 0.04809 0.068247877
0.31135404 0.04809 0.060064655
0.45919579 0.044244722 0.060388807
-0.40903908 0.055050954 0.060125988
-0.38253534 0.052389428 0.06660001
0.36064985 0.050273664 0.066491939
-0.33672553 -0.061668068 0.075520523
-0.30663893 -0.06145034 0.070476517
-0.28783 -0.042102177 0.076436959
-0.31330508 -0.032457415 0.07799457
0.32966259 -0.038172022 0.077716738
-0.32918197 -0.029989643 0.078546479
-0.31395373 -0.026744027 0.073088035
0.31592381 -0.023401463 0.071432501
-0.3518104 -0.010239882 0.075619131
-0.32684296 -0.01848801 0.079806142
-0.34220001 -0.00028158328 0.074477762
0.3501634 -0.008756496 0.070850305
0.32311016 0.0064540165 0.073409595
-0.34445831 0.027453832 0.071601085
-0.25694257 0.026517797 0.077551141
-0.18218997 0.026517799 0.077799954
-0.13905178 0.026517799 0.079447441
-0.015793592 0.026517801 0.074052528
0.00043302774 0.026517799 0.073156469
0.025184155 0.026517799 0.077673741
0.11019458 0.026517799 0.076746807
0.18403661 0.026517801 0.077724405
0.2253059 0.026517801 0.078849643
0.26778799 0.026517799 0.079704687
0.31426138 0.026517801 0.077993207
-0.38084739 0.032779001 0.077483736
0.37055367 0.031272613 0.070838973
-0.44426936 0.042060398 0.076987199
-0.33501318 0.04809 0.079693317
-0.32907385 0.048090003 0.072382569
-0.28625423 0.04809 0.079515852
-0.2187728 0.04809 0.074967653
-0.17693819 0.048089996 0.079535678
-0.035361901 0.04809 0.075682774
0.057912491 0.04809 0.078484014
0.067577146 0.04809 0.079596274
0.20983641 0.04809 0.07060308
0.21366788 0.048090003 0.07298357
0.27558714 0.04809 0.071255684
0.35354942 0.049587239 0.072294503
-0.45284915 0.059004411 0.076028578
0.37694073 0.051848572 0.074376091
0.40955696 0.055126734 0.071384236
0.41307911 0.055642106 0.079766683
0.44950983 0.060973275 0.073857374
0.34418485 -0.056879491 0.080694772
-0.32634103 -0.040336732 0.084692113
0.35128045 -0.048993889 0.081484079
-0.32435739 -0.033895023 0.083217099
0.32108805 -0.037354212 0.082094938
-0.32660618 -0.028707415 0.082726702
-0.31382608 -0.02437968 0.082254849
0.32583553 -0.024599452 0.087359428
0.33211297 -0.023715321 0.085654631
-0.31805891 -0.017551789 0.080975719
0.30498093 0.0022255494 0.085296065
-0.26152435 0.026517799 0.088732682
-0.088229239 0.026517797 0.089276165
-0.079289995 0.026517799 0.08907716
-0.02389209 0.026517801 0.087540023
0.08118365 0.026517799 0.084034219
0.093611956 0.026517797 0.0866087
0.12888432 0.026517799 0.082618691
0.14866084 0.026517801 0.088256545
0.15297747 0.026517799 0.085517183
0.18334053 0.026517799 0.085482106
0.21880692 0.026517801 0.084840693
0.25961119 0.026517799 0.086096287
0.32461524 0.026517799 0.086556971
0.34255034 0.027174624 0.084158525
-0.42522821 0.039273597 0.082021311
0.40671968 0.036565132 0.083495177
0.41800767 0.038216904 0.086850435
-0.067774758 0.04809 0.089978732
-0.02336131 0.048090003 0.08073464
0.037762236 0.04809 0.084489346
0.063560657 0.04809 0.08619602
0.14098282 0.04809 0.089490585
0.16880587 0.04809 0.083016545
0.19964504 0.04809 0.088422753
0.20642038 0.04809 0.085210413
0.24073847 0.048089996 0.084738396
0.26785272 0.048090003 0.082180649
0.29764354 0.048089996 0.086212426
0.34579575 0.048837654 0.084513627
-0.43100214 0.058264919 0.089141592
-0.41556007 0.056005128 0.080437966
-0.37670594 0.051825874 0.080553591
0.40912718 0.055063851 0.088258833
0.31634533 -0.040354948 0.092623413
-0.31084248 -0.035543691 0.091363534
-0.2880528 -0.032673042 0.093716525
0.31822687 -0.031046439 0.093877397
0.32160923 -0.030938506 0.093877397
0.33291045 -0.032647774 0.097499445
-0.35316542 -0.027956195 0.097042844
-0.28692701 -0.028365107 0.091046304
0.28796875 -0.023608247 0.09232039
0.3092525 -0.028202683 0.095422454
0.34077051 -0.024802148 0.099984303
0.29841238 -0.019518411 0.099984303
0.2994833 -0.0069307038 0.097732782
0.3065564 -0.00066488888 0.096201472
-0.33555031 0.026517799 0.091551609
-0.29355323 0.026517801 0.093735442
-0.28007776 0.026517799 0.092712812
-0.20529608 0.028173333 0.099984303
-0.18542509 0.026517799 0.099653468
-0.096206419 0.026517797 0.093096092
-0.058503374 0.026517801 0.097810544
-0.021459177 0.026517797 0.092750415
-0.0084698796 0.026517799 0.098204538
0.025740623 0.026517799 0.09491805
0.053259298 0.026517799 0.09351477
0.15659025 0.027691741 0.098864563
0.18945733 0.026517801 0.094492167
0.25723726 0.026517799 0.099489696
0.32263634 0.026517799 0.091102384
-0.37957156 0.032592289 0.09235014
-0.36323431 0.030201506 0.099857099
-0.32226282 0.033545546 0.099984303
-0.30606681 0.039126571 0.099984303
-0.29009128 0.031057348 0.099984303
-0.23985073 0.038441114 0.099984303
-0.093411312 0.033245157 0.099984303
-0.08765962 0.035452224 0.099984303
-0.062519446 0.03325358 0.099984303
0.056282841 0.030811008 0.099984303
0.089459151 0.036432907 0.099984303
0.11400838 0.039533742 0.099984303
0.14662814 0.033026263 0.099984303
0.22211669 0.037280668 0.099984303
0.25034592 0.034696776 0.099984303
0.31495717 0.036325157 0.099984303
0.34463447 0.03889152 0.099984303
0.36363962 0.033977233 0.097307771
0.38633698 0.034440629 0.095682912
0.39987037 0.035562806 0.092856646
-0.43899339 0.041590109 0.090456232
-0.3723352 0.045614999 0.099984303
-0.35305914 0.044084616 0.099984303
-0.34909922 0.049157016 0.093232855
-0.31924957 0.046196088 0.099984303
-0.28824538 0.042573653 0.099984303
-0.23808441 0.04809 0.096448161
-0.20929724 0.048089996 0.091647297
-0.17389229 0.045805048 0.099984303
-0.16106385 0.046318039 0.099984303
-0.12394426 0.047980987 0.099984303
-0.11960732 0.04809 0.097619481
-0.027813375 0.04809 0.092404068
0.014666796 0.047234043 0.099984303
0.05430878 0.04809 0.095294833
0.12153804 0.048090003 0.094725005
0.13444768 0.044750847 0.099984303
0.14406361 0.04809 0.095572866
0.16237608 0.04635559 0.099984303
0.18635741 0.04809 0.099856034
0.23223606 0.04809 0.098624088
0.30573031 0.043596931 0.099984303
0.3342731 0.044552233 0.097059898
0.4306885 0.040072817 0.091723673
-0.30072787 -0.021827266 0.1001
-0.33227053 -0.012225786 0.1001
