# .PCD v0.7 - Point Cloud Data file format
VERSION 0.7
FIELDS x y z
SIZE 4 4 4
TYPE F F F
COUNT 1 1 1
WIDTH 888
HEIGHT 1
VIEWPOINT 0 0 0 1 0 0 0
POINTS 888
DATA ascii
0.2415242 -0.051173501 -0.11645475
0.24920617 -0.043814428 -0.11668248
0.23232689 -0.023971662 -0.1161815
0.24187976 -0.025737539 -0.11517929
0.24101087 -0.011974631 -0.11643916
0.233574 -0.0081493584 -0.113768
-0.053174049 0.015919585 -0.11039026
-0.0034442842 0.01693178 -0.11072005
0.081177399 0.0136768 -0.11123924
0.12879498 0.013676799 -0.1108709
0.17389193 0.013676801 -0.11014605
0.25729746 0.017612914 -0.11257273
0.28582618 0.018143073 -0.11277874
0.083872572 0.023606701 -0.11105752
0.12458092 0.023606701 -0.11135603
0.28290063 0.022764057 -0.1127577
0.32073525 0.023606701 -0.11010461
-0.265589 -0.053175539 -0.10892668
-0.28158155 -0.048496976 -0.10295332
-0.27327436 -0.032178354 -0.10909668
-0.25618064 -0.035499055 -0.10284569
-0.24000239 -0.036460463 -0.10097589
-0.25626016 -0.026178498 -0.10493008
0.23670602 -0.0249492 -0.10412016
0.25953496 -0.0087114489 -0.106102
-0.37756908 0.018333696 -0.10337149
-0.35600957 0.015968069 -0.10819278
-0.31685704 0.0136768 -0.10382202
-0.28652084 0.014572998 -0.10596748
-0.22821876 0.0136768 -0.1051024
-0.14506599 0.014609818 -0.10835184
-0.12883699 0.013937535 -0.10989609
-0.029244751 0.0136768 -0.1040905
-0.012420624 0.0136768 -0.10661143
0.069252774 0.0136768 -0.10421546
0.10123894 0.0136768 -0.10707914
0.1365734 0.0136768 -0.10205603
0.17065921 0.0136768 -0.10137242
0.20217052 0.0136768 -0.1068188
0.27659056 0.0136768 -0.10733084
0.34588987 0.0136768 -0.10088724
0.35605416 0.0136768 -0.10990131
0.36094406 0.014215127 -0.10206409
0.39431182 0.01998283 -0.10557413
-0.37572527 0.028123241 -0.10154673
-0.32060421 0.020728374 -0.1084401
-0.28230214 0.023606701 -0.10400315
-0.15256193 0.021655571 -0.10961311
-0.1111837 0.023606703 -0.10762034
-0.10252813 0.023606701 -0.10665757
-0.094550684 0.023606701 -0.1092511
-0.047272608 0.023606699 -0.10331644
0.05265072 0.023606701 -0.10062951
0.128739 0.023606701 -0.10053387
0.16760594 0.023606701 -0.10092125
0.2200751 0.023606699 -0.10101593
0.23084083 0.023606701 -0.10867506
0.26088956 0.023606701 -0.10668566
0.28919464 0.023606701 -0.10346756
0.33665103 0.023606701 -0.1065544
0.35436636 0.023606701 -0.10146991
-0.27849194 -0.051287543 -0.098656744
-0.25725064 -0.054984473 -0.092170894
-0.28018925 -0.049983576 -0.0983724
-0.28793451 -0.037992444 -0.09192618
-0.27384263 -0.030748364 -0.095911294
-0.2390267 -0.032387063 -0.090495914
-0.26068935 -0.028049391 -0.09303879
-0.25632074 -0.025740305 -0.09543477
-0.23954973 -0.024522588 -0.095143303
0.2474817 -0.020867642 -0.091161467
0.25162622 -0.018283825 -0.09030363
-0.27268261 -0.0072002183 -0.094508007
-0.37323242 0.017179772 -0.099041611
-0.34960607 0.0136768 -0.09012609
-0.13434121 0.0136768 -0.091856413
-0.091269933 0.0136768 -0.095710918
-0.061456285 0.0136768 -0.090480961
-0.001739338 0.0136768 -0.09297429
0.14405793 0.0136768 -0.098338634
0.15022923 0.0136768 -0.094482854
0.19291565 0.0136768 -0.09761931
0.27613795 0.0136768 -0.092034593
0.31026328 0.0136768 -0.098572232
-0.34959882 0.023606701 -0.099393345
-0.2632629 0.023606701 -0.092262492
-0.24415672 0.023606701 -0.092367992
-0.21785848 0.023606699 -0.095548086
-0.20408189 0.023606699 -0.098629177
-0.16308858 0.023606701 -0.093818046
-0.14005224 0.023606699 -0.095418021
-0.13385704 0.023606701 -0.095061451
-0.11821973 0.023606703 -0.093275294
-0.048388101 0.023606699 -0.09209995
0.0067965984 0.023606701 -0.095258884
0.084864214 0.023606701 -0.09332931
0.10868961 0.023606701 -0.097309105
0.13103314 0.023606701 -0.092401609
0.20036724 0.023606701 -0.099177063
0.21730135 0.023606701 -0.095983319
0.29870036 0.023606703 -0.099784032
0.31359327 0.023606703 -0.096648298
0.33764395 0.023606701 -0.090864651
0.37651098 0.026978463 -0.099996828
0.4097828 0.022637814 -0.091263272
-0.41522086 0.034123197 -0.09672533
-0.24222337 -0.036628839 -0.084319189
-0.26322335 -0.024144389 -0.086545803
0.25530288 -0.028179912 -0.087646782
-0.37174594 0.0168107 -0.08340276
-0.14621055 0.0136768 -0.085934944
-0.090176128 0.0136768 -0.084775798
-0.05427441 0.0136768 -0.087334901
0.06392628 0.0136768 -0.083356157
0.10606575 0.0136768 -0.088724524
0.12042814 0.0136768 -0.084868371
0.13197184 0.0136768 -0.08680141
0.25205401 0.0136768 -0.085257329
0.27298379 0.0136768 -0.081964754
0.31549656 0.0136768 -0.082561046
0.32900551 0.0136768 -0.083179437
0.33687705 0.0136768 -0.084880754
0.37386072 0.016423045 -0.082882822
-0.21126863 0.023606701 -0.085108854
-0.19722916 0.023606701 -0.081512623
-0.096024312 0.023606703 -0.089161396
-0.044641174 0.023606701 -0.081940092
-0.022437871 0.023606701 -0.088626727
-0.012741148 0.023606701 -0.081495017
0.014444709 0.023606701 -0.089226186
0.025886431 0.023606701 -0.088343516
0.16649428 0.023606701 -0.080936149
0.23525715 0.023606701 -0.080366537
0.29468197 0.023606703 -0.088709168
0.429111 0.025969561 -0.085807338
-0.43979406 0.03531662 -0.08322683
-0.39461872 0.033214793 -0.085961595
-0.38879064 0.03165764 -0.083584376
0.23988414 -0.029207606 -0.075299583
-0.28862035 0.0136768 -0.072183326
-0.27766785 0.0136768 -0.076486044
-0.19065119 0.0136768 -0.075158581
-0.17265266 0.0136768 -0.072628416
-0.12395644 0.0136768 -0.077291928
-0.090718761 0.0136768 -0.075742461
-0.074267119 0.0136768 -0.076496273
-0.064424977 0.0136768 -0.07399708
-0.010356881 0.0136768 -0.075466484
0.049194098 0.0136768 -0.079402059
0.12965591 0.0136768 -0.07251972
0.15772635 0.0136768 -0.079288542
0.16186917 0.0136768 -0.07011947
0.22472455 0.0136768 -0.070443571
0.25135228 0.0136768 -0.077689931
0.37474063 0.016565818 -0.07524547
-0.39787647 0.023826076 -0.075999521
-0.32676572 0.023606701 -0.074526057
-0.2923587 0.023606701 -0.073273562
-0.23601225 0.023606703 -0.076334469
-0.1654103 0.023606701 -0.076913036
-0.13176581 0.023606701 -0.076865412
-0.12854804 0.023606701 -0.075523198
-0.047088295 0.023606701 -0.071150556
0.15121971 0.023606701 -0.072391309
0.3917129 0.029577112 -0.077491201
-0.41456041 0.038581248 -0.073536724
0.39951429 0.030918304 -0.072262086
0.42451128 0.035235647 -0.07210394
-0.45144391 0.047101535 -0.070899881
0.25511196 -0.034963682 -0.06227148
-0.29636964 0.0136768 -0.066358849
-0.21454678 0.0136768 -0.069085658
-0.17252964 0.0136768 -0.066917151
-0.04082007 0.0136768 -0.065661594
0.063744351 0.0136768 -0.06250459
0.16339356 0.0136768 -0.063769944
0.25412032 0.0136768 -0.061998554
0.32849371 0.0136768 -0.06076235
0.37568656 0.016720135 -0.067725241
-0.29831442 0.023606701 -0.061007816
-0.27798539 0.023606701 -0.069433473
-0.17583466 0.023606699 -0.069602206
-0.067736611 0.023606701 -0.063858725
-0.044735771 0.023606699 -0.063333727
-0.014776528 0.023606701 -0.061523866
-0.0078011267 0.023606703 -0.064243823
0.043037243 0.023606701 -0.066732861
0.082467005 0.023606701 -0.069339126
0.29623312 0.023606701 -0.065247059
0.32525039 0.023606701 -0.062046237
0.36845642 0.025550835 -0.069813982
-0.44963735 0.037723724 -0.06056105
-0.43385181 0.033478476 -0.069009617
0.40595779 0.032021824 -0.06442859
0.42128739 0.034674075 -0.068150192
0.45353827 0.030163597 -0.064698212
0.46144161 0.036162898 -0.06407772
0.24908449 -0.03802992 -0.057100255
-0.38168564 0.019521719 -0.057944767
-0.35075849 0.0136768 -0.058308087
-0.31646603 0.0136768 -0.050776225
-0.3088522 0.0136768 -0.059342466
-0.14388214 0.0136768 -0.054187402
-0.086578339 0.0136768 -0.058937132
-0.06185687 0.0136768 -0.052872013
0.10353705 0.0136768 -0.056536227
0.22904094 0.0136768 -0.059013706
0.24532673 0.0136768 -0.055453043
0.36439693 0.014757183 -0.05699113
0.38482672 0.01828374 -0.05518014
-0.33399078 0.023606701 -0.051824186
-0.28221002 0.023606701 -0.05535939
-0.25189584 0.023606701 -0.050279055
-0.22334012 0.023606703 -0.056377389
-0.17681442 0.023606701 -0.050801601
-0.11135583 0.023606701 -0.051582158
-0.0078937132 0.023606701 -0.054968093
0.10509963 0.023606703 -0.0572736
0.12600288 0.023606701 -0.055539675
0.16709886 0.023606699 -0.059908308
0.20884955 0.023606701 -0.052185349
0.22165655 0.023606701 -0.057229821
0.23954967 0.023606701 -0.053749558
0.26202536 0.023606699 -0.050540663
0.30495685 0.023606703 -0.059214823
0.41129288 0.022852112 -0.052681789
-0.4085131 0.03698723 -0.059492879
0.44665417 0.039034657 -0.05073496
-0.25304899 -0.025631906 -0.046018794
-0.33541068 0.0136768 -0.042321682
-0.27594513 0.0136768 -0.045932204
-0.25748315 0.0136768 -0.041257419
-0.2370013 0.0136768 -0.044136442
-0.20434174 0.0136768 -0.045338944
-0.15484133 0.0136768 -0.049450681
-0.12607688 0.0136768 -0.043739565
-0.045445226 0.0136768 -0.047734518
-0.0037856121 0.0136768 -0.042984068
0.013452654 0.0136768 -0.047904711
0.023095004 0.0136768 -0.047527716
0.04689315 0.0136768 -0.040636927
0.065200999 0.0136768 -0.045526985
0.11277502 0.0136768 -0.047000282
0.13676749 0.0136768 -0.043460764
0.17804109 0.0136768 -0.044908378
0.18369119 0.0136768 -0.041739598
0.19180684 0.0136768 -0.042913739
0.23494223 0.0136768 -0.041587904
0.39453992 0.01995185 -0.04721541
-0.40057093 0.024602413 -0.046907548
-0.33451369 0.023606699 -0.041406661
-0.32037795 0.023606701 -0.044738129
0.0082138553 0.023606701 -0.043835185
0.025982112 0.023606701 -0.046191029
0.034808133 0.023606701 -0.040504619
0.22087085 0.023606701 -0.047169033
0.27767798 0.023606701 -0.044318751
0.29850858 0.023606701 -0.046928175
0.30278322 0.023606701 -0.049092069
0.37813878 0.027190369 -0.042536568
0.38287193 0.028004937 -0.04006787
0.41622287 0.023691896 -0.042946983
0.45028555 0.029573506 -0.041287363
-0.40450805 0.035936132 -0.047717705
-0.39162135 0.032489292 -0.044470333
0.41990879 0.034406383 -0.04356961
0.46202809 0.031601928 -0.041360825
-0.44926938 0.047935739 -0.044498693
0.46135259 0.041561395 -0.040601414
-0.46872941 0.053051189 -0.044607189
-0.2637386 -0.022559779 -0.038156886
-0.25312066 -0.023432769 -0.030802328
0.21643898 0.0095242858 -0.033809099
-0.37992361 0.019098967 -0.031533118
-0.36720109 0.01568923 -0.031886064
-0.31590334 0.0136768 -0.034357715
-0.27000421 0.0136768 -0.033479866
-0.22069296 0.0136768 -0.035976663
-0.17733297 0.0136768 -0.036127977
-0.16575146 0.0136768 -0.035335839
-0.13023135 0.0136768 -0.035805125
-0.10627346 0.0136768 -0.033796322
-0.066227719 0.0136768 -0.032245506
-0.056849532 0.0136768 -0.034905273
-0.013615757 0.0136768 -0.032651447
0.061197273 0.0136768 -0.031795476
0.084067121 0.0136768 -0.033087082
0.13056722 0.0136768 -0.032308493
0.22813036 0.0136768 -0.033802859
0.2445576 0.011656448 -0.033809099
0.25511408 0.0136768 -0.031301416
-0.41459012 0.028381418 -0.034677085
-0.39167577 0.022246076 -0.032517251
-0.321365 0.023606699 -0.037040282
-0.26638487 0.023606701 -0.034608655
-0.21873429 0.023606701 -0.039539862
0.044116847 0.023606701 -0.039776213
0.055190742 0.023606701 -0.03864352
0.1330494 0.023606701 -0.036097728
0.14494647 0.023606699 -0.032037757
0.26823053 0.023606701 -0.036197953
0.27186033 0.023606701 -0.037844472
0.31869945 0.023606701 -0.03633932
0.39551097 0.020110402 -0.039609607
0.42814335 0.025744669 -0.037914153
-0.41098744 0.037704811 -0.030305767
0.40108347 0.031142842 -0.033676464
-0.47071329 0.043420602 -0.034050286
-0.46720082 0.042471498 -0.03830095
-0.42216346 0.040690869 -0.034780845
-0.26688847 -0.034744248 -0.025346249
0.24139807 -0.032864176 -0.027711932
-0.26292384 -0.022106253 -0.024605652
-0.25932494 -0.02098451 -0.021135375
-0.22186333 0.0093590496 -0.026625235
-0.36807388 0.015929315 -0.028563403
-0.28374943 0.013071772 -0.026463026
-0.25750268 0.0136768 -0.023573503
-0.21861467 0.012246524 -0.020085886
-0.20985699 0.012007886 -0.028742056
0.0180659 0.0136768 -0.021975461
0.058390994 0.0136768 -0.029988354
0.062056445 0.0136768 -0.024452407
0.070386872 0.0136768 -0.021870233
0.12288534 0.0136768 -0.027862404
0.14506148 0.0136768 -0.024099611
0.2129278 0.0136768 -0.024971336
0.24316281 0.0136768 -0.024701457
0.26990077 0.0136768 -0.029894691
0.30872083 0.0136768 -0.020209787
0.31413513 0.0136768 -0.02688662
0.34781626 0.0136768 -0.025005441
0.36449552 0.014736015 -0.025307866
0.37493163 0.016538538 -0.025258757
0.39045113 0.019220933 -0.026757818
-0.37739742 0.02871101 -0.02683261
-0.32164836 0.023606701 -0.027893391
-0.30798948 0.023606701 -0.027021784
-0.20236214 0.023606701 -0.027174957
-0.12821057 0.023606701 -0.026220724
-0.11312635 0.023606703 -0.026383244
-0.10024513 0.023606701 -0.023112372
-0.01210256 0.023606701 -0.023081519
0.049764547 0.023606701 -0.025645075
0.23931533 0.023606701 -0.026036944
0.29709128 0.023606701 -0.024303287
0.33407766 0.023606701 -0.026191488
0.35389471 0.023606703 -0.025633205
0.36110359 0.024228834 -0.026751067
0.38650024 0.028612614 -0.024278915
0.39158344 0.029488113 -0.022206005
-0.45185667 0.038382821 -0.026060799
-0.44330674 0.036090598 -0.026831895
-0.42113081 0.030149668 -0.026286736
0.41891474 0.034218166 -0.029834975
-0.47019801 0.043290392 -0.029868275
-0.46811467 0.042744633 -0.023204423
-0.45309383 0.049005903 -0.02022054
-0.47285482 0.054300696 -0.020096745
-0.25473511 -0.039623991 -0.012074894
-0.25102252 -0.0019834316 -0.013511127
-0.27514762 0.0093590496 -0.018065793
-0.22204104 0.0077211061 -0.013061565
0.20824338 0.0093590496 -0.01696023
-0.34401119 0.0136768 -0.017528582
-0.29361501 0.010044098 -0.014925938
-0.17857738 0.0136768 -0.012165601
-0.12090193 0.0136768 -0.013004233
-0.06929376 0.0136768 -0.015144479
-0.054687865 0.0136768 -0.013611769
-0.013739878 0.0136768 -0.013516846
-0.0090440363 0.0136768 -0.014318898
0.13339084 0.0136768 -0.016557192
0.3649579 0.01480705 -0.01798825
-0.41694379 0.029041599 -0.018895708
-0.39970544 0.024423111 -0.018794164
-0.36514455 0.025389314 -0.015720131
-0.31798509 0.023606701 -0.014931655
-0.29447344 0.023606699 -0.015627367
-0.17975473 0.023606701 -0.018013159
-0.080142699 0.023606701 -0.01905301
-0.051600561 0.023606701 -0.014214757
0.04243324 0.023606703 -0.013567023
0.073037691 0.023606701 -0.018772054
0.10148857 0.023606701 -0.0183056
0.11020096 0.023606701 -0.015212594
0.19444257 0.023606701 -0.01439348
0.22080043 0.023606703 -0.011660578
0.27084932 0.023606703 -0.019817473
0.31533653 0.023606701 -0.015178222
0.32533294 0.023606699 -0.012437279
0.36450845 0.024807025 -0.018504892
0.4077363 0.022196852 -0.018733509
0.4324066 0.036536254 -0.019855473
-0.47330099 0.044151939 -0.013669239
-0.42525795 0.041562572 -0.012016591
0.47964111 0.042691298 -0.015411974
-0.4783932 0.051742185 -0.017248306
-0.46684882 0.052704103 -0.013241272
0.24135748 -0.040707864 -0.0052200085
-0.26077694 -0.030042825 -0.0039720973
-0.24746042 -0.032519445 -0.0070088021
0.23965603 -0.030739151 -0.0047431001
0.24145921 -0.031946935 -0.008514679
-0.2665444 -0.026992884 -0.0073080687
0.25448579 -0.025448686 -0.0016016321
-0.23894197 -0.019334618 -0.0032028088
0.25215605 -0.019902231 -0.0048194826
0.2192346 -0.0092003113 -0.0088608768
-0.21665746 0.0039832005 -0.00082774169
0.2834031 0.0061315456 -0.0042400276
-0.31783748 0.0136768 -0.0013832059
-0.27223456 0.0136768 -0.0045422912
-0.26805592 0.0136768 -0.0038873563
-0.13272022 0.0136768 -0.0031079338
-0.048081823 0.0136768 -0.0012563849
-0.037486218 0.0136768 -0.0025422813
0.0027555972 0.0136768 -0.0025138827
0.032143176 0.0136768 -0.0040393355
0.096953049 0.0136768 -0.0062319264
0.12878211 0.0136768 -0.0081627583
0.17996666 0.0136768 -0.0069749793
0.21729961 0.0136768 -0.0087340232
0.27198115 0.0136768 -0.0070498786
0.28590983 0.0136768 -9.1659836e-05
0.33061013 0.0136768 -0.0014717374
0.34803906 0.0136768 -0.0054924423
-0.33844811 0.023606701 -0.0019077472
-0.30569696 0.023606701 -0.0083432617
-0.25419816 0.023606701 -0.0090801595
-0.23170105 0.023606701 -0.0090967817
-0.16636857 0.023606701 -0.0078666303
-0.078488201 0.023606701 -0.0007268237
-0.048327044 0.023606701 -0.0038665421
-0.024271406 0.023606701 -0.0015798543
0.049258459 0.023606703 -0.0022702175
0.17648742 0.023606701 -0.003857661
0.24476898 0.023606701 -0.0024064863
0.3036969 0.023606701 -0.0016518235
0.31812024 0.023606701 -0.0020645298
0.32222652 0.023606701 -0.0079865102
0.34643155 0.023606701 -0.0083788969
0.36826587 0.025439456 -0.0047366954
0.37199745 0.026089087 -0.0089283064
0.43874931 0.027536158 -0.0043385848
-0.41722053 0.039423104 -0.0045062862
0.42822152 0.035797589 -0.0066176206
0.4554106 0.03041284 -0.0032042265
0.47030669 0.032993387 -0.009610448
-0.47967184 0.045868542 -0.0084467754
-0.46514186 0.041975297 -0.0086506065
0.46802986 0.042669907 -0.0033035446
-0.47594988 0.055150487 -0.009190944
-0.45987049 0.050856996 -0.0012082341
-0.24699463 -0.034747548 0.0071204398
-0.2649751 -0.025024131 0.0086326143
-0.25509363 -0.026974646 0.0044457582
-0.24454847 -0.028342396 0.0034967838
0.25847024 -0.022398349 0.001794325
-0.27013093 -0.0105008 0.0036242181
-0.26397908 -0.019917879 0.0088553596
-0.25542372 -0.014227258 0.0031322653
0.22694311 -0.0105008 0.0025330316
-0.28180271 -0.004283431 0.00077145593
-0.26568645 -0.0068878024 0.0061132591
0.28090054 0.006366272 0.0045853821
-0.30956593 0.0136768 0.008980589
-0.28683776 0.0136768 0.0026874542
-0.27989131 0.0136768 0.0048844162
-0.24407646 0.0136768 0.0047092745
-0.22712287 0.0136768 0.0043723718
-0.18979231 0.0136768 0.0070069381
-0.14508443 0.0136768 0.00517098
-0.08473625 0.0136768 0.003023285
0.03055267 0.0136768 0.0029152082
0.041386344 0.0136768 0.0048299213
0.093980335 0.0136768 0.0088135339
0.11326845 0.0136768 0.0010454506
0.13928916 0.0136768 0.00045619998
0.20821738 0.0136768 0.00087333471
0.22423191 0.0136768 0.00066936668
0.30157539 0.0136768 0.0084388461
0.35991815 0.013908963 0.0048993081
-0.41684806 0.029062133 0.0057863593
-0.31752926 0.023606701 0.0091625527
-0.30121574 0.023606701 0.0081511876
-0.29916906 0.023606699 0.0048995558
-0.19489168 0.023606701 0.0034640799
-0.065645918 0.023606701 0.0055769579
-0.038795795 0.023606701 0.0021201638
-0.016456261 0.023606701 0.0042436044
0.08397121 0.023606699 0.006747161
0.091545917 0.023606703 0.0050352002
0.10039179 0.023606701 0.0092065334
0.14681908 0.023606701 0.0072450824
0.19101456 0.023606701 0.0019803476
0.29142684 0.023606699 0.0093370304
0.39316946 0.029729629 0.0046997704
0.41302377 0.023080349 0.0059610941
0.44610301 0.028799424 0.0014840532
-0.42154425 0.030314587 0.0026457347
0.39502075 0.030044606 0.008677382
0.41971952 0.034310974 0.0085275657
0.42948401 0.035998821 0.0073038973
-0.47517836 0.044698417 0.0096071558
-0.44264424 0.046253592 0.0052744262
-0.43090338 0.043104149 0.0034645572
-0.24963647 -0.037938967 0.01259634
0.25776151 -0.021804417 0.017277271
-0.27724835 -0.0035643764 0.012430824
-0.23408014 -0.003449033 0.017662184
0.2334059 -0.00012703351 0.01419098
-0.25140253 0.002436725 0.018964428
-0.29412997 0.0136768 0.010137806
-0.28157797 0.0136768 0.015018389
-0.26193026 0.0136768 0.011498724
-0.23529714 0.0136768 0.012847352
-0.19653372 0.013676801 0.016398543
-0.1596622 0.0136768 0.01797221
-0.1168345 0.0136768 0.010785165
-0.094214216 0.0136768 0.014684365
-0.0033098869 0.0136768 0.014259727
0.10242954 0.0136768 0.016518116
0.21226053 0.0136768 0.016180184
0.22727188 0.0136768 0.017976688
0.23526916 0.0136768 0.012781866
0.24539332 0.0136768 0.016202545
0.32576934 0.0136768 0.010065036
0.33877772 0.0136768 0.011527985
0.38393947 0.018047698 0.013470916
-0.26807463 0.023606701 0.018762276
-0.14784975 0.023606701 0.01955821
-0.036577821 0.023606701 0.019703073
0.12368196 0.023606701 0.014746609
0.47401252 0.033598408 0.019410979
-0.42403874 0.041294806 0.019498879
-0.46016467 0.050971095 0.017666157
-0.26146325 -0.036923714 0.028862957
-0.24954627 -0.037593521 0.028968014
0.26070419 -0.023865931 0.024434881
0.25323135 0.0093590496 0.026732815
0.26211154 0.0093590496 0.0272504
-0.33356512 0.0136768 0.021115767
-0.27970621 0.0136768 0.020184927
-0.2644493 0.0136768 0.026077157
-0.25101203 0.0136768 0.029520707
-0.24473992 0.0136768 0.022255437
-0.21469422 0.015964547 0.029157743
-0.1637487 0.0136768 0.029780988
-0.14464155 0.0136768 0.025772106
0.072807848 0.0136768 0.026126996
0.11982202 0.0136768 0.026739739
0.16629578 0.013676799 0.024904642
0.205266 0.010875485 0.02564656
0.21048474 0.015823755 0.02273386
0.24291721 0.0136768 0.026737642
0.25327864 0.0136768 0.027439259
0.26997325 0.013676801 0.024049951
0.276905 0.016681407 0.023398004
0.37282822 0.016112618 0.026661288
-0.36882734 0.026439846 0.028015841
-0.33277962 0.023606701 0.02275309
-0.32102281 0.023606703 0.020537052
-0.31829247 0.023606701 0.021063177
-0.082738556 0.023606703 0.026942089
-0.013431601 0.023606701 0.024210276
0.047196388 0.023606701 0.027496189
0.067717828 0.023606701 0.023177288
0.091573574 0.023606699 0.029148547
0.17649284 0.023606701 0.021112999
0.24773711 0.023606701 0.028060643
0.25332752 0.023606701 0.022202285
0.35781243 0.023606701 0.025951814
0.37191188 0.026039315 0.020077478
-0.44606376 0.036932305 0.028282885
-0.39752764 0.0342023 0.025261201
0.41981339 0.034309253 0.023430832
0.44569814 0.038779847 0.023601308
0.47675252 0.038543358 0.027607962
-0.47873196 0.049905889 0.023658173
-0.44289249 0.046355411 0.024149515
0.26034272 -0.037613168 0.038862519
-0.25475681 -0.020250369 0.038400296
-0.23490471 0.012480151 0.034078799
-0.16749965 0.0136768 0.037065193
-0.13803279 0.0136768 0.035294008
-0.12331957 0.0136768 0.034498125
-0.020170033 0.0136768 0.033520147
-0.0083939061 0.0136768 0.035881117
0.10368953 0.0136768 0.03461004
0.11440097 0.0136768 0.032551102
0.13604051 0.0136768 0.036755789
0.15617046 0.0136768 0.038772117
0.20296766 0.0136768 0.035671107
0.2336843 0.013588388 0.0309525
0.29314277 0.0136768 0.03058376
-0.31021172 0.023606701 0.034313567
-0.28403735 0.023606701 0.035798207
-0.2361021 0.023606701 0.037283044
-0.20559025 0.023606701 0.036036599
-0.19263254 0.023606701 0.032093231
-0.16628078 0.023606703 0.03742468
-0.15433231 0.023606703 0.03265439
0.015684061 0.023606701 0.031725641
0.1604526 0.023606701 0.037386972
0.17622244 0.023606703 0.033552263
0.19099075 0.023606701 0.030003084
0.23107773 0.023606699 0.032250244
0.28572613 0.023606701 0.031141829
-0.43919346 0.035106853 0.036449887
-0.4072569 0.036819279 0.030644786
0.42144316 0.034575332 0.036227435
0.46631083 0.032248795 0.035574388
0.47386676 0.036401566 0.031043796
-0.47566271 0.055147495 0.030388886
-0.46668741 0.052749831 0.034320924
-0.24563813 -0.032407843 0.04294017
0.24692786 -0.032322433 0.044543095
0.24788618 -0.026529882 0.046189811
0.25250569 -0.022289908 0.044041708
-0.36554879 0.015390928 0.045333944
-0.32698351 0.0136768 0.044236653
-0.26196274 0.0136768 0.042064723
-0.24899545 0.0136768 0.044005755
-0.2397694 0.0136768 0.046144061
-0.21317703 0.013676799 0.041722715
-0.017082565 0.0136768 0.049753428
0.088548884 0.0136768 0.040902723
0.14977007 0.0136768 0.044271886
0.15293488 0.0136768 0.040989377
0.17955929 0.0136768 0.044367142
0.21270375 0.0136768 0.046543047
0.24188271 0.0136768 0.042055935
0.29540539 0.013676801 0.041108225
0.30028203 0.0136768 0.04549608
-0.31193146 0.023606701 0.040116593
-0.27446684 0.023606701 0.043324038
-0.25297827 0.023606701 0.044096947
-0.21624494 0.023606701 0.046453528
-0.20432973 0.023606703 0.046663389
-0.16766015 0.023606703 0.042402633
-0.14335059 0.023606701 0.049225651
-0.047016226 0.023606701 0.041643195
-0.0032734387 0.023606699 0.044587098
0.009886574 0.023606703 0.040829573
0.080516338 0.023606701 0.041652374
0.13504776 0.023606701 0.045821585
0.24785835 0.023606701 0.049746353
0.25884616 0.023606703 0.049173407
0.28740945 0.023606701 0.040833019
0.42723298 0.02548421 0.047704853
-0.44234696 0.035967499 0.044872753
-0.41061702 0.037746444 0.044994127
-0.39648923 0.033959482 0.044204287
0.45983908 0.031119371 0.045202281
0.46269765 0.031617008 0.041984428
-0.43548414 0.044406757 0.043676306
-0.25741321 -0.037630722 0.050155748
0.25903779 -0.038503986 0.055126011
-0.3085252 0.0136768 0.058158863
-0.20937879 0.0136768 0.051817644
-0.19503382 0.0136768 0.057882193
-0.18761118 0.0136768 0.050975189
-0.080227412 0.0136768 0.05824244
-0.065188639 0.0136768 0.053472806
0.072772928 0.0136768 0.059591621
0.18454032 0.0136768 0.059003249
0.19370669 0.0136768 0.056364849
0.26442713 0.0136768 0.057547059
0.28327489 0.0136768 0.054514427
0.33908609 0.0136768 0.058497146
0.34503555 0.0136768 0.050342031
-0.23725179 0.023606701 0.055256926
-0.2295303 0.023606701 0.053249154
-0.16311619 0.023606699 0.056408715
-0.15450102 0.023606701 0.052550767
-0.10583217 0.023606701 0.057498395
-0.040008787 0.023606701 0.059287269
0.018116206 0.023606701 0.051013641
0.17097595 0.023606701 0.055487856
0.20529599 0.023606703 0.054035459
-0.4451614 0.036742412 0.056026779
-0.45986062 0.05096801 0.059561819
0.26453093 -0.034300663 0.06999898
-0.26149383 -0.029693143 0.067855857
-0.37376207 0.017633084 0.067460351
-0.35370842 0.0136768 0.063908346
-0.3400628 0.0136768 0.068498924
-0.26436445 0.0136768 0.066095486
-0.24689023 0.0136768 0.063653104
-0.20962882 0.0136768 0.067393407
-0.087616988 0.0136768 0.066910036
-0.075740084 0.0136768 0.06514851
-0.0003056787 0.0136768 0.063587748
0.093717948 0.0136768 0.067867406
0.13416851 0.0136768 0.060063899
0.18930289 0.0136768 0.060325436
0.25125653 0.0136768 0.068328783
0.29373437 0.0136768 0.065963358
0.30004403 0.0136768 0.063227229
0.32128742 0.0136768 0.065063007
-0.32683569 0.023606699 0.068168931
-0.31024534 0.023606701 0.066046409
-0.3020483 0.023606701 0.066727825
-0.29891309 0.023606703 0.06494759
-0.21061589 0.023606701 0.060723629
-0.064405859 0.023606701 0.061436355
-0.048576623 0.023606701 0.062039625
-0.017320052 0.023606701 0.060115192
0.066584103 0.023606699 0.063602768
0.15336597 0.023606699 0.060726799
0.17136785 0.023606701 0.062825501
0.24628489 0.023606699 0.068907894
0.28531078 0.023606701 0.062074572
0.2958003 0.023606701 0.063681155
0.32249832 0.023606701 0.060781412
0.40690368 0.021955654 0.062001429
0.43215117 0.026307976 0.069026515
-0.46325821 0.047580548 0.061600875
-0.45460892 0.049562365 0.060272116
-0.42476279 0.041579187 0.067811802
0.26680458 -0.048243552 0.075952888
0.2559723 -0.038335532 0.072626129
0.26711041 -0.03294025 0.079515241
0.24525931 -0.028982697 0.077346139
0.27776837 -0.017514564 0.078671142
-0.34317595 0.0136768 0.075937033
-0.24029574 0.0136768 0.072163157
-0.23435278 0.0136768 0.072842211
-0.17703284 0.0136768 0.077805907
-0.054810658 0.0136768 0.079450302
-0.0092633665 0.0136768 0.077171147
0.033053711 0.0136768 0.077161193
0.08489117 0.0136768 0.077055439
0.12735462 0.0136768 0.076850481
0.13045889 0.0136768 0.071299911
0.16067979 0.0136768 0.071758658
0.18984346 0.0136768 0.071470648
0.27712202 0.0136768 0.078328952
0.32253337 0.0136768 0.076161638
0.34720787 0.0136768 0.07078822
-0.40606308 0.026297193 0.072457492
-0.3831946 0.020175155 0.075253978
-0.37708399 0.028779229 0.074340597
-0.36870879 0.026421476 0.077104777
-0.35486409 0.023606703 0.071783833
-0.31533036 0.023606701 0.077387005
-0.29475528 0.023606701 0.07160227
-0.23843104 0.023606701 0.078474745
-0.065758169 0.023606701 0.076981813
-0.048412472 0.023606703 0.073743746
0.09991543 0.023606701 0.076175623
0.24388561 0.023606701 0.070553765
0.25146025 0.023606701 0.073856167
0.29809391 0.023606701 0.074864194
0.42232409 0.024600629 0.077331491
-0.43767548 0.034775831 0.076932542
-0.40412968 0.036068738 0.077357233
0.42101738 0.034455657 0.074550427
0.24459633 -0.051603172 0.082850032
0.27806306 -0.044760041 0.081020504
0.25927275 -0.034953408 0.088072434
0.28163013 -0.022119757 0.086808637
-0.37391162 0.01771472 0.089677751
-0.29733822 0.0136768 0.081279449
-0.19460194 0.0136768 0.083115496
-0.11158829 0.013676799 0.083204113
-0.022644579 0.0136768 0.083343215
0.030995369 0.0136768 0.083597854
0.10204905 0.0136768 0.089317739
0.2365358 0.0136768 0.084740862
0.27899534 0.0136768 0.080095313
0.28781083 0.0136768 0.083588466
0.30934504 0.0136768 0.089275405
0.31790182 0.0136768 0.083166897
0.35931164 0.013709385 0.083542272
-0.25054747 0.023606703 0.08669322
-0.10185348 0.023606701 0.08240144
-0.097205557 0.023606701 0.088276528
-0.07700859 0.023606703 0.084798746
0.034849972 0.023606701 0.087210201
0.1527563 0.023606701 0.089098394
0.17403445 0.023606703 0.084495917
0.18012702 0.023606703 0.082579359
0.210614 0.023606701 0.088502415
0.26181158 0.023606701 0.089730136
0.29507196 0.023606701 0.08072935
0.37902641 0.02719152 0.083680168
0.42260781 0.024637252 0.087602012
-0.4491764 0.039827749 0.080539137
-0.40637237 0.036691565 0.08906056
-0.43890679 0.045405895 0.087526768
0.26289725 -0.055070132 0.096766025
-0.23373255 -0.046656713 0.093655348
-0.24916446 -0.038931794 0.097418144
-0.22553137 -0.030519374 0.094866216
-0.25220266 -0.020879908 0.091175482
-0.24691555 -0.022713363 0.091295615
-0.23487464 -0.029804111 0.090392098
0.24908248 -0.029988887 0.0959365
0.25680488 -0.02717473 0.094674349
0.28102925 -0.021547982 0.098785631
-0.2492307 -0.01298963 0.090392098
-0.23012413 -0.016636878 0.090607285
0.27283072 -0.011353161 0.099544004
-0.33210158 0.0136768 0.090982504
-0.3147555 0.0136768 0.098276973
-0.21985571 0.0136768 0.095742688
-0.19188917 0.0136768 0.095992282
-0.16356999 0.0136768 0.097538248
-0.021333262 0.0136768 0.098863676
-0.013588361 0.0136768 0.09395694
0.024737541 0.0136768 0.093086056
0.15222386 0.0136768 0.0962542
0.17282189 0.0136768 0.099253483
0.22962299 0.0136768 0.091603979
0.2331046 0.0136768 0.096990131
0.26405132 0.0136768 0.096183114
-0.34066051 0.023606703 0.094047144
-0.28126168 0.023606701 0.094464168
-0.26775753 0.023606701 0.095804885
-0.19511256 0.023606699 0.097312436
-0.16584283 0.023606701 0.097164333
0.0067720152 0.023606701 0.099900052
0.014516681 0.023606701 0.090536699
0.14947806 0.023606701 0.093226545
0.40762049 0.02203778 0.096568331
-0.25680774 -0.05354926 0.10559952
0.27077791 -0.048430257 0.10219055
0.26120758 -0.035077732 0.10371039
0.2357285 -0.023887582 0.1008781
0.24456824 -0.024561945 0.1038851
-0.23101646 -0.01285632 0.10613437
-0.2608808 -0.0067484877 0.10513131
0.25711253 -0.0071830633 0.10138198
-0.33957756 0.0136768 0.10510442
-0.32567215 0.0136768 0.1091148
-0.31299162 0.0136768 0.10579605
-0.15340926 0.0136768 0.10605468
-0.061843544 0.0136768 0.10772148
-0.034395993 0.0136768 0.10112988
0.031058669 0.0136768 0.10343942
0.06578514 0.0136768 0.10361418
0.18765187 0.0136768 0.10507637
0.29190868 0.018144654 0.10951572
0.3030962 0.0136768 0.10322345
0.35495973 0.0140892 0.10907551
-0.30874306 0.023606701 0.10496242
-0.27277157 0.023606701 0.10434836
-0.25777906 0.023606699 0.10460234
-0.16667446 0.023606699 0.10495658
-0.14224988 0.023606701 0.10599169
-0.10183405 0.023606699 0.10468774
-0.02410388 0.023606699 0.1042451
0.19404325 0.023606701 0.10926894
0.20929997 0.023606703 0.10352159
0.27611834 0.023606701 0.10800074
0.33432627 0.023606701 0.10254432
0.36869234 0.022630945 0.1080336
-0.24264842 -0.032696847 0.11486763
-0.27160332 -0.017916109 0.11189082
-0.23871663 -0.015168021 0.116831
-0.31036717 0.016130593 0.11372069
-0.30164421 0.015699204 0.11365979
-0.29988229 0.017688958 0.11364749
-0.28963587 0.015245875 0.11357595
-0.27547884 0.016658034 0.1134771
-0.26059827 0.0136768 0.11303423
-0.25097817 0.014768031 0.11330605
-0.17074616 0.019175762 0.11274589
-0.15679252 0.019062396 0.11264846
-0.12197058 0.01543348 0.11240534
-0.086890757 0.0136768 0.1113432
-0.053853631 0.019101627 0.11192977
0.017515913 0.014909722 0.11143148
0.023942038 0.017925972 0.11138661
0.16597369 0.016619056 0.11039498
0.17057925 0.018634146 0.11036282
0.18510343 0.019950263 0.11026141
-0.33672786 0.022708397 0.11240537
-0.25482816 0.023606701 0.11043418
-0.16002926 0.023352379 0.11267105
-0.11871732 0.022837065 0.11238263
-0.075778678 0.020931192 0.11208284
-0.038790658 0.021568036 0.1118246
-0.0019202158 0.020730667 0.11156718
0.070364386 0.022853315 0.1110625
0.10334194 0.021979798 0.11083225
