# .PCD v0.7 - Point Cloud Data file format
VERSION 0.7
FIELDS x y z
SIZE 4 4 4
TYPE F F F
COUNT 1 1 1
WIDTH 900
HEIGHT 1
VIEWPOINT 0 0 0 1 0 0 0
POINTS 900
DATA ascii
-0.33099687 -0.031741209 -0.11057401
-0.12529668 -0.03047505 -0.110574
-0.037175141 -0.031582557 -0.110574
0.13715357 -0.030289305 -0.110574
0.3215777 -0.031771298 -0.11034994
-0.28306353 -0.022426538 -0.110574
-0.24897422 -0.028866418 -0.11057401
-0.23383239 -0.02524133 -0.110574
-0.13485256 -0.020530261 -0.110574
-0.12925375 -0.025750475 -0.11057399
-0.10233867 -0.02849219 -0.11057401
-0.081204504 -0.028716251 -0.11057399
-0.078516789 -0.029646628 -0.11057399
-0.042113096 -0.026993675 -0.11057401
0.0010268837 -0.024836395 -0.110574
0.022143718 -0.02596673 -0.11057401
0.034633964 -0.028703336 -0.110574
0.055525318 -0.027815145 -0.110574
0.063742884 -0.022774162 -0.110574
0.088228159 -0.020099424 -0.110574
0.15643105 -0.022220325 -0.110574
0.27530256 -0.021064617 -0.110574
0.28008506 -0.021285348 -0.110574
0.35016406 -0.020432916 -0.11057401
0.36344194 -0.023498004 -0.110574
0.37481523 -0.022569077 -0.11057401
-0.35706037 -0.016696069 -0.11057401
-0.3294417 -0.016387621 -0.110574
-0.2662119 -0.014031287 -0.110574
-0.25808722 -0.017198142 -0.110574
-0.19353992 -0.017627409 -0.110574
-0.11361007 -0.019449925 -0.110574
0.0068534613 -0.013478342 -0.110574
0.079126969 -0.014105001 -0.110574
0.30212855 -0.015935479 -0.11057399
-0.34818271 -0.031771298 -0.10843399
-0.29466337 -0.031771298 -0.10910402
-0.23156227 -0.031771298 -0.10560261
-0.20906241 -0.031771298 -0.10000013
-0.18290289 -0.031771298 -0.10391487
-0.16842467 -0.031771298 -0.10037629
-0.15988457 -0.031771298 -0.10668036
-0.088351987 -0.031771298 -0.10346654
-0.060503051 -0.031771298 -0.10904986
-0.02177076 -0.031771298 -0.1029892
-0.018063799 -0.031771298 -0.10493718
0.027019143 -0.031771298 -0.10976695
0.049261801 -0.031771298 -0.10704024
0.055966206 -0.031771298 -0.10012042
0.11492937 -0.031771302 -0.10304116
0.18128461 -0.031771298 -0.10974157
0.21946521 -0.031771298 -0.10658368
0.25214815 -0.031771298 -0.10166994
0.2626386 -0.031771298 -0.10055075
0.27254316 -0.031771298 -0.10718635
0.29218131 -0.031771298 -0.10657214
0.32725757 -0.031771298 -0.10427178
0.34879148 -0.031771298 -0.10126342
-0.38296205 -0.022930425 -0.10286745
-0.39008754 -0.013109497 -0.10919182
-0.37906149 -0.014144729 -0.10552855
-0.29628277 -0.0130963 -0.10301148
-0.21189424 -0.013096301 -0.10061285
-0.12350389 -0.013096301 -0.10009676
-0.11018208 -0.0130963 -0.10748108
-0.092661165 -0.0130963 -0.1056765
-0.010115966 -0.0130963 -0.10977485
-0.0022375882 -0.013096301 -0.10203179
0.085266881 -0.013096299 -0.10341214
0.20035949 -0.0130963 -0.10561212
0.28798348 -0.0130963 -0.10781103
0.31107813 -0.0130963 -0.10358872
0.35877994 -0.0130963 -0.10454489
0.37859601 -0.017278014 -0.10471047
0.4054752 -0.015483306 -0.104923
0.41700637 -0.014719182 -0.1028323
0.39921594 -0.0039417977 -0.10144753
-0.36578256 -0.031771298 -0.09835913
-0.35743761 -0.031771298 -0.092330471
-0.28251073 -0.031771298 -0.098545864
-0.11012916 -0.031771298 -0.090611242
-0.032198645 -0.031771298 -0.097549029
0.010537066 -0.031771298 -0.091151543
0.1065501 -0.031771298 -0.096198134
0.15405332 -0.031771298 -0.099289909
0.20993766 -0.031771298 -0.099243708
0.3277601 -0.031771298 -0.097210914
0.3707166 -0.031771298 -0.097904421
0.38362134 -0.024415439 -0.09545882
0.40085524 -0.021889504 -0.092875503
-0.40523875 -0.019943206 -0.094036862
-0.35603571 -0.013096299 -0.093466595
-0.033046074 -0.0130963 -0.094733775
-0.026874378 -0.0130963 -0.09893018
0.074352235 -0.0130963 -0.094660565
0.096090406 -0.0130963 -0.096469522
0.1188331 -0.013096299 -0.094890699
0.15497348 -0.013096301 -0.093078889
0.21424341 -0.013096301 -0.092995897
0.32767671 -0.0130963 -0.098427579
-0.43872827 -0.0020711489 -0.09257815
-0.38773775 -0.0090376996 -0.09828335
0.43630081 -0.00196002 -0.094246015
-0.43566549 0.0012858727 -0.093680918
0.4274933 0.0024965019 -0.097527966
0.43765572 0.0031733331 -0.091697425
-0.38122332 -0.03060494 -0.085918829
-0.34991452 -0.031771298 -0.085726105
-0.33079362 -0.031771298 -0.087023415
-0.21871418 -0.031771298 -0.083489127
-0.20502116 -0.031771298 -0.085885249
-0.12719771 -0.031771298 -0.084964179
-0.11291283 -0.031771298 -0.084182225
-0.10571036 -0.031771298 -0.086754307
-0.046846323 -0.031771298 -0.082520634
-0.026449814 -0.031771298 -0.087269939
0.063068151 -0.031771298 -0.080646597
0.12666126 -0.031771298 -0.089739144
0.16463508 -0.031771298 -0.089835003
0.24112824 -0.031771298 -0.089002907
0.28680241 -0.031771298 -0.087616377
0.3075738 -0.031771298 -0.087078944
0.31790793 -0.031771298 -0.080618091
0.37859601 -0.031592924 -0.084561087
-0.4037028 -0.020625127 -0.081002608
-0.41147411 -0.017174965 -0.086890981
-0.40536845 -0.019885637 -0.081472158
-0.36957896 -0.013096299 -0.087688453
-0.32356858 -0.0130963 -0.084900029
-0.28272712 -0.0130963 -0.084502608
-0.25279093 -0.0130963 -0.083611667
-0.23692578 -0.0130963 -0.089058079
-0.14082928 -0.013096301 -0.080298111
-0.12694295 -0.0130963 -0.081613347
-0.048532955 -0.0130963 -0.089435771
-0.013010547 -0.013096301 -0.085199274
0.059894875 -0.0130963 -0.084291257
0.1586253 -0.013096299 -0.087112971
0.18255289 -0.0130963 -0.082846999
0.19310443 -0.0130963 -0.084316075
0.2501049 -0.0130963 -0.081457071
0.37930256 -0.014687738 -0.08654967
-0.44215551 -0.0035541235 -0.08981099
-0.42933625 -0.0092451181 -0.085815288
-0.39370608 -0.0063879904 -0.087276995
-0.43741491 0.013017165 -0.083311111
-0.36080465 -0.031771298 -0.071299866
-0.34309143 -0.031771298 -0.074330054
-0.3244963 -0.031771298 -0.075083517
-0.28133094 -0.031771298 -0.078921951
-0.25265604 -0.031771298 -0.078975126
-0.24429041 -0.031771298 -0.074658006
-0.10321809 -0.031771302 -0.07317812
0.028997513 -0.031771298 -0.076144308
0.060745575 -0.031771298 -0.077456728
0.1278311 -0.031771298 -0.07404869
0.17218032 -0.031771298 -0.076266818
0.20610529 -0.031771298 -0.076447852
0.2352006 -0.031771298 -0.075680159
0.2480433 -0.031771298 -0.079735026
0.33630586 -0.031771298 -0.078797534
0.35607648 -0.031771298 -0.075234734
-0.40409896 -0.020449247 -0.076934889
-0.39773139 -0.023276241 -0.073135719
0.39753446 -0.023363527 -0.070632622
-0.4191995 -0.013745253 -0.076174758
-0.40517834 -0.01997005 -0.077945873
-0.36332801 -0.013096299 -0.079431213
-0.32772231 -0.0130963 -0.073875219
-0.25324652 -0.0130963 -0.076590866
-0.23055214 -0.0130963 -0.079489209
-0.20666297 -0.013096299 -0.07650619
-0.060451522 -0.0130963 -0.070397384
-0.059801877 -0.0130963 -0.079151675
-0.033779442 -0.0130963 -0.074664526
0.074064165 -0.0130963 -0.078400478
0.10824179 -0.0130963 -0.070299163
0.13403365 -0.0130963 -0.077956945
0.15237774 -0.0130963 -0.070135042
-0.43501186 -0.0067252535 -0.073602386
0.45783111 0.007546314 -0.074789219
-0.33306172 -0.031771298 -0.06580469
-0.21846837 -0.031771298 -0.061176799
-0.19727936 -0.031771298 -0.063945383
-0.13743891 -0.031771298 -0.061348874
-0.098632634 -0.031771298 -0.062034193
-0.072624102 -0.031771298 -0.064538956
-0.017962351 -0.031771298 -0.060756862
-0.0036568216 -0.031771298 -0.063355178
0.035579197 -0.031771298 -0.064325862
0.10306452 -0.031771298 -0.060960934
0.20221299 -0.031771298 -0.063064933
0.24836743 -0.031771298 -0.06363745
0.33141893 -0.031771298 -0.069687009
0.38484156 -0.028998673 -0.064997099
-0.41349283 -0.016278785 -0.063484296
-0.38107663 -0.018683743 -0.06585221
-0.34065133 -0.0130963 -0.06359569
-0.33748043 -0.013096301 -0.069736421
-0.29441959 -0.0130963 -0.060335733
-0.28967792 -0.0130963 -0.069309466
-0.15582658 -0.0130963 -0.063042216
-0.12463956 -0.013096301 -0.062964737
-0.077389494 -0.0130963 -0.067328125
0.011267915 -0.0130963 -0.067485258
0.10857038 -0.0130963 -0.060187444
0.24780944 -0.013096301 -0.067288071
0.25529274 -0.0130963 -0.066345423
0.31234187 -0.0130963 -0.069546565
0.3232173 -0.0130963 -0.067907378
0.34821707 -0.0130963 -0.06155635
0.37530255 -0.0130963 -0.061437737
-0.43275043 -0.0077292123 -0.068174876
0.40251768 -0.0024759988 -0.065305427
-0.45057666 0.00018478045 -0.069230631
-0.38162303 -0.030427508 -0.050610013
-0.18607275 -0.031771298 -0.055829663
0.04930019 -0.031771298 -0.051189169
0.087926 -0.031771298 -0.057218734
0.10411522 -0.031771298 -0.054506212
0.1174471 -0.031771298 -0.05779865
0.16737974 -0.031771298 -0.058767423
0.18331152 -0.031771298 -0.0576493
0.1974887 -0.031771298 -0.055547379
0.35693973 -0.031771298 -0.054747902
-0.38219297 -0.021198165 -0.058546122
0.37859601 -0.024088928 -0.056527719
-0.41689914 -0.014766547 -0.050990436
-0.24829665 -0.0130963 -0.05853536
-0.069873437 -0.013096301 -0.050850417
-0.053446025 -0.0130963 -0.053567033
0.011289032 -0.0130963 -0.059779674
0.15508541 -0.013096301 -0.052791968
0.18872827 -0.013096301 -0.054282591
0.20151661 -0.0130963 -0.056568794
0.21302983 -0.013096299 -0.055679157
0.29073876 -0.0130963 -0.052082427
0.3490507 -0.0130963 -0.053089771
0.35872567 -0.013096301 -0.05162093
0.36304632 -0.013096301 -0.054856788
0.37475941 -0.0130963 -0.052355267
0.4174726 -0.014511793 -0.05296088
-0.43143657 -0.0083125327 -0.05609756
-0.42780215 -0.0099260416 -0.05588495
-0.40304473 -0.0022419705 -0.051677965
0.38940191 -0.0082988478 -0.052777231
0.44130605 -0.003931012 -0.055343777
-0.43138355 0.010339322 -0.052798778
0.44546428 0.016590755 -0.054306008
0.47355503 0.013702988 -0.050688569
-0.18901528 -0.031771298 -0.04668162
-0.035321791 -0.031771298 -0.046982203
-0.020654675 -0.031771298 -0.049246103
0.0095607061 -0.031771298 -0.040651143
0.019516669 -0.031771298 -0.044063546
0.084608547 -0.031771298 -0.04831763
0.22631741 -0.031771298 -0.04118273
0.26735297 -0.031771298 -0.045060981
0.37422305 -0.031771298 -0.04074594
-0.39336383 -0.025215168 -0.046341322
-0.37859601 -0.023551732 -0.040828615
0.37859601 -0.023956798 -0.040983144
0.38509309 -0.028887 -0.044971962
-0.38297737 -0.011151074 -0.042531192
-0.3647185 -0.013096301 -0.042500578
-0.34131575 -0.0130963 -0.047357131
-0.31338644 -0.013096301 -0.045315187
-0.30877197 -0.0130963 -0.042437878
-0.29467976 -0.0130963 -0.040771533
-0.26392785 -0.0130963 -0.045953918
-0.25660071 -0.013096299 -0.04382069
-0.18429776 -0.0130963 -0.049897108
0.097289689 -0.013096301 -0.044495262
0.1742104 -0.0130963 -0.042015038
0.19331342 -0.0130963 -0.040119573
0.24475533 -0.0130963 -0.046581835
0.25629696 -0.013096301 -0.048560619
0.29492223 -0.013096299 -0.044993345
0.37859601 -0.013450836 -0.048809841
0.42211732 -0.012449758 -0.049337603
-0.44292384 -0.003212689 -0.043575078
-0.43666252 -0.0059924317 -0.046100568
0.4450973 -0.002247921 -0.044160269
0.42426166 0.007177568 -0.04343541
0.44134539 0.014762019 -0.04470652
-0.28757644 -0.031771298 -0.037446056
-0.24188608 -0.031771298 -0.039377645
-0.2207942 -0.031771298 -0.034085605
-0.18037769 -0.031771298 -0.035624597
-0.15028076 -0.031771298 -0.033306278
-0.12249562 -0.031771298 -0.034725904
-0.032750331 -0.031771298 -0.03278143
0.033495475 -0.031771298 -0.03322899
0.063112289 -0.031771298 -0.033831082
0.13803704 -0.031771298 -0.034524553
0.18481106 -0.031771298 -0.031464275
0.19333006 -0.031771298 -0.031725738
0.21315745 -0.031771298 -0.039189696
0.266736 -0.031771298 -0.037698053
0.27431917 -0.031771298 -0.03668594
0.30518991 -0.031771298 -0.033757612
0.32220146 -0.031771298 -0.032663252
-0.39284712 -0.025444552 -0.031101046
0.38487685 -0.028983017 -0.034422353
-0.41800943 -0.014273725 -0.034874003
-0.37859601 -0.017724514 -0.038520813
-0.18849739 -0.0130963 -0.03800156
-0.13610403 -0.013096301 -0.035555627
-0.1269742 -0.0130963 -0.038806461
-0.068303362 -0.0130963 -0.036054853
-0.057272505 -0.0130963 -0.03405885
-0.022418566 -0.013096301 -0.03113584
0.03903798 -0.013096301 -0.033631548
0.088109516 -0.013096299 -0.037299275
0.096846633 -0.0130963 -0.030202828
0.11865248 -0.0130963 -0.03329625
0.17665601 -0.0130963 -0.034990661
0.20060921 -0.0130963 -0.03160404
0.22603098 -0.0130963 -0.038503427
0.28610456 -0.0130963 -0.035823248
0.29590821 -0.0130963 -0.032415081
0.36257219 -0.0130963 -0.031505182
-0.44199115 -0.0036267154 -0.031589318
0.4340688 -0.0071439701 -0.03521153
0.44419295 0.016026229 -0.033633597
-0.36723691 -0.031771298 -0.026445165
-0.31651586 -0.031771298 -0.027316399
-0.26408708 -0.031771298 -0.023031773
-0.24624282 -0.031771298 -0.026680591
-0.16495313 -0.031771298 -0.021535587
-0.15504807 -0.031771298 -0.028830994
-0.14267743 -0.031771298 -0.023443986
-0.11643098 -0.031771298 -0.024306664
0.015191328 -0.031771298 -0.024721179
0.044921998 -0.031771298 -0.024116665
0.096077062 -0.031771298 -0.027762152
0.18900719 -0.031771298 -0.020058477
0.3653416 -0.031771298 -0.023549557
-0.41020992 -0.017736381 -0.025497492
-0.37709892 -0.0130963 -0.022696095
-0.3356998 -0.0130963 -0.026729912
-0.32957649 -0.013096299 -0.022642598
-0.23126887 -0.0130963 -0.029810973
-0.20969737 -0.013096301 -0.020965196
-0.18135133 -0.0130963 -0.02636994
-0.17187604 -0.013096301 -0.023947019
0.0096732304 -0.0130963 -0.02701284
0.29985839 -0.0130963 -0.029650455
0.31903499 -0.013096299 -0.024387641
0.35333753 -0.0130963 -0.022058848
-0.44726399 -0.0012858222 -0.026677733
-0.43644187 -0.006090411 -0.022813689
-0.40803078 -2.8324022e-05 -0.028155409
0.43204427 -0.0080426605 -0.02675445
-0.47109896 0.0092958529 -0.027603664
-0.45916665 0.0039984025 -0.024654949
-0.41328019 0.0023021894 -0.028762752
0.46114841 0.0048778295 -0.021581372
0.46885166 0.026973769 -0.020880312
0.48071966 0.020895302 -0.026150871
-0.37508011 -0.031771298 -0.018792262
-0.31290689 -0.031771298 -0.018445548
-0.29941413 -0.031771298 -0.012461754
-0.24246106 -0.031771298 -0.018092703
-0.2138989 -0.031771298 -0.014469108
0.025376171 -0.031771298 -0.011435321
0.06442064 -0.031771298 -0.013175223
0.087903835 -0.031771298 -0.013289652
0.10511391 -0.031771298 -0.017519087
0.13214406 -0.031771298 -0.012230184
0.17456123 -0.031771298 -0.016488351
0.24684009 -0.031771298 -0.01428144
0.36748552 -0.031771298 -0.015127718
0.37172413 -0.031771302 -0.01471512
-0.39980614 -0.022355093 -0.014396386
0.38688791 -0.026636463 -0.012717351
-0.42392334 -0.0116483 -0.013638128
-0.41093451 -0.017414702 -0.019613586
-0.40636933 -0.019441396 -0.013553075
-0.37400034 -0.013096301 -0.01243183
-0.32193846 -0.0130963 -0.019372338
-0.29214254 -0.013096299 -0.014715144
-0.26457983 -0.0130963 -0.011989331
-0.094867706 -0.0130963 -0.013954017
-0.052695245 -0.013096299 -0.018957332
0.10138518 -0.0130963 -0.016071634
0.18777715 -0.0130963 -0.017486282
0.20656195 -0.0130963 -0.015340698
0.21018842 -0.013096301 -0.019232564
0.25275975 -0.0130963 -0.014403081
0.27549726 -0.0130963 -0.011220717
0.30764079 -0.0130963 -0.018523771
0.31093106 -0.013096301 -0.019483019
0.35541737 -0.0130963 -0.015819144
-0.4338237 -0.0072528259 -0.014772218
0.44167727 -0.0037665067 -0.015566005
-0.47097695 0.0092416704 -0.011291207
-0.46550962 0.0068144249 -0.016630201
0.41663817 0.0037930491 -0.010164279
-0.47569218 0.01133501 -0.010317863
-0.44218901 0.015136634 -0.014564372
0.44275063 0.015385972 -0.013487332
-0.37077928 -0.031771298 -0.0043675285
-0.36785302 -0.031771298 -0.0019107135
-0.27710062 -0.031771298 -0.0042290296
-0.19560032 -0.031771298 -0.0097783813
-0.161559 -0.031771298 -0.0063342322
-0.15762152 -0.031771298 -0.0094835795
-0.069456428 -0.031771298 -0.0045968448
-0.053864308 -0.031771298 -0.0088937674
-0.026189785 -0.031771298 -0.0086722355
0.00015912019 -0.031771298 -0.0070183566
0.015260335 -0.031771298 -0.0062942882
0.053106312 -0.031771298 -0.0001763294
0.079173885 -0.031771298 -0.005871254
0.15422216 -0.031771298 -0.0078609008
0.16978903 -0.031771298 -0.0027522901
0.28893846 -0.031771298 -0.0033999467
0.33298942 -0.031771298 -0.0084378645
-0.40103832 -0.021808058 -0.00305783
-0.39208782 -0.025781652 -0.0062395837
-0.38913181 -0.027093995 -0.0036282092
-0.37859601 -0.025642715 -0.0061838012
-0.40731508 -0.019021515 -0.008627085
-0.37367779 -0.013096301 -0.007646841
-0.32312173 -0.0130963 -0.0072701168
-0.25788236 -0.0130963 -0.005012386
-0.2334273 -0.013096299 -0.0070617697
-0.18242952 -0.013096301 -0.0085025476
-0.14722407 -0.013096301 -0.0049566054
-0.069303237 -0.013096301 -0.0055851294
-0.013709523 -0.0130963 -0.0024857493
0.023070142 -0.013096301 -0.0048953346
0.041840807 -0.0130963 -0.0028790275
0.06015785 -0.013096299 -0.0096240193
0.086215496 -0.0130963 -0.0031455271
0.098000489 -0.013096301 -0.0068362164
0.34014139 -0.0130963 -0.0049401354
0.42564109 -0.010885794 -0.00013694353
-0.42507166 0.0075371517 -0.0049332986
0.41267222 0.0020322702 -0.0050800629
-0.47522634 0.011128224 -0.0022561941
0.43406355 0.011529168 -0.0010885894
0.46272013 0.024251603 -0.0078497138
-0.29871744 -0.031771298 0.0061995499
-0.27556083 -0.031771298 0.007658992
-0.2367925 -0.031771298 0.0065497793
-0.028771685 -0.031771298 0.0034847222
0.014463423 -0.031771298 0.0020776587
0.030040577 -0.031771298 0.0082639791
0.044177052 -0.031771298 0.0055886041
0.091357425 -0.031771298 0.0089697326
0.14233336 -0.031771298 0.00076102046
0.20392743 -0.031771298 0.0072065545
0.27364418 -0.031771298 0.0046120156
0.2958574 -0.031771298 0.0047588712
0.38584614 -0.024394073 0.0040732641
0.39155531 -0.026018158 0.0026399177
-0.4161911 -0.015081028 0.001523925
-0.33356836 -0.0130963 0.005760699
-0.26073471 -0.0130963 0.0088286418
-0.093236521 -0.0130963 0.0099319685
-0.074416094 -0.0130963 0.0022239876
-0.0385876 -0.013096299 0.00021096622
-0.018755108 -0.0130963 0.0049418551
0.12384228 -0.0130963 0.0074509094
0.13552426 -0.013096299 0.0051419549
0.19817325 -0.0130963 0.0045475876
0.20540132 -0.013096299 0.0030121752
0.38120759 -0.011936817 0.0017928891
0.41284168 -0.016567741 0.0021205954
-0.45073658 0.00025579496 0.0091729816
-0.48057526 0.013502905 0.0060516139
0.43518919 0.012028901 0.00053942576
0.46137643 0.023655131 0.0021918002
-0.27231377 -0.031771298 0.01493049
-0.26862982 -0.031771298 0.014428541
-0.22145221 -0.031771298 0.016439341
-0.16443887 -0.031771298 0.01180762
-0.14173862 -0.031771298 0.014679953
-0.099032059 -0.031771298 0.012194499
-0.077023797 -0.031771298 0.011525532
-0.044000041 -0.031771298 0.017946625
-0.013119712 -0.031771298 0.019806514
-0.0051709232 -0.031771298 0.017493075
0.049951769 -0.031771298 0.018012965
0.07235758 -0.031771298 0.016149072
0.17844227 -0.031771298 0.015922762
0.19733314 -0.031771298 0.016273767
0.21069741 -0.031771298 0.017525699
0.23250008 -0.031771298 0.01164412
0.30275431 -0.031771298 0.0106162
0.31527466 -0.031771298 0.011635683
-0.40135914 -0.02166562 0.014252542
-0.38488179 -0.028980814 0.015124429
-0.37859601 -0.024256546 0.0132646
-0.40977263 -0.01793047 0.01102715
-0.36895904 -0.013096299 0.019112162
-0.35056567 -0.0130963 0.011828968
-0.096499041 -0.0130963 0.014642697
-0.088301584 -0.013096301 0.016887538
-0.068844214 -0.013096299 0.013814485
-0.052701011 -0.0130963 0.013546767
0.11342622 -0.013096299 0.016429216
0.14991921 -0.0130963 0.017809074
0.16817944 -0.013096301 0.014046106
0.1841791 -0.013096301 0.012911821
0.19088703 -0.0130963 0.018917365
0.20093808 -0.0130963 0.016975245
0.23737058 -0.013096299 0.015696984
0.34604162 -0.013096299 0.012928436
0.36339638 -0.0130963 0.01209224
-0.44554985 -0.0020469823 0.015623793
-0.40370697 -0.0019478927 0.016553305
-0.39235318 -0.0069884192 0.010422062
0.40478575 -0.0014689895 0.016449362
-0.47258541 0.0099558253 0.013353447
-0.46517435 0.0066655986 0.014009934
0.421911 0.0061339689 0.014370434
0.46350563 0.024600435 0.015063106
-0.37659714 -0.031771298 0.026802007
-0.32576308 -0.031771298 0.02316761
-0.27375382 -0.031771298 0.023522448
-0.24968043 -0.031771298 0.024553757
-0.23313308 -0.031771298 0.028364539
-0.096341096 -0.031771298 0.024271686
-0.04324954 -0.031771298 0.025319805
0.12645149 -0.031771298 0.023886999
0.1360642 -0.031771298 0.027698662
0.25194827 -0.031771298 0.027784698
0.31528187 -0.031771298 0.023483908
-0.40302157 -0.020927573 0.023701459
-0.39949983 -0.022491038 0.022559782
-0.37859601 -0.020112265 0.026417803
-0.42458916 -0.011352713 0.029776784
-0.40579215 -0.019697571 0.024165839
-0.36174536 -0.013096301 0.021714605
-0.3269406 -0.0130963 0.023454394
-0.26941785 -0.0130963 0.028635055
-0.22109421 -0.0130963 0.02308955
-0.12689322 -0.0130963 0.028250737
-0.073048905 -0.013096301 0.021812897
0.1457935 -0.0130963 0.027834538
0.17184755 -0.0130963 0.027408268
0.18758088 -0.0130963 0.028813198
0.27048093 -0.013096299 0.025235461
0.28772956 -0.0130963 0.02910101
0.33869314 -0.0130963 0.026000518
0.36155266 -0.0130963 0.021294203
0.37859601 -0.019898152 0.027611841
-0.3998515 -0.0036594698 0.027652966
-0.46055311 0.0046138968 0.029927615
-0.43060815 0.0099952072 0.027468771
0.46762574 0.0077534877 0.023552047
-0.47427279 0.010704902 0.029801618
-0.47908229 0.025305435 0.023922522
-0.45645022 0.021468017 0.025719065
-0.32141766 -0.031771298 0.037221678
-0.27493218 -0.031771298 0.036368575
-0.26897633 -0.031771298 0.039137118
-0.25543705 -0.031771298 0.031377926
-0.20732379 -0.031771298 0.039284885
-0.1675027 -0.031771298 0.032610007
-0.10305385 -0.031771298 0.035185687
-0.076296374 -0.031771298 0.03472618
-0.062993146 -0.031771298 0.034032248
-0.056333661 -0.031771298 0.033099554
-0.0088070594 -0.031771298 0.033969313
0.017843083 -0.031771298 0.030770736
0.05344703 -0.031771298 0.039997995
0.12590556 -0.031771298 0.038690157
0.13519664 -0.031771298 0.039998449
0.17364241 -0.031771298 0.034923565
0.22207077 -0.031771298 0.036851928
0.23971771 -0.031771298 0.037732262
0.32843754 -0.031771298 0.034229647
-0.40342855 -0.020746866 0.038853921
-0.39966932 -0.022415778 0.036681484
-0.37859601 -0.027666736 0.037953645
-0.41457742 -0.015797365 0.034623727
-0.40773046 -0.018837068 0.031140458
-0.3661952 -0.013096301 0.030523133
-0.27762532 -0.013096301 0.037946321
-0.2472402 -0.0130963 0.034907319
-0.16147172 -0.0130963 0.038063943
-0.13900235 -0.0130963 0.032007139
-0.11954198 -0.013096299 0.031612165
-0.090436742 -0.0130963 0.039814383
-0.020728961 -0.013096301 0.038160775
0.0051255114 -0.0130963 0.031232117
0.010242168 -0.013096301 0.032476392
0.096515335 -0.0130963 0.034139205
0.10550112 -0.0130963 0.034361858
0.11280601 -0.013096299 0.037917607
0.16475111 -0.0130963 0.033489089
0.27762258 -0.0130963 0.03632823
0.2833927 -0.0130963 0.035282414
0.3610031 -0.0130963 0.031718284
0.43477961 -0.0068287011 0.030807178
-0.45552224 0.0023803047 0.033840761
-0.4259305 0.0079184696 0.034497119
-0.47573867 0.011355678 0.03595563
0.48193666 0.014106964 0.031047774
-0.46608078 0.025743643 0.037557155
0.45788914 0.022106841 0.032147631
-0.38027421 -0.031026302 0.043435626
-0.31891948 -0.031771298 0.044227447
-0.28074908 -0.031771298 0.042162217
-0.1940555 -0.031771298 0.046850853
-0.17963336 -0.031771298 0.048997335
-0.094795868 -0.031771298 0.048766151
-0.040319331 -0.031771298 0.049782749
-0.0017958058 -0.031771298 0.042859487
0.16174841 -0.031771298 0.047240701
0.235984 -0.031771298 0.044252492
0.26615012 -0.031771298 0.042667624
0.29261619 -0.031771298 0.042091958
0.34824458 -0.031771298 0.041632976
-0.39002103 -0.026699215 0.047252834
-0.38419431 -0.025706042 0.045481339
-0.42577404 -0.01082666 0.045948669
-0.37859601 -0.01572719 0.048798922
-0.35121486 -0.0130963 0.045811433
-0.3239724 -0.013096301 0.041873362
-0.27128878 -0.013096301 0.046604551
-0.17335519 -0.0130963 0.046877462
-0.12529746 -0.013096301 0.046148814
-0.075883605 -0.013096299 0.043430187
0.034174256 -0.0130963 0.048140578
0.073185071 -0.0130963 0.043108329
0.081058025 -0.0130963 0.04482976
0.1307925 -0.013096299 0.042235892
0.19445628 -0.013096301 0.048644919
-0.43492836 -0.0067626243 0.048203606
-0.47580653 0.011385794 0.043366991
-0.33500469 -0.031771298 0.058967002
-0.26034489 -0.031771298 0.056362309
-0.00098467502 -0.031771298 0.051920049
0.1160534 -0.031771298 0.05035416
0.1479283 -0.031771298 0.054724418
0.22012538 -0.031771298 0.057408061
0.27023175 -0.031771298 0.052832514
0.34247917 -0.031771298 0.050281543
0.37859601 -0.030802986 0.056861319
-0.38572192 -0.02860783 0.055873062
0.39133042 -0.02611799 0.051874697
-0.40585822 -0.019668214 0.056579903
-0.37717837 -0.0130963 0.05438159
-0.24568278 -0.013096301 0.055189658
-0.21714368 -0.0130963 0.052501917
-0.1788933 -0.013096299 0.050533026
-0.14602958 -0.013096301 0.052493401
-0.07758671 -0.013096299 0.051083867
-0.048006445 -0.0130963 0.058205955
0.012163495 -0.0130963 0.053096548
0.051467851 -0.0130963 0.059893891
0.063002989 -0.013096299 0.059969556
0.22879547 -0.0130963 0.057487447
0.2376208 -0.013096301 0.050366204
0.36897388 -0.0130963 0.052762005
0.37859601 -0.01469877 0.058388025
0.40892121 -0.018308561 0.055994645
0.41714805 -0.014656029 0.052604806
-0.42865488 -0.0095477244 0.050429389
0.44739479 -0.0012278298 0.057507876
-0.46096885 0.0047982838 0.054211538
-0.42409357 0.0071028871 0.056521844
0.45183054 0.019417092 0.050942779
0.46062618 0.023321968 0.051994707
-0.2722162 -0.031771298 0.063287258
-0.11595057 -0.031771298 0.061424434
-0.077088907 -0.031771298 0.061773073
-0.032200247 -0.031771298 0.061547685
0.092242688 -0.031771298 0.061809357
0.10272901 -0.031771298 0.066221491
0.11767982 -0.031771302 0.069212645
0.12961726 -0.031771298 0.063124627
0.14301977 -0.031771298 0.060102634
0.18366098 -0.031771298 0.063299075
0.20058063 -0.031771298 0.065064937
0.37179095 -0.031771298 0.065543585
-0.39406091 -0.024905678 0.061898079
-0.38720554 -0.02794919 0.065209441
0.38296899 -0.022946145 0.062759332
-0.42304516 -0.012038115 0.066107884
-0.35253733 -0.0130963 0.066756666
-0.31715637 -0.013096301 0.067694239
-0.27312246 -0.0130963 0.06408298
-0.26841176 -0.0130963 0.062186964
-0.24587446 -0.0130963 0.066480935
-0.21181901 -0.0130963 0.069699846
-0.17301133 -0.0130963 0.063741483
-0.16831015 -0.0130963 0.065480255
-0.15224411 -0.0130963 0.062619701
-0.14027414 -0.013096299 0.061989635
-0.0865926 -0.013096299 0.067512415
-0.058407247 -0.0130963 0.064992689
0.071461871 -0.0130963 0.062057815
0.083198719 -0.013096301 0.064730048
0.16672823 -0.0130963 0.067875139
0.20421666 -0.0130963 0.069297105
0.27153993 -0.0130963 0.061828729
0.28563637 -0.013096299 0.065935448
0.30608159 -0.0130963 0.069692045
0.33733273 -0.013096301 0.061958738
0.37305912 -0.013096301 0.066832766
0.38104504 -0.012008978 0.066564254
0.42098889 -0.012950978 0.064438373
-0.44519442 -0.0022050107 0.064930357
0.40285403 -0.0023263632 0.067944825
0.43448502 -0.0069592148 0.065957233
0.44520664 -0.002199254 0.062169932
-0.46205622 0.0086830901 0.06915585
-0.46212715 0.015852123 0.065279976
-0.45001671 0.018611874 0.06463562
-0.37310457 -0.031771298 0.078865305
-0.33248577 -0.031771298 0.074410364
-0.32428682 -0.031771298 0.070855975
-0.16630976 -0.031771298 0.074705467
-0.10694431 -0.031771298 0.077553466
-0.085002974 -0.031771298 0.07828021
0.031301104 -0.031771298 0.071513414
0.054614544 -0.031771298 0.07170783
0.083452567 -0.031771298 0.076773643
0.30164924 -0.031771298 0.078006372
0.34323668 -0.031771298 0.072571844
0.38124412 -0.030595705 0.070373505
-0.3846342 -0.026696831 0.075983882
0.37859601 -0.027855607 0.071677051
-0.40713018 -0.019103514 0.071202166
-0.37932181 -0.014731136 0.07686764
-0.34168753 -0.013096301 0.074959628
-0.28100672 -0.013096299 0.071952417
-0.27435726 -0.0130963 0.072044417
-0.26911345 -0.0130963 0.075075082
-0.14989677 -0.0130963 0.073173292
-0.13271511 -0.0130963 0.072128162
-0.11691746 -0.013096301 0.077809647
-0.073766932 -0.0130963 0.077474475
0.0021136552 -0.0130963 0.079873607
0.02215232 -0.0130963 0.077715717
0.052136838 -0.0130963 0.077421777
0.088592224 -0.0130963 0.073477805
0.14897028 -0.0130963 0.076333217
0.16888331 -0.0130963 0.078417532
0.29478645 -0.0130963 0.075574152
0.30995443 -0.013096301 0.077745117
0.32478681 -0.0130963 0.076982513
0.33186996 -0.013096301 0.070355356
0.426983 -0.010289873 0.076596208
-0.43385315 -0.0072399327 0.074187189
-0.39102441 -0.0075783576 0.073009424
0.42895505 -0.0094142742 0.070715569
0.45715296 0.0043873638 0.077268228
-0.45925733 0.013184226 0.070109114
0.45633727 0.014904326 0.072677568
-0.45324859 0.020046704 0.072818585
-0.3262426 -0.031771298 0.084732354
-0.29157698 -0.031771298 0.089223862
-0.17057782 -0.031771298 0.088901073
-0.13681999 -0.031771298 0.082355097
-0.12175365 -0.031771298 0.081399754
-0.043438457 -0.031771298 0.083479896
-0.035337079 -0.031771298 0.081570297
-0.027477428 -0.031771298 0.082645044
-0.014058298 -0.031771298 0.080742843
0.0023381077 -0.031771298 0.083983801
0.046620611 -0.031771298 0.088486455
0.087705828 -0.031771298 0.088335037
0.11798642 -0.031771298 0.087071747
0.12564591 -0.031771298 0.081772104
0.15763016 -0.031771298 0.083229609
0.16036597 -0.031771298 0.084828906
0.33272803 -0.031771298 0.08797738
0.35995069 -0.031771298 0.084618412
0.36752269 -0.031771298 0.08476416
0.37951586 -0.031362947 0.081335045
-0.41976851 -0.01349275 0.084989421
-0.40528771 -0.019921444 0.089202717
-0.31650302 -0.0130963 0.087346807
-0.29593065 -0.0130963 0.080857724
-0.13116047 -0.0130963 0.085231118
-0.061538145 -0.013096301 0.084554642
-0.022455603 -0.013096299 0.08852461
-0.002400741 -0.0130963 0.084993273
0.035507962 -0.013096301 0.085501067
0.41249424 -0.016722359 0.085530795
-0.44302523 -0.00074872724 0.089153141
0.39717972 -0.004845527 0.085700616
-0.43039554 0.0099007152 0.083198257
-0.42100322 0.005730947 0.082091451
-0.41060817 0.0011161068 0.081807971
0.41394553 0.0025977362 0.087369628
0.45178699 0.0047848984 0.081285685
-0.38151345 -0.030476147 0.095849484
-0.36863187 -0.031771298 0.096743032
-0.32607651 -0.031771298 0.096704096
-0.29225478 -0.031771298 0.093573347
-0.11062771 -0.031771298 0.094457574
-0.093234159 -0.031771298 0.091812029
-0.059615403 -0.031771298 0.090402782
0.037937038 -0.031771298 0.09107285
0.04202494 -0.031771298 0.090992242
0.056729987 -0.031771298 0.090460658
0.096540347 -0.031771298 0.099434286
0.10740426 -0.031771295 0.095946185
0.12431002 -0.031771298 0.096599743
0.14230868 -0.031771298 0.098633707
0.30116975 -0.031771298 0.091892175
0.37123185 -0.031771298 0.091204971
0.38188431 -0.03031151 0.092773721
-0.38458678 -0.0265901 0.098859042
-0.37859601 -0.026851341 0.090198472
-0.42015302 -0.013322052 0.092617653
-0.40642411 -0.019416947 0.093775734
-0.38057697 -0.017558318 0.096590504
-0.37123865 -0.0130963 0.09268368
-0.28756094 -0.013096299 0.090810858
-0.27617693 -0.0130963 0.097377971
-0.23330161 -0.013096301 0.096947491
-0.16940504 -0.013096299 0.092095226
-0.091763124 -0.0130963 0.094789758
-0.048511565 -0.0130963 0.097447507
8.4191561e-06 -0.013096299 0.090130031
0.029817052 -0.0130963 0.090231895
0.1181484 -0.013096301 0.098890498
0.12956169 -0.0130963 0.097477317
0.17964837 -0.0130963 0.098139353
0.25303882 -0.013096301 0.092520267
0.28872287 -0.0130963 0.091590516
0.29724923 -0.0130963 0.090213142
0.31190798 -0.0130963 0.097338691
0.33131391 -0.0130963 0.09905719
0.40635526 -0.00077191414 0.093020789
-0.41067904 0.0011476248 0.091903649
-0.37859601 -0.031032611 0.10184956
-0.27329236 -0.031771298 0.10105547
-0.22611725 -0.031771298 0.10096413
-0.21655138 -0.031771298 0.10172227
-0.021162342 -0.031771298 0.10710403
0.12134922 -0.031771298 0.10711739
0.22283986 -0.031771298 0.10319638
0.25510156 -0.031771298 0.10994878
0.31208876 -0.031771298 0.10111296
0.38191634 -0.020575142 0.10645527
-0.41989464 -0.01012705 0.10252613
-0.39872462 -0.017157968 0.10836874
-0.3786101 -0.014905231 0.1057988
-0.35023743 -0.0130963 0.10689746
-0.33866259 -0.0130963 0.10629579
-0.29497081 -0.0130963 0.10512498
-0.21540613 -0.013096299 0.10282966
-0.13562816 -0.013096301 0.10427383
-0.074495643 -0.013096301 0.10557217
-0.069546714 -0.013096301 0.10325237
-0.048906043 -0.013096299 0.10631791
0.011262923 -0.013096301 0.10613837
0.058843851 -0.013096301 0.10270442
0.12353949 -0.013096301 0.10185954
0.13184386 -0.013096299 0.10684161
0.14463735 -0.0130963 0.10001078
0.17135312 -0.013096301 0.10925639
0.33207625 -0.0130963 0.10373029
0.41134641 -0.016812472 0.1068315
0.42484766 -0.0092933355 0.10051111
-0.33421546 -0.031771298 0.11019648
-0.27831376 -0.031345699 0.110574
-0.26003441 -0.031050656 0.11057401
-0.037492394 -0.030331232 0.110574
0.28447983 -0.031691566 0.110574
0.33212137 -0.030594045 0.110574
-0.36006773 -0.020261083 0.11057399
-0.27937335 -0.028080119 0.110574
-0.1979377 -0.024778277 0.110574
-0.18622553 -0.024708556 0.110574
-0.17078122 -0.021378128 0.110574
-0.16510877 -0.02141187 0.110574
-0.082471989 -0.024990994 0.110574
-0.061830431 -0.02447916 0.11057401
0.033715308 -0.024372101 0.110574
0.058875769 -0.02326652 0.11057401
0.10904656 -0.027827982 0.110574
0.19364405 -0.029154699 0.11057401
0.32665339 -0.025942637 0.110574
0.37667543 -0.025668092 0.11057401
-0.34532258 -0.017400546 0.11057401
-0.30504611 -0.015443305 0.110574
-0.26465422 -0.0159047 0.110574
-0.25324303 -0.015809385 0.110574
-0.23465298 -0.016953807 0.110574
-0.21338332 -0.015202054 0.11057399
-0.20624343 -0.015334276 0.11047667
-0.13951105 -0.014353445 0.110574
-0.12287204 -0.013096299 0.11013599
-0.086937785 -0.0130963 0.11039063
0.090583086 -0.016051702 0.11057399
0.1703974 -0.016149834 0.110574
0.23617893 -0.015933312 0.110574
0.28637955 -0.0130963 0.11028299
0.37857422 -0.0130963 0.11017548
