# .PCD v0.7 - Point Cloud Data file format
VERSION 0.7
FIELDS x y z
SIZE 4 4 4
TYPE F F F
COUNT 1 1 1
WIDTH 908
HEIGHT 1
VIEWPOINT 0 0 0 1 0 0 0
POINTS 908
DATA ascii
0.26448524 0.038062178 -0.1413545
0.095290668 0.046090081 -0.14148524
0.11292288 0.045496993 -0.14261279
0.1313608 0.045422152 -0.14369005
0.150436 0.041713346 -0.14469883
0.16326751 0.04966234 -0.14049692
0.22479495 0.043771125 -0.14670476
0.24784914 0.044334505 -0.14570773
0.26689115 0.046567425 -0.1441782
0.16468941 0.050121613 -0.14173263
0.20114213 0.050316583 -0.1422579
0.24245308 0.050222166 -0.14603339
-0.38837793 0.073514491 -0.14193928
-0.24299352 0.03593887 -0.13564357
-0.077157691 0.036557671 -0.13405457
0.047648869 0.034437235 -0.13107932
0.053475153 0.036874291 -0.13639261
0.088951074 0.03702784 -0.13857305
0.1431914 0.036434352 -0.1369753
0.22314432 0.034191146 -0.13025734
0.27294052 0.035579413 -0.13431929
-0.33020151 0.044086289 -0.13247557
-0.27256441 0.046622988 -0.13197313
-0.25130868 0.04534632 -0.13696028
-0.24540131 0.048445109 -0.13722566
-0.2019995 0.045155007 -0.13660756
-0.18425159 0.045163482 -0.13567081
-0.17065053 0.042243283 -0.13784882
-0.15789782 0.047440629 -0.13452256
0.0058753947 0.04011162 -0.13606903
0.048552342 0.047575571 -0.134886
0.05316728 0.046006076 -0.13861431
0.08262416 0.04709718 -0.13355753
-0.38552308 0.059026234 -0.13728902
-0.36340454 0.051404476 -0.13299181
-0.40296745 0.066216812 -0.13639624
-0.40205196 0.073123381 -0.13064958
-0.28865674 0.032875985 -0.12586418
-0.1178492 0.033457827 -0.12780795
0.05120597 0.032682855 -0.12521945
0.077741846 0.031644043 -0.12174968
0.29377866 0.032556869 -0.12479864
0.34432846 0.039283149 -0.1294947
0.3543016 0.03507898 -0.12526724
-0.31205291 0.04772111 -0.12763591
-0.22989491 0.045152958 -0.12706012
-0.2186646 0.044846948 -0.12604007
-0.16596326 0.044635519 -0.12533422
-0.1526686 0.043292772 -0.12084915
-0.13399686 0.044536591 -0.12500241
-0.10280541 0.044210952 -0.12391649
-0.070894137 0.04483749 -0.12600869
-0.012730989 0.044605162 -0.12523286
0.045405235 0.043299373 -0.1208705
0.22448908 0.044548303 -0.12504333
-0.32811341 0.050048359 -0.12119105
-0.38231918 0.067159951 -0.12875277
-0.37465701 0.065423012 -0.12988016
-0.42135227 0.076773196 -0.12547135
-0.27901289 0.028727006 -0.11200631
-0.23378399 0.028182667 -0.11018816
-0.2186344 0.028143566 -0.11005757
-0.20795457 0.028540274 -0.1113826
0.042882081 0.028221067 -0.11031643
0.051210854 0.02967163 -0.11516141
0.3536987 0.028627902 -0.11167535
-0.33235714 0.03618389 -0.11119326
0.0083786994 0.030018158 -0.11631884
0.011212904 0.030311681 -0.11729924
0.069091566 0.030668493 -0.11849075
0.10901273 0.030025028 -0.11634178
0.27383444 0.03058476 -0.11821152
0.37519628 0.030954743 -0.11795972
0.3908363 0.030761344 -0.11203135
-0.28126776 0.041866053 -0.11608366
-0.21763566 0.040508389 -0.11154861
-0.20029184 0.040545829 -0.11167367
-0.0076961769 0.041077144 -0.11344882
0.086866602 0.040095128 -0.11016893
0.17199163 0.041207772 -0.11388426
0.38880089 0.040969793 -0.11299677
-0.33842552 0.05209085 -0.11872078
-0.43420744 0.066703752 -0.11609107
-0.3927505 0.066100292 -0.116181
-0.43495786 0.076886609 -0.11513489
-0.41703776 0.072651997 -0.11597731
-0.13451302 0.026270019 -0.1026118
-0.024917491 0.025798641 -0.10056266
-0.0088701248 0.027039431 -0.10595651
0.094195619 0.027065856 -0.10607139
0.13369569 0.028026126 -0.10966531
0.18814887 0.0265055 -0.10363546
0.20453614 0.025686948 -0.10007712
0.25876307 0.027177116 -0.10655504
0.27056116 0.025952142 -0.10122995
0.28796765 0.027981328 -0.10951567
0.30053931 0.027602363 -0.10824992
-0.30057883 0.03992128 -0.10819228
-0.25862974 0.038195122 -0.10263999
-0.22516075 0.038391769 -0.10349493
-0.20783427 0.039358702 -0.10769871
-0.18999761 0.038511854 -0.104017
-0.17790501 0.039068133 -0.10643543
0.12282617 0.039747648 -0.10900827
0.17746669 0.039525002 -0.10811023
0.2316635 0.038350742 -0.10331656
0.25954601 0.039775934 -0.10910201
0.32245412 0.039085932 -0.10651286
0.39850894 0.037403837 -0.10817686
-0.37520006 0.045273975 -0.10141618
-0.35895532 0.042724919 -0.1089257
0.13361196 0.04001772 -0.10991015
-0.409069 0.054989669 -0.10347454
-0.43967628 0.068261236 -0.1084381
-0.27433071 0.025123116 -0.097626075
-0.14679268 0.024499765 -0.094916306
-0.13000126 0.023394946 -0.090113536
0.0085212067 0.025084898 -0.097459935
0.01485179 0.024890402 -0.096614435
0.041242599 0.023783796 -0.091803908
0.065384321 0.0245339 -0.095064685
0.27333719 0.024293533 -0.094019786
0.3704477 0.024393894 -0.093614675
0.40535167 0.027922256 -0.091160715
-0.27413049 0.036271393 -0.094276518
-0.24733597 0.036935605 -0.097164191
-0.2068243 0.036945634 -0.0972078
-0.18737128 0.036942236 -0.097193047
-0.16165246 0.037503209 -0.099631861
-0.15496877 0.036429416 -0.094963513
-0.13445286 0.037457142 -0.099431597
-0.11158976 0.035344869 -0.090248398
-0.072085783 0.03555695 -0.09117043
-0.010772495 0.036784325 -0.096506849
0.021849899 0.037338492 -0.09891618
0.080593631 0.036963139 -0.097284302
0.094367243 0.037228383 -0.098437473
0.14954464 0.036943406 -0.097198106
0.16340393 0.036473382 -0.095154822
0.19986764 0.035569832 -0.091226667
0.20407009 0.035828762 -0.092352405
0.25367644 0.037376676 -0.09908177
0.28126729 0.036779601 -0.09648595
0.29232854 0.037279651 -0.098659948
0.30364993 0.035461932 -0.090757355
0.3643468 0.036212947 -0.093870468
-0.33240896 0.044996437 -0.099147871
0.42373848 0.044412382 -0.092012614
-0.41459906 0.065566212 -0.091525644
-0.39838868 0.061682589 -0.093754999
-0.3018198 0.02248621 -0.083930135
-0.26614422 0.022850737 -0.08774779
-0.23800364 0.02176881 -0.083044529
-0.22958469 0.022143379 -0.084672824
-0.1973287 0.021246258 -0.080584757
-0.18493611 0.023255557 -0.089507595
-0.095672898 0.022409501 -0.085829698
-0.029743865 0.021922126 -0.083711013
0.049746409 0.022091351 -0.084446654
0.072270818 0.022180744 -0.084835261
0.12067398 0.021307554 -0.080961242
0.13959275 0.021477289 -0.08177726
0.25615522 0.02177616 -0.083076499
0.27062589 0.022610491 -0.08670342
0.3312507 0.021621866 -0.082405753
0.37653181 0.023366377 -0.087782919
0.40167657 0.025874514 -0.085378215
-0.36995494 0.039930154 -0.084993139
-0.30104166 0.034637135 -0.085269429
-0.24034822 0.034984779 -0.088682912
-0.17071798 0.034462307 -0.086411446
-0.12945411 0.034231171 -0.085406557
-0.11499575 0.034851447 -0.088103235
-0.0059694406 0.034204502 -0.0852907
0.091401711 0.034844652 -0.088073857
0.11291228 0.034418948 -0.086223051
0.17121001 0.034833774 -0.088026553
0.2588127 0.035277918 -0.089957327
0.30324137 0.034630395 -0.087142214
0.33325243 0.034097709 -0.084826343
0.41818005 0.030140165 -0.088308379
-0.40114772 0.049369913 -0.088951781
-0.34784052 0.045059219 -0.081778333
-0.33667353 0.042863447 -0.08532688
0.42202702 0.041981354 -0.083768174
-0.44068053 0.059897527 -0.087944865
-0.45284915 0.074096367 -0.083471403
0.0081279725 0.019632041 -0.070670448
0.1582972 0.019549264 -0.070162043
0.17898029 0.01971031 -0.07115116
0.19858254 0.019691743 -0.071037114
0.31557119 0.019620027 -0.070596658
-0.29013541 0.020912005 -0.078531824
-0.20725732 0.020793263 -0.077802531
-0.16752076 0.020734169 -0.077439576
-0.044189572 0.020759959 -0.077597968
0.13514732 0.020348739 -0.075072311
0.22227399 0.021001 -0.079078421
0.24098071 0.020845402 -0.078122757
0.40458959 0.023695014 -0.070629656
-0.37545282 0.039008088 -0.072206803
-0.35891223 0.035460401 -0.077881441
-0.32636908 0.037914582 -0.074322499
-0.23952627 0.032221988 -0.074789979
-0.20664299 0.031707719 -0.071631044
-0.13943909 0.03299265 -0.079523973
-0.041490495 0.032923602 -0.079099871
-0.037944775 0.032897826 -0.078941554
0.056927919 0.032634601 -0.077324502
0.10013177 0.032405466 -0.075916991
0.11169784 0.032975689 -0.079419643
0.12529406 0.03283599 -0.07856153
0.18728605 0.032319508 -0.075388998
0.26578709 0.031488009 -0.070281439
0.28481376 0.032982387 -0.079460785
0.40207651 0.036097717 -0.076408952
-0.42963654 0.054195821 -0.074752942
-0.38470605 0.054170426 -0.076490492
-0.45728746 0.067103058 -0.075157501
-0.42958021 0.066433772 -0.076731108
-0.29483199 0.019059755 -0.06685099
-0.19936964 0.018218365 -0.061987814
-0.16045205 0.019150304 -0.067711666
-0.017037787 0.018990822 -0.066732153
0.015717931 0.017944213 -0.060303994
0.086151294 0.019317586 -0.068739094
0.16279081 0.018571649 -0.064157635
0.28302518 0.018157862 -0.061616212
-0.3291485 0.025061252 -0.064298786
-0.29612631 0.029982993 -0.060473591
0.067707084 0.029952157 -0.060847357
0.42869735 0.027994476 -0.061793063
-0.37657613 0.038885575 -0.069667831
-0.28895915 0.030218786 -0.062485136
-0.23459849 0.03082196 -0.066190198
-0.19649802 0.030090274 -0.061695747
-0.094709866 0.030503608 -0.064234219
-0.0042769029 0.031138482 -0.068134449
0.057874095 0.031053413 -0.067611903
0.077371232 0.031262442 -0.068895884
0.085067563 0.030571081 -0.064649135
0.14419073 0.030449767 -0.063903958
0.18577649 0.030088782 -0.06168659
0.23310111 0.031059284 -0.067647979
0.3147651 0.030238494 -0.062606201
0.42223829 0.039433368 -0.069341846
0.43902296 0.030978788 -0.062811546
-0.35754317 0.045283403 -0.067669146
-0.43999866 0.055218201 -0.06408602
-0.41795433 0.050135966 -0.069550671
-0.18682998 0.01733226 -0.056545462
-0.17141804 0.017432565 -0.057161525
-0.1697865 0.017392471 -0.056915276
-0.053161696 0.017650025 -0.058497142
-0.031528652 0.016763013 -0.052165158
0.091814011 0.017594529 -0.058156289
0.12934472 0.017704144 -0.058829531
0.17171858 0.017728124 -0.058976807
0.18527566 0.016904421 -0.053621709
0.19619569 0.0176432 -0.058455218
0.25361037 0.016936045 -0.053664792
0.35234827 0.017563714 -0.057967022
-0.34697184 0.027865577 -0.050653905
-0.28310567 0.029758424 -0.059657328
-0.26728615 0.028491383 -0.050196204
-0.10952041 0.029246449 -0.056513511
-0.051674075 0.028825387 -0.053635918
0.041051589 0.028888689 -0.054287866
0.062674873 0.029401621 -0.057465628
0.096294761 0.028569613 -0.051001847
0.13982286 0.029219449 -0.056346625
0.1527838 0.028719179 -0.052542131
0.24277882 0.029018991 -0.055115297
0.30001381 0.02949032 -0.058010489
0.34861818 0.028812965 -0.053508002
-0.36493406 0.033570603 -0.056964088
-0.40177727 0.043106951 -0.053767189
-0.2972284 0.016608354 -0.049071204
-0.26848403 0.016412908 -0.048558913
-0.0074023381 0.016072357 -0.045051076
0.1842123 0.016041631 -0.044734582
0.23530099 0.015970863 -0.044005655
0.3106266 0.016058287 -0.044906143
-0.23121899 0.027647022 -0.041500524
-0.19475415 0.027949784 -0.044618532
-0.15347719 0.027958259 -0.044705816
-0.14880925 0.028175091 -0.046937842
-0.13954943 0.027795877 -0.043030724
-0.0217661 0.02813217 -0.046496999
-0.017335773 0.02826006 -0.047814418
-0.0040229745 0.028433535 -0.04960046
0.043033976 0.028469738 -0.049973272
0.18699858 0.02802375 -0.045380253
0.29248798 0.02798095 -0.044939488
0.32187194 0.027812906 -0.043208886
0.34378862 0.02793609 -0.044477496
-0.36333659 0.031437088 -0.041849516
-0.33654284 0.03600153 -0.041289806
-0.32435217 0.032786451 -0.042336199
-0.31566125 0.031132616 -0.048750892
0.40219316 0.031586792 -0.045317668
-0.45835263 0.069793418 -0.047385078
-0.21498279 0.015435563 -0.038491815
-0.19497986 0.015469695 -0.038843371
-0.054007262 0.014671383 -0.030620394
-0.006418217 0.014937216 -0.033358604
0.0035341941 0.015045711 -0.034476146
0.08285062 0.015472326 -0.038870491
0.14485635 0.015394238 -0.038066141
0.20250304 0.015445985 -0.038599148
0.23395446 0.015482114 -0.038971301
0.26934719 0.014716054 -0.031080538
0.29860052 0.015450982 -0.038650639
-0.2034788 0.027295701 -0.037882429
-0.12952387 0.026895905 -0.033762969
-0.034255326 0.026901631 -0.033824109
0.095733121 0.027167555 -0.03656273
0.11061121 0.02654662 -0.030168023
0.12500429 0.027225278 -0.037157185
0.14189637 0.026844086 -0.033231489
0.26190689 0.026540231 -0.030102236
0.38268811 0.028150696 -0.036687817
0.41421989 0.021331845 -0.03764151
0.42748952 0.024783235 -0.038186207
0.44463867 0.029506288 -0.038703296
-0.38423824 0.036733765 -0.037912242
-0.34724978 0.038447745 -0.036620289
-0.32577279 0.032454003 -0.035189867
0.40636429 0.03105904 -0.0321366
0.42338115 0.035444524 -0.036761653
-0.32189146 0.018893216 -0.029378861
-0.31617063 0.017127536 -0.02542349
-0.27134275 0.01436617 -0.027476562
-0.25671127 0.014242404 -0.024104957
-0.22698833 0.014134586 -0.020771323
-0.21714246 0.014308015 -0.026148146
-0.18565789 0.014396037 -0.027784202
-0.16662756 0.01419622 -0.022671439
-0.069790319 0.014544502 -0.029313475
-0.044109102 0.014528409 -0.029147679
-0.036548734 0.014241373 -0.024074735
0.0018782765 0.014323022 -0.026615616
0.01552938 0.014270391 -0.024976363
0.042056989 0.014236961 -0.023938287
0.09594287 0.014393169 -0.027754661
0.21580258 0.014335014 -0.026239332
0.30824351 0.014122147 -0.020379458
0.34319729 0.014297984 -0.025837801
-0.34899515 0.025855098 -0.021102248
-0.25148612 0.026210103 -0.025627736
-0.19650675 0.026099682 -0.022208417
-0.14579375 0.026227109 -0.026153326
-0.13593236 0.026222754 -0.026025601
-0.083308965 0.026233338 -0.026347212
-0.040733743 0.026042119 -0.02042583
0.091763787 0.026162026 -0.024139021
0.11322581 0.026037075 -0.02026963
0.15557514 0.026352463 -0.028168509
0.22048116 0.026291814 -0.027543906
0.24707994 0.026142094 -0.023521749
0.4365105 0.026009887 -0.023400687
0.44115812 0.027400235 -0.027120933
-0.34724668 0.037581488 -0.028020922
-0.33066586 0.032894246 -0.024485568
0.46555835 0.033834185 -0.020787956
-0.39153117 0.049556676 -0.026995614
0.44431961 0.040416751 -0.029543836
-0.45476151 0.054809056 -0.025452493
-0.40490782 0.053077485 -0.023327254
-0.47005078 0.069981657 -0.022120319
-0.24965043 0.013992796 -0.016385401
-0.2321005 0.01408147 -0.019137859
-0.0089527788 0.013979929 -0.015975462
0.013596712 0.014084027 -0.019202931
0.03850849 0.01409683 -0.019600963
0.050189901 0.014054318 -0.018283937
0.08351288 0.013947183 -0.014965109
0.091208547 0.013970297 -0.015681829
0.19162759 0.013964611 -0.015510481
0.22574712 0.014073416 -0.018884351
0.24866647 0.013907223 -0.013734577
0.28565469 0.013790512 -0.0101191
0.38329443 0.014885117 -0.01227663
-0.29771596 0.026030686 -0.014851338
-0.22661969 0.025850378 -0.014488352
-0.20856813 0.025962275 -0.017953431
-0.17732179 0.025724648 -0.01059499
-0.023307133 0.025783924 -0.012430585
0.027714748 0.025795482 -0.012788489
0.039136253 0.025815526 -0.013409124
0.053334869 0.025869235 -0.01507231
0.062850848 0.025718812 -0.010414251
0.15110782 0.025988702 -0.018771807
0.17783703 0.025894161 -0.015844187
0.22139746 0.025954761 -0.01772077
0.27723914 0.025995776 -0.018990858
0.30176526 0.025763009 -0.011782934
0.33174857 0.025946202 -0.017455725
0.34448934 0.025728058 -0.010700614
0.35479131 0.025818517 -0.013501803
0.40335298 0.029560685 -0.013763498
-0.42336515 0.045923945 -0.015473028
-0.37143582 0.043654561 -0.014185878
0.44800651 0.040701732 -0.01266952
-0.47056764 0.058657933 -0.011812131
-0.43928617 0.050276257 -0.015954278
-0.40913779 0.054066706 -0.018457666
-0.32642314 0.019221179 -0.0065726042
-0.31694582 0.016738528 -0.0081691807
-0.22353403 0.013709759 -0.0076167975
-0.11039345 0.01352186 -0.0017955849
-0.10251843 0.013666084 -0.0062637203
0.14704579 0.013471722 -0.00024228667
0.19546326 0.013626486 -0.0050336677
0.36642891 0.013737131 -0.0066903341
0.41442969 0.019656548 -0.0065319133
-0.34361932 0.023888167 -0.0060674828
-0.3225601 0.029957676 -0.0027036604
-0.31978855 0.029285831 -0.0051865824
-0.20297489 0.025438119 -0.0017222839
-0.18736368 0.02569638 -0.0097196568
0.026420904 0.025450889 -0.0021177765
0.03914886 0.025409553 -0.000837664
0.1366087 0.025530122 -0.0045713061
0.14533484 0.025567984 -0.0057437322
0.16460077 0.02539888 -0.00050728
0.31617188 0.025516227 -0.004141001
0.37013093 0.025647551 -0.0026938419
0.41704023 0.020068714 -0.00029591264
0.42419019 0.021978959 -0.0032038989
-0.39162463 0.037048593 -0.0086081475
-0.38896275 0.036252446 -0.006480217
0.43930978 0.037924778 -0.00046591714
0.4671919 0.033812042 -0.006818539
-0.43631899 0.049172673 -0.0071135121
-0.41615513 0.04366285 -0.0065905578
-0.43085343 0.059394788 -0.00090302381
-0.46573567 0.069141313 -0.0082288543
-0.23415372 0.013552775 0.0027535232
-0.18555894 0.013571398 0.0033305387
-0.15187708 0.013636887 0.0053594843
-0.12511548 0.013645543 0.0056276666
-0.1186796 0.013578188 0.0035408598
-0.10920427 0.013694629 0.0071484852
-0.016519383 0.013488229 0.00075379718
0.054925375 0.013645474 0.0056255497
0.19041279 0.013501009 0.001149705
0.3024174 0.013677754 0.0066255261
0.32752517 0.01359067 0.0039275857
0.37249893 0.014039525 0.0094430167
0.39752501 0.016485944 0.0075015081
-0.35301065 0.026414642 0.0051230211
-0.18506387 0.025700554 0.0098493267
-0.12727013 0.025453229 0.0021861491
-0.073174663 0.025659377 0.0085748378
-0.06824854 0.025420871 0.0011859743
-0.054662235 0.025395535 0.00040286922
-0.049332235 0.025422966 0.0012507956
0.032469559 0.02564989 0.0082804887
0.096638627 0.025442621 0.0018617567
0.25585443 0.025701841 0.0098891743
0.26421982 0.025612198 0.0071131592
0.32404849 0.025478056 0.002959105
0.40222237 0.029080011 0.004826691
0.42982307 0.023434645 0.0008733655
0.42493162 0.034113131 0.003600596
0.43662488 0.037308428 0.0039050451
-0.45023736 0.052803315 0.0023376399
-0.32320368 0.018653 0.015807441
-0.26700276 0.014087327 0.019315084
-0.21768138 0.013819197 0.011007865
-0.11855473 0.014012752 0.017001487
0.043695703 0.014100166 0.019705607
0.14448321 0.013854749 0.012103798
0.20350957 0.014079306 0.019066866
0.25925374 0.013964727 0.015518164
0.29286546 0.013852267 0.012034089
-0.35866979 0.028257623 0.014144516
-0.2207793 0.025874883 0.015247871
-0.13827097 0.025916789 0.016543854
0.013139112 0.025790859 0.012645814
0.068877384 0.025740925 0.011099573
0.090143517 0.025866181 0.014978308
0.19425672 0.025911603 0.016384955
0.2634508 0.025712956 0.010233358
0.29309934 0.025910545 0.016352238
0.36081684 0.025908154 0.016278125
0.38504609 0.026934251 0.010887405
0.42020458 0.021323483 0.014663465
-0.33597296 0.034124769 0.018058911
-0.32661694 0.031502273 0.015844164
0.47055098 0.039018892 0.018671269
0.45814133 0.043388143 0.010450022
0.47064635 0.040333312 0.016940298
-0.46337801 0.056758851 0.013580788
-0.427488 0.058993824 0.016340932
-0.46199965 0.068278097 0.012834892
-0.43587843 0.061304305 0.017091993
-0.30709818 0.015265811 0.021437436
-0.15566249 0.014408343 0.027912052
-0.013247021 0.014169327 0.021846715
0.086445265 0.01441401 0.02797043
0.16695631 0.014313528 0.02632859
0.27929607 0.01415104 0.021288808
0.29617584 0.014320578 0.02654101
0.33762255 0.014192693 0.022574835
0.38766232 0.015728135 0.024783427
0.39537132 0.01660813 0.021153105
0.40753794 0.018712468 0.022161275
-0.19836143 0.026513081 0.029823719
-0.16806665 0.026134446 0.02328592
0.051674001 0.026187059 0.024915159
0.14657994 0.026047137 0.020582072
0.17673343 0.026178468 0.024649087
0.21519008 0.026330508 0.027943486
0.26643637 0.026473023 0.029411199
0.2850939 0.026042052 0.020424627
0.43878898 0.026734916 0.026523015
-0.39803851 0.039550245 0.028546106
0.41207179 0.031561166 0.021721307
0.42810455 0.035752095 0.026763812
-0.40015692 0.040094875 0.028225519
0.45943767 0.044423733 0.028442748
0.46499529 0.045816626 0.024953153
-0.41728172 0.056826282 0.029696414
-0.29213428 0.015524747 0.039379254
-0.25426072 0.014735142 0.031278241
-0.16464752 0.015509776 0.039257336
-0.12066156 0.015418546 0.038317613
-0.024900705 0.015008306 0.034091964
0.016414598 0.015250435 0.036586005
0.080952644 0.015478315 0.03893327
0.11437096 0.015358438 0.037698478
0.2012313 0.015095319 0.034988232
0.21436742 0.014983278 0.033834159
0.23226845 0.014666276 0.03056889
0.24397846 0.014690827 0.03082178
0.30682731 0.014613927 0.030029682
0.34376544 0.014890232 0.032875743
0.38769603 0.016187036 0.031075796
0.39582443 0.017212648 0.030709626
-0.13778949 0.027374854 0.038700562
-0.12010558 0.026645189 0.031183572
-0.10924572 0.027083414 0.035698783
-0.075377986 0.026733246 0.032089856
-0.063760422 0.027059173 0.035447873
-0.016067928 0.026853861 0.033334762
-0.0032298295 0.02694656 0.034287892
0.035687514 0.02726255 0.037542146
0.06635429 0.027451888 0.039492048
0.099501878 0.027386604 0.038819697
0.15256901 0.026785273 0.032626905
0.17249607 0.027346276 0.03840439
0.18171819 0.026660925 0.031346288
0.19294606 0.027357787 0.03852294
0.21557814 0.027207058 0.036970641
0.23161839 0.026966535 0.034493625
0.28440776 0.02720499 0.036949366
0.31232524 0.026943097 0.034252234
0.38629079 0.02810109 0.032487385
0.3933939 0.029204354 0.035041105
0.44640833 0.029439287 0.033250652
-0.338388 0.035745479 0.033754945
-0.32672578 0.032957837 0.037617452
0.40349123 0.030866846 0.035734393
0.41418174 0.032508709 0.030293876
0.43393537 0.03763631 0.030022316
-0.45225409 0.054601703 0.031366318
-0.43260637 0.050006039 0.038880978
-0.28667095 0.015751343 0.041745577
-0.26784527 0.015998844 0.044294953
-0.24945728 0.016189134 0.046255045
-0.20469926 0.015731411 0.04154028
-0.18425962 0.016244365 0.046823937
-0.11435606 0.016379707 0.048218027
-0.036792286 0.016063057 0.044956375
0.014948666 0.015821453 0.042467758
0.072047785 0.016296873 0.047364786
0.085700586 0.016526619 0.049731284
0.15678513 0.015810058 0.042350382
0.20570974 0.016345669 0.04786741
0.21573018 0.016093068 0.045265503
0.38457435 0.017684583 0.049641147
-0.33064246 0.02316785 0.048171863
-0.17742667 0.028073216 0.045890808
-0.075894609 0.028450219 0.049775708
0.030670865 0.0278976 0.044082217
0.076856986 0.028450929 0.049780667
0.12809934 0.027890492 0.044009015
0.20691526 0.027768921 0.042757012
0.23998123 0.027629321 0.041319337
0.26727861 0.027714454 0.042196088
0.27292192 0.028200123 0.047197755
0.31779194 0.028147113 0.046651836
0.33845395 0.027621519 0.041238982
0.3560496 0.027628358 0.041309416
0.39025095 0.029553503 0.042681776
0.41811323 0.022993136 0.04503832
0.43189359 0.027085237 0.049140804
0.39847395 0.030469887 0.040308591
0.40786237 0.033048071 0.049370013
-0.41236225 0.044929739 0.043236725
-0.40315077 0.042930417 0.048296232
-0.38164538 0.048601739 0.044425115
-0.443461 0.053652272 0.045738094
-0.41389877 0.057912871 0.049652256
-0.46735263 0.06058117 0.040477872
-0.18881796 0.017792096 0.05937092
-0.17708795 0.017634217 0.058401212
-0.075510316 0.016839214 0.052951142
-0.02396901 0.017759418 0.059170209
0.00426884 0.01690338 0.053612109
0.081144899 0.016965169 0.054248545
0.18815483 0.017556714 0.057925198
0.24068096 0.0166981 0.051497608
0.26346514 0.016618526 0.05067797
0.30498248 0.016955551 0.054149475
0.35854048 0.016633002 0.050827082
0.38722557 0.018627387 0.055129025
-0.33191773 0.023854164 0.051540151
-0.16963325 0.028990408 0.054940842
-0.14422518 0.028600337 0.051318645
-0.13833894 0.028927956 0.054557346
-0.018867273 0.028754536 0.052907489
0.07828024 0.028890846 0.054311167
0.089422517 0.02910573 0.055649225
0.12020083 0.029381929 0.057345837
0.20597297 0.029383037 0.057352643
0.22755566 0.02948181 0.057959378
0.24556524 0.028658926 0.051922753
0.26571187 0.029581953 0.058574513
0.34321252 0.029054197 0.055332672
0.42650968 0.0262524 0.054782607
0.43105379 0.026980611 0.050374027
0.3963204 0.031806111 0.056072071
0.41099006 0.035016939 0.05923681
-0.40542862 0.044956882 0.059077777
0.445833 0.043199647 0.053102776
0.46502501 0.041979671 0.051617816
-0.46460855 0.064257614 0.052958976
-0.27948335 0.018804803 0.06559097
-0.26211822 0.0181669 0.061672956
-0.24589232 0.019190721 0.067961261
-0.23904324 0.018323172 0.062632777
-0.15113004 0.018236071 0.062097806
-0.11554135 0.019470824 0.069681637
-0.050689504 0.019404905 0.06927678
8.700788e-05 0.018974451 0.066632941
0.02107273 0.018091964 0.061212704
0.088263951 0.018577285 0.064193539
0.13383988 0.018655635 0.06467478
0.21192038 0.018242668 0.062138319
0.24842192 0.018782565 0.065454371
0.25858811 0.018352631 0.062813722
0.31624365 0.018426519 0.063267536
0.32101122 0.018780485 0.065441594
0.33729753 0.018280229 0.062369026
0.34973145 0.018621 0.064462021
0.1252943 0.02996484 0.060926482
0.25887269 0.029815741 0.060010616
-0.2959972 0.030550987 0.063987724
-0.24102166 0.031028893 0.067462631
-0.14538211 0.030322976 0.063126519
-0.061216835 0.03006717 0.061555609
0.0034137587 0.030716982 0.065546662
0.024911705 0.030417595 0.06370762
0.058573045 0.031137267 0.068128347
0.10684648 0.030485256 0.064123228
0.14739476 0.030297235 0.062968276
0.22662486 0.030432148 0.063797012
0.36598438 0.030442076 0.06353651
0.39160967 0.032840669 0.06641686
0.4390204 0.031319592 0.064836957
0.45503837 0.03550509 0.063783869
-0.41344506 0.048339818 0.066186219
-0.42880997 0.052934039 0.068611078
-0.40772679 0.058486514 0.064909332
-0.43396664 0.066057585 0.067421727
0.025689021 0.019907888 0.072366081
-0.2473627 0.020722071 0.077366814
-0.19261554 0.020180361 0.074039623
-0.08690796 0.020720433 0.077356756
0.038028553 0.020652698 0.076940708
0.055572197 0.020859051 0.078208134
0.086561382 0.020294003 0.074737608
0.15938422 0.021120768 0.079815596
0.19754307 0.02024179 0.074416906
0.20989102 0.020935606 0.078678332
0.25074142 0.020375159 0.075236067
0.39524034 0.023324411 0.077757902
-0.35784435 0.035269149 0.07847324
-0.1852887 0.03232877 0.075447381
-0.17819315 0.032811329 0.078411594
-0.15137568 0.032646287 0.077397861
-0.14533024 0.032053567 0.073757008
-0.045687072 0.032247555 0.07494916
0.06837263 0.032380704 0.075766414
0.080485195 0.031934209 0.073023699
0.10854349 0.032328345 0.07544478
0.12003919 0.03240104 0.075891316
0.1942658 0.032828815 0.078519017
0.31520274 0.031454984 0.070079975
0.32406202 0.031966846 0.073224202
0.40015525 0.035212781 0.073002361
0.41096315 0.038367223 0.079397671
-0.38165075 0.040957578 0.073756717
-0.34359497 0.042657979 0.074628234
0.4224591 0.0408886 0.077645421
0.4453451 0.042712361 0.075690851
-0.29488569 0.022314128 0.085186347
-0.26800588 0.021768814 0.083046168
-0.1535783 0.021859761 0.083441541
-0.13592115 0.02169539 0.082726985
-0.12937129 0.021934416 0.083766066
0.025925681 0.021838918 0.083350927
0.058017176 0.023278842 0.089610539
0.21467769 0.022483144 0.086151488
0.26523784 0.022472214 0.086103976
0.36352912 0.023008719 0.088324316
-0.28450409 0.035197102 0.089607708
-0.24421623 0.034104455 0.084857315
-0.17098841 0.034461118 0.086407945
-0.049596988 0.034956556 0.088561818
-0.016621156 0.035125073 0.089294441
0.069193952 0.033579648 0.082575656
0.075741939 0.034972284 0.088630289
0.092653289 0.03333845 0.081527039
0.16013181 0.034698334 0.087439269
0.1864015 0.034923203 0.088416912
0.19177055 0.033649467 0.082879201
0.24139018 0.034174282 0.085160881
0.3604975 0.033272244 0.081239179
0.38343388 0.034512524 0.081949659
0.40283513 0.038050305 0.085560232
-0.38163564 0.04283737 0.083843343
-0.37288061 0.04037004 0.083496504
0.4265255 0.043466788 0.084862337
-0.43039539 0.056992602 0.0875111
-0.37792996 0.052994117 0.080459617
-0.45080006 0.068536595 0.089446157
-0.42020455 0.066134587 0.087504245
-0.18455374 0.023468394 0.090434551
0.012790263 0.024792708 0.096191585
0.066923872 0.024179634 0.093526438
0.21179152 0.025535982 0.099422723
0.23663189 0.025199102 0.097958244
0.26260763 0.025216829 0.098035306
0.41308844 0.029788695 0.092062257
-0.3471978 0.03717719 0.099447682
-0.16344753 0.037082538 0.097804837
-0.068749122 0.036062501 0.093369953
-0.045772865 0.035746004 0.091993965
0.0083116619 0.037534609 0.099770263
0.016135905 0.036046229 0.093299389
0.085753344 0.036278822 0.094310589
0.12950367 0.036583867 0.095636815
0.29441267 0.037367769 0.099044912
0.31432831 0.036175989 0.093863532
0.35983095 0.037310816 0.098797306
0.37497532 0.036875341 0.095059104
0.39779186 0.039915487 0.097271182
-0.38845164 0.047966275 0.097571105
-0.33780289 0.046071783 0.097497314
-0.40693301 0.053060055 0.097820945
-0.37896195 0.055966407 0.091974035
-0.24684289 0.02786072 0.10911477
-0.20450184 0.027806349 0.10893317
-0.1741962 0.026616057 0.104118
-0.15658198 0.026487837 0.10356062
-0.14660117 0.026983282 0.1057144
-0.12324458 0.027534069 0.10802379
-0.045012295 0.025791878 0.10053515
-0.028895766 0.027481917 0.10784961
0.086828791 0.026760677 0.1047467
0.10059889 0.026924269 0.10545786
0.25966352 0.027789187 0.10887586
0.3618114 0.026538718 0.1037515
-0.32805628 0.03221152 0.10048783
-0.29567245 0.037883814 0.10093598
-0.24638255 0.037810579 0.10097007
-0.17057152 0.038605846 0.10442758
-0.13412093 0.039062895 0.10641465
-0.12489852 0.037888646 0.10130947
-0.08644361 0.038226023 0.10277627
-0.075759098 0.038314462 0.10316076
0.068575412 0.039433639 0.10796054
0.22462079 0.038508072 0.10400249
0.28430349 0.038902909 0.1057191
0.37495345 0.038940143 0.10402738
-0.37382257 0.046297908 0.10728717
-0.31606555 0.04087355 0.10050011
0.39806861 0.04228935 0.10724863
-0.40413076 0.05383376 0.10426986
-0.35697183 0.054295518 0.109548
-0.43347526 0.062243659 0.10601982
-0.42394519 0.071098931 0.10405465
-0.28604302 0.029571556 0.11482883
-0.12747315 0.029384287 0.11420338
-0.077707782 0.028349923 0.11074868
-0.036526501 0.029136045 0.11337426
0.0048687868 0.029810738 0.11562769
0.079986021 0.028584 0.11153048
0.095874444 0.029033212 0.11303081
0.14768913 0.028677799 0.11184376
0.17567122 0.0292008 0.11359055
0.34740663 0.029299315 0.11391972
-0.26162624 0.030130157 0.11669453
-0.25499904 0.030345919 0.11741516
-0.12638955 0.030106232 0.11661461
-0.015471056 0.031101355 0.11993825
0.063443668 0.030226983 0.11701792
0.093432203 0.030553121 0.11810704
-0.37659401 0.048682749 0.11264384
-0.36551321 0.047141064 0.11740288
-0.31136069 0.043621123 0.11481947
-0.30119279 0.041305289 0.11258951
-0.2943874 0.042556114 0.11825211
-0.25186557 0.040481478 0.11146044
-0.21016744 0.04078244 0.11246568
-0.19053164 0.042384416 0.11781587
-0.091632791 0.040406134 0.11120896
-0.016414542 0.041799676 0.11586343
0.10588338 0.040641133 0.11199323
0.15711258 0.041681148 0.11546685
0.17284887 0.042430967 0.1179715
0.18670751 0.042597078 0.1185278
0.24222597 0.041466735 0.11475071
0.29526314 0.041103624 0.11353848
0.30275658 0.042233631 0.11731315
-0.39288068 0.064847767 0.11203298
-0.42210504 0.073303007 0.11362767
-0.32855508 0.03944543 0.12504476
-0.31080315 0.035403956 0.12729865
-0.2211331 0.033572048 0.12819038
-0.19013248 0.03343375 0.1277283
-0.10763186 0.032966495 0.12616737
-0.044129699 0.033903152 0.12929657
0.04883723 0.033159837 0.12681389
0.22124715 0.03405891 0.1298168
0.28907046 0.032445971 0.12442957
0.29161745 0.032078188 0.12320118
0.30677 0.032971237 0.12618399
0.3247686 0.033006746 0.12630257
0.34416771 0.034442745 0.12954083
-0.33502433 0.041196272 0.12500677
-0.31624207 0.048723757 0.12734286
-0.30834612 0.04725606 0.12875071
-0.25485986 0.045499019 0.12822035
-0.19218031 0.044469424 0.12478056
-0.15326001 0.045365363 0.12777194
-0.12153802 0.044818863 0.12594695
-0.067763127 0.045661651 0.12876332
0.022134101 0.043050379 0.12003963
0.057099648 0.045593467 0.12853469
0.061218094 0.045141101 0.12702429
0.070693091 0.045336049 0.12767483
0.13156621 0.043161869 0.12041304
0.14604247 0.043250713 0.12070948
0.17490159 0.045025073 0.12663642
0.18848526 0.043853942 0.12272511
0.24490526 0.043291777 0.12084761
0.33233747 0.045683969 0.12883486
0.35159323 0.040245209 0.12728193
-0.32436731 0.050376538 0.12553714
-0.41626537 0.06553106 0.12975945
-0.37628627 0.064072371 0.12410002
-0.28509626 0.035641734 0.13133174
-0.25101739 0.034893434 0.13260297
-0.20716999 0.035694532 0.13498624
-0.10727258 0.037687991 0.13543457
-0.044329286 0.037116345 0.1345481
-0.0010478281 0.038491666 0.13577084
0.021463092 0.03844434 0.13681516
0.045944147 0.035405084 0.13420756
0.12346702 0.035608504 0.13475582
0.16639817 0.035802908 0.13495412
0.21076016 0.03493496 0.13274282
0.24849822 0.034533672 0.13140252
0.2848365 0.036013704 0.13584483
-0.30294734 0.041811284 0.13029185
-0.2917105 0.044814311 0.13070908
-0.19227453 0.043650329 0.13867411
-0.16875724 0.045770191 0.13777842
-0.031755421 0.04608658 0.13475573
0.045809083 0.046603508 0.13816336
0.078180946 0.049224753 0.13932279
0.1197903 0.049243271 0.13937235
0.14860168 0.048589107 0.13761184
0.1527992 0.049129747 0.13906701
0.18554887 0.04827664 0.1367704
0.21498446 0.049098313 0.13898215
0.30314794 0.04073238 0.13925621
0.34254965 0.044478096 0.13000424
-0.37315464 0.054333359 0.1338533
-0.3690455 0.053699404 0.1351123
-0.40905839 0.065910451 0.1335021
-0.3987895 0.064415179 0.13825163
-0.36713964 0.066776194 0.13946578
-0.35304493 0.061003782 0.13651703
0.12463487 0.043495476 0.14330977
0.14815769 0.049857922 0.14102504
0.16036269 0.041625079 0.14518116
0.18960215 0.042517517 0.14642937
0.20099591 0.046558078 0.14675027
0.23102896 0.045572661 0.14652961
0.27610749 0.04861955 0.1431976
0.27153504 0.05082792 0.143704
-0.38469917 0.060893118 0.14271709
