# .PCD v0.7 - Point Cloud Data file format
VERSION 0.7
FIELDS x y z
SIZE 4 4 4
TYPE F F F
COUNT 1 1 1
WIDTH 834
HEIGHT 1
VIEWPOINT 0 0 0 1 0 0 0
POINTS 834
DATA ascii
-0.069088101 0.0055507198 -0.16103166
0.078874931 0.0055507198 -0.16011855
-0.21455652 0.0055507193 -0.15146562
-0.19720909 0.0055507198 -0.15405551
-0.18743503 0.0055507198 -0.15499681
-0.16902024 0.0055507203 -0.15007178
-0.10185834 0.0055507198 -0.15128925
-0.085946351 0.0055507198 -0.1511201
-0.068586469 0.0055507198 -0.15894359
-0.011980407 0.0055507198 -0.15217009
0.0010972917 0.0055507198 -0.15481368
0.020584792 0.0055507198 -0.15087622
0.070679121 0.0055507198 -0.15268664
0.12952013 0.0055507198 -0.15257035
0.14356835 0.0055507198 -0.15271814
0.15706414 0.0055507198 -0.15528287
0.162806 0.0055507198 -0.15573226
0.17559826 0.0055507198 -0.15563269
0.23831655 0.0055507198 -0.15581332
0.26676878 0.0055507198 -0.15701807
-0.20847753 0.0055507198 -0.14180835
-0.18170866 0.0055507198 -0.14011599
-0.08867906 0.0055507198 -0.1414775
-0.076176286 0.0055507198 -0.14966449
-0.038163431 0.0055507198 -0.14701825
0.0095800087 0.0055507198 -0.14912201
0.011024408 0.0055507198 -0.14943653
0.028835185 0.0055507198 -0.14189711
0.063738197 0.0055507198 -0.14236778
0.085615635 0.0055507198 -0.1429635
0.10238124 0.0055507198 -0.1490996
0.11173257 0.0055507198 -0.14885469
0.13686199 0.0055507198 -0.14198473
0.14166838 0.0055507198 -0.14715901
0.15661281 0.0055507198 -0.14277408
0.17529267 0.0055507198 -0.14333591
0.18207785 0.0055507198 -0.14473121
0.19631383 0.0055507198 -0.14960775
0.30485868 0.0055507198 -0.14711404
-0.15257555 0.0055507198 -0.13260686
-0.14058523 0.0055507198 -0.13422889
-0.13853841 0.0055507198 -0.13104913
-0.11818913 0.0055507198 -0.13578518
-0.10029204 0.0055507198 -0.13143612
-0.098584071 0.0055507198 -0.13179661
-0.079925232 0.0055507193 -0.1392564
-0.068154767 0.0055507198 -0.13143398
-0.051248435 0.0055507198 -0.13222085
-0.0437144 0.0055507193 -0.13688709
0.026861742 0.0055507198 -0.13539307
0.044270616 0.0055507198 -0.13646865
0.055765666 0.0055507198 -0.13542798
0.084798224 0.0055507198 -0.1388942
0.094788827 0.0055507198 -0.13764007
0.10117587 0.0055507198 -0.13946153
0.1243422 0.0055507198 -0.13045153
0.13818239 0.0055507198 -0.13975734
0.14352153 0.0055507198 -0.13054493
0.20242377 0.0055507198 -0.13739064
0.25538236 0.0055507198 -0.13897729
0.2763586 0.0055507198 -0.13652577
-0.20485893 0.0062136017 -0.12760977
-0.17255893 0.0055507198 -0.12721038
-0.16301875 0.0068246843 -0.129502
-0.1341124 0.0072607826 -0.129502
-0.12638061 0.0055507198 -0.12691863
-0.080172919 0.0055507198 -0.12680891
-0.07875935 0.0073990845 -0.129502
-0.066438556 0.009211028 -0.129502
-0.029321704 0.0055507198 -0.12943462
-0.0090145543 0.0055507198 -0.12034878
0.0026633367 0.0055507198 -0.12798361
0.044521596 0.0055507198 -0.12438291
0.0859074 0.0055507198 -0.12593785
0.1193912 0.0055507198 -0.12235577
0.12883316 0.0055507198 -0.12074506
0.13197863 0.0055507198 -0.12233127
0.20834617 0.0055507198 -0.12287892
0.24868986 0.0055507198 -0.1211818
0.32353443 0.0055507198 -0.12215219
-0.29587662 0.019880217 -0.129502
-0.25483379 0.012965597 -0.129502
-0.24049895 0.016302612 -0.129502
-0.22902519 0.018390656 -0.129502
-0.15268184 0.016634705 -0.129502
-0.14277779 0.01330393 -0.129502
-0.13301937 0.015391788 -0.129502
-0.10860425 0.017297974 -0.129502
-0.080662712 0.019087754 -0.129502
-0.29940501 0.027877787 -0.12621014
-0.26180077 0.029608021 -0.1284578
-0.22738501 0.025931701 -0.129502
-0.17525411 0.020716719 -0.129502
-0.14094591 0.02588472 -0.129502
-0.094212078 0.024587903 -0.12916929
-0.086825214 0.027029349 -0.129502
-0.064678974 0.02336376 -0.129502
-0.25867993 0.033747509 -0.12564407
-0.21334985 0.035785433 -0.12425885
-0.20664188 0.037347913 -0.12319679
-0.16602662 0.031462412 -0.12719731
-0.15714118 0.037469447 -0.12311418
-0.11100613 0.035107855 -0.12471943
-0.10591947 0.037533119 -0.1230709
-0.086984523 0.032390594 -0.12656641
-0.07099624 0.032532401 -0.12647001
-0.066245265 0.031832617 -0.12694567
-0.12175046 0.041315597 -0.12049985
-0.24436213 0.061365083 -0.12080576
-0.29940501 0.0087061543 -0.1147852
-0.10006078 0.0055507198 -0.11608519
-0.076868951 0.0055507198 -0.11657535
-0.064642951 0.0055507198 -0.11961196
-0.050409913 0.0055507198 -0.11038058
-0.04123427 0.0055507198 -0.11777107
-0.0026989207 0.0055507198 -0.11549567
0.016556095 0.0055507198 -0.11585549
0.024272442 0.0055507198 -0.11454545
0.051879201 0.0055507198 -0.11283806
0.10327268 0.0055507198 -0.11237453
0.17847921 0.0055507198 -0.11286081
0.1813758 0.0055507198 -0.11515772
0.21057275 0.0055507198 -0.11867959
0.22372511 0.0055507198 -0.11882795
0.24734426 0.0055507198 -0.1189008
-0.28297719 0.043407399 -0.11422738
-0.23228984 0.043407399 -0.11185161
-0.19215809 0.043407395 -0.11129785
-0.14610586 0.046541836 -0.110254
-0.13707221 0.045426909 -0.110254
-0.25713724 0.052655101 -0.11366183
-0.23993003 0.059791945 -0.110254
-0.21196908 0.057146829 -0.11632472
-0.20192301 0.059107166 -0.11336517
-0.19999558 0.053894021 -0.110254
-0.18705778 0.056420948 -0.110254
-0.15320513 0.056057476 -0.110254
-0.14636269 0.05379628 -0.11025399
-0.28499272 0.064737678 -0.11152114
-0.25936955 0.066910185 -0.1115355
-0.24017714 0.061551109 -0.11462989
-0.22011405 0.067798175 -0.11715998
-0.20782027 0.066206895 -0.11194152
-0.16779956 0.066826999 -0.11158347
-0.21086299 0.076384693 -0.11220236
-0.2077841 0.076699033 -0.11202088
-0.29940501 0.0087505654 -0.10257407
-0.20225619 0.0055507198 -0.1047116
-0.19225669 0.0055507193 -0.1002949
-0.17434558 0.0055507193 -0.10052747
-0.10990386 0.0055507198 -0.10402388
-0.081580415 0.0055507198 -0.1001653
-0.070574552 0.0055507198 -0.10967783
-0.064654045 0.0055507198 -0.10128494
-0.055919625 0.0055507198 -0.10218008
-0.046747979 0.0055507198 -0.10298324
-0.039688282 0.0055507198 -0.10221777
-0.014018573 0.0055507198 -0.10228588
0.054840494 0.0055507198 -0.10512026
0.070549384 0.0055507198 -0.10715665
0.089749545 0.0055507198 -0.10547425
0.11838502 0.0055507198 -0.10870136
0.12109355 0.0055507198 -0.10630694
0.1306794 0.0055507198 -0.10949231
0.14691904 0.0055507198 -0.10583898
0.1642026 0.0055507198 -0.10233599
0.19161853 0.0055507198 -0.10171914
0.20860776 0.0055507198 -0.10369981
0.23412798 0.0055507198 -0.10468353
0.25861534 0.0055507198 -0.10355615
0.29689837 0.0055507198 -0.10337897
0.30667087 0.0055507198 -0.10014363
-0.063948177 0.028930778 -0.10985223
-0.26395482 0.03722503 -0.104939
-0.25147495 0.038097769 -0.104939
-0.24760737 0.038546935 -0.104939
-0.20720504 0.036007781 -0.10616601
-0.18960789 0.036381681 -0.10638187
-0.22419889 0.047336943 -0.104939
-0.18520179 0.046298638 -0.104939
-0.25073463 0.056109302 -0.10389747
-0.3353554 0.063528657 -0.10465309
-0.32346088 0.064480267 -0.10563633
-0.31883582 0.065602578 -0.10529706
-0.29377908 0.065804206 -0.10719792
-0.27455965 0.061317287 -0.10611823
-0.22756389 0.061424401 -0.10051887
-0.17283663 0.061424401 -0.10502139
-0.27432358 0.07237605 -0.10589543
-0.2341956 0.075581282 -0.10590812
-0.21157731 0.07575877 -0.10488959
-0.19687727 0.078441203 -0.10338241
-0.18788637 0.071807079 -0.1087079
-0.16112182 0.073126599 -0.10267629
-0.20449817 0.0055507198 -0.090706423
-0.1575873 0.0055507198 -0.09950465
-0.14474922 0.0055507198 -0.09756995
-0.13212763 0.0055507198 -0.097476512
-0.090560541 0.0055507198 -0.09140674
-0.063364297 0.008052079 -0.098759517
-0.058241069 0.0055507198 -0.099597022
-0.043546814 0.0055507198 -0.097235709
0.0010741651 0.0055507198 -0.095025711
0.058134895 0.0055507198 -0.092503741
0.070631824 0.0055507198 -0.09624555
0.16573635 0.0055507198 -0.092907228
0.17571869 0.0055507198 -0.098540291
0.20552234 0.0055507198 -0.095356733
0.22078779 0.0055507198 -0.096133068
0.24439478 0.0055507198 -0.094961017
0.27590767 0.0055507198 -0.098520756
-0.20418292 0.037070565 -0.095600866
-0.18473227 0.039818794 -0.094014183
-0.2438916 0.0442666 -0.097441502
-0.21482895 0.04642535 -0.090199895
-0.20084471 0.043865338 -0.092126399
-0.18811786 0.048357174 -0.097441494
-0.1153722 0.046010215 -0.092126399
-0.084281206 0.043407399 -0.093656808
-0.27885741 0.059837833 -0.093083382
-0.26393574 0.051023535 -0.096328743
-0.22447044 0.057033032 -0.092126399
-0.21722762 0.054188117 -0.092126399
-0.18856075 0.052647695 -0.092126399
-0.17892 0.05007498 -0.094790511
-0.13965437 0.055338435 -0.091191128
-0.32092565 0.062779032 -0.098020233
-0.27643666 0.069076821 -0.09698803
-0.24355185 0.064685687 -0.094853878
-0.23026718 0.060065888 -0.092126399
-0.21463172 0.066353634 -0.090523511
-0.20467331 0.065098368 -0.09454377
-0.11352208 0.061424401 -0.092551261
-0.1046854 0.061424404 -0.096593685
-0.22514486 0.078020804 -0.094226502
-0.21081112 0.0722242 -0.093912899
-0.16988485 0.072540708 -0.094095647
-0.19254589 0.0055507198 -0.087351382
-0.11760832 0.0055507198 -0.080959626
-0.094473511 0.0055507198 -0.084063441
-0.083525255 0.0055507198 -0.087417386
-0.0647894 0.0055507198 -0.086869039
-0.035030026 0.0055507198 -0.084395453
-0.0055988338 0.0055507198 -0.085824206
0.0053252243 0.0055507198 -0.085010841
0.057519797 0.0055507198 -0.08129625
0.13381845 0.0055507198 -0.081579715
0.20767045 0.0055507198 -0.088595808
0.22605291 0.0055507198 -0.084310532
0.25619963 0.0055507198 -0.089655653
0.26736891 0.0055507198 -0.088982038
-0.063364297 0.017793803 -0.083879724
-0.24161729 0.039246231 -0.080473691
-0.18207021 0.039223257 -0.080458075
-0.26779252 0.043407399 -0.085984334
-0.2225562 0.040816162 -0.08154083
-0.21789283 0.043407399 -0.08967042
-0.20469667 0.043407399 -0.086938933
-0.10833341 0.043407399 -0.088637292
-0.081874594 0.042180449 -0.084078416
-0.26396301 0.059260562 -0.083271496
-0.25741369 0.058712143 -0.086174756
-0.21074568 0.050874241 -0.087631322
-0.24417444 0.060740579 -0.088072389
-0.23339342 0.066968143 -0.084740989
-0.19978577 0.069001615 -0.085915059
-0.17026658 0.064841583 -0.089650527
-0.20925796 0.070553519 -0.086811081
-0.23950094 0.007785893 -0.072878003
-0.19108963 0.0055507198 -0.071300812
-0.14103438 0.0085221697 -0.072878003
-0.1283448 0.0070322892 -0.072878003
-0.10198878 0.0055507198 -0.075630948
-0.099593624 0.0095962072 -0.072878003
-0.086063869 0.0055507198 -0.073829293
-0.077298373 0.0086068772 -0.072878003
-0.0094786212 0.0055507198 -0.077760711
0.022357654 0.0055507198 -0.075925969
0.055694018 0.0055507198 -0.071642421
0.076694265 0.0055507198 -0.072259724
0.08480344 0.0055507198 -0.076040871
0.14876066 0.0055507198 -0.074324101
0.16293138 0.0055507198 -0.072571605
0.18370751 0.0055507198 -0.076236531
0.19565028 0.0055507198 -0.079591982
0.20865646 0.0055507198 -0.074431941
0.23286799 0.0055507198 -0.070078619
0.25421444 0.0055507198 -0.078829832
0.27740043 0.0055507198 -0.075609788
0.31978244 0.0055507198 -0.073039353
-0.26558095 0.016931787 -0.072878003
-0.22568092 0.012908528 -0.072878003
-0.20545331 0.01591373 -0.072878003
-0.15313135 0.012426206 -0.072878003
-0.075846292 0.01460843 -0.072878003
-0.2718468 0.022287386 -0.072878003
-0.25170812 0.023540951 -0.072878003
-0.24216597 0.020026525 -0.072878003
-0.1643064 0.025685161 -0.072878003
-0.11474481 0.021383034 -0.072878003
-0.087365247 0.020999433 -0.072878003
-0.20238879 0.036154479 -0.078372113
-0.16109399 0.033700246 -0.076703876
-0.070126183 0.03747867 -0.079272211
-0.1871444 0.0055507198 -0.062811583
-0.17216894 0.0055507198 -0.067595042
-0.1068314 0.0055507198 -0.067445405
-0.090143129 0.0055507198 -0.069380879
-0.082996316 0.0055507198 -0.061995551
-0.023434509 0.0055507198 -0.060059488
-0.011804406 0.0055507198 -0.068085432
-0.0024274588 0.0055507198 -0.068433911
0.026097639 0.0055507198 -0.063257568
0.034962136 0.0055507198 -0.068800695
0.11333244 0.0055507198 -0.065314591
0.12146383 0.0055507198 -0.061978027
0.16325355 0.0055507198 -0.065810531
0.1786831 0.0055507198 -0.066376045
0.18964706 0.0055507198 -0.066457942
0.1963999 0.0055507198 -0.069486156
0.20707285 0.0055507198 -0.064290747
0.26561147 0.0055507198 -0.060602985
-0.16634011 0.0055507198 -0.053003602
-0.1004054 0.0055507198 -0.059766095
-0.072713539 0.0055507198 -0.052039042
-0.0042910278 0.0055507198 -0.052973993
0.0083046407 0.0055507198 -0.053571589
0.011357374 0.0055507198 -0.056977749
0.039264061 0.0055507198 -0.056417786
0.063113727 0.0055507198 -0.056220006
0.076827653 0.0055507198 -0.052248798
0.081160039 0.0055507198 -0.059317514
0.098456167 0.0055507198 -0.058657959
0.11150241 0.0055507198 -0.053140931
0.12035182 0.0055507198 -0.057460614
0.1527953 0.0055507198 -0.054833397
0.17278428 0.0055507198 -0.050627809
0.20919371 0.0055507198 -0.052107107
0.21452899 0.0055507198 -0.058506414
0.27673236 0.0055507198 -0.052347887
0.28599167 0.0055507198 -0.059383679
0.29375145 0.0055507198 -0.054448843
0.32350671 0.0055507198 -0.056286775
-0.2025187 0.0055507198 -0.044436213
-0.10093006 0.0055507198 -0.040567748
-0.051977761 0.0055507198 -0.044267286
0.039916296 0.0055507198 -0.042519286
0.052966539 0.0055507198 -0.041312445
0.13797796 0.0055507198 -0.049064342
0.1579867 0.0055507198 -0.049660288
0.16995963 0.0055507198 -0.049292665
0.19543731 0.0055507198 -0.041312151
0.25668722 0.0055507198 -0.045800108
-0.18201032 0.0055507198 -0.039204024
-0.13609867 0.0055507198 -0.037115734
-0.10639269 0.0055507198 -0.032638524
-0.048105277 0.0055507198 -0.037854478
-0.00012132153 0.0055507198 -0.03567075
0.03533496 0.0055507198 -0.036899354
0.047361668 0.0055507198 -0.030748457
0.10891477 0.0055507198 -0.039438143
0.11797138 0.0055507198 -0.035251431
0.12673029 0.0055507198 -0.03668464
0.14636278 0.0055507198 -0.038411953
0.15422364 0.0055507198 -0.037783485
0.21062031 0.0055507198 -0.037342276
0.26707578 0.0055507198 -0.038004879
0.2872566 0.0055507198 -0.033980653
0.30308294 0.0055507198 -0.032825828
0.32346043 0.0055507198 -0.037965864
-0.20239647 0.0055507198 -0.025921281
-0.16801181 0.0055507198 -0.026592772
-0.071869314 0.0055507198 -0.026855279
-0.05703599 0.0055507198 -0.026264284
-0.031220919 0.0055507198 -0.024467008
-0.017758779 0.0055507198 -0.029130636
0.026942657 0.0055507198 -0.022404971
0.046205003 0.0055507198 -0.021163624
0.059310231 0.0055507198 -0.023058392
0.096076213 0.0055507198 -0.026606977
0.10195347 0.0055507198 -0.023991667
0.12255976 0.0055507198 -0.026427858
0.14261033 0.0055507198 -0.023743171
0.17363408 0.0055507198 -0.023738671
0.18672012 0.0055507198 -0.028360903
0.19086978 0.0055507198 -0.025099644
0.21304411 0.0055507198 -0.022697508
0.29583636 0.0055507198 -0.023616139
-0.20892672 0.0055507198 -0.011983633
-0.11586265 0.0055507198 -0.019839954
-0.021845456 0.0055507198 -0.018854022
-0.0019251436 0.0055507198 -0.014542384
0.0084373169 0.0055507198 -0.010852979
0.029047839 0.0055507198 -0.019004852
0.038426075 0.0055507198 -0.016847465
0.041879237 0.0055507198 -0.015355602
0.12505114 0.0055507198 -0.016453249
0.1568639 0.0055507198 -0.012564907
0.18339399 0.0055507198 -0.016008995
0.24803115 0.0055507198 -0.019797359
0.30829817 0.0055507198 -0.013817452
-0.18764795 0.0055507198 -0.0054967701
-0.17334978 0.0055507198 -0.0037419945
-0.12415978 0.0055507198 -0.0066385232
-0.11368051 0.0055507198 -0.009310782
-0.094790123 0.0055507198 -0.0035651363
-0.065843932 0.0055507198 -0.0043519083
-0.0026920354 0.0055507198 -0.0074369777
0.038019016 0.0055507198 -0.0096515184
0.10999076 0.0055507198 -0.00043364614
0.1356028 0.0055507198 -0.0094416942
0.14407375 0.0055507198 -0.0049270396
0.17580482 0.0055507198 -0.0045722686
0.20660666 0.0055507198 -0.0045067389
0.23296165 0.0055507198 -0.0094092339
0.25025186 0.0055507198 -0.0081732161
0.31370401 0.0055507198 -0.0046881214
-0.21248093 0.0055507198 0.0034413487
-0.1740078 0.0055507198 0.0052110329
-0.16054654 0.0055507198 0.0069250055
-0.14395025 0.0055507198 0.0056715664
-0.1350913 0.0055507198 0.00066843629
-0.090340473 0.0055507198 0.004664503
-0.069740646 0.0055507198 0.001306057
-0.04823073 0.0055507198 0.0082219467
-0.024352789 0.0055507198 0.0074283378
-0.01010507 0.0055507198 0.0046525747
0.064596802 0.0055507198 0.0065243095
0.081553265 0.0055507198 0.0087597445
0.11452987 0.0055507198 0.0085965842
0.1271245 0.0055507198 0.003061905
0.16452757 0.0055507198 0.0033679456
0.24987954 0.0055507198 0.004513178
0.25943109 0.0055507198 0.0018978156
0.28012431 0.0055507198 0.0070564337
-0.1629416 0.0055507198 0.014278363
-0.11507837 0.0055507198 0.012942471
-0.10223057 0.0055507198 0.010656796
0.01066338 0.0055507198 0.013358348
0.03035308 0.0055507198 0.01089384
0.05516088 0.0055507198 0.018641796
0.066084325 0.0055507198 0.015771238
0.078598887 0.0055507198 0.013236067
0.081186488 0.0055507198 0.016247153
0.092878327 0.0055507198 0.010025399
0.16667745 0.0055507198 0.016389154
0.17255566 0.0055507198 0.013297059
0.20044675 0.0055507198 0.019221976
0.22847062 0.0055507198 0.01154558
0.23322949 0.0055507198 0.015331704
0.24401206 0.0055507198 0.014455419
0.28183538 0.0055507198 0.016643811
0.31658506 0.0055507198 0.01202628
-0.20708859 0.0055507198 0.024284445
-0.13098699 0.0055507198 0.029165342
-0.12016241 0.0055507198 0.024709105
-0.051250029 0.0055507198 0.024487264
-0.047308523 0.0055507198 0.02795399
-0.028303012 0.0055507198 0.025766522
0.0071432032 0.0055507198 0.027585886
0.027906753 0.0055507198 0.02224174
0.075315289 0.0055507198 0.026473716
0.10732894 0.0055507198 0.026079372
0.16421823 0.0055507198 0.025095765
0.17952144 0.0055507198 0.020818286
0.18920913 0.0055507198 0.025640769
0.23092869 0.0055507198 0.025193315
0.27749461 0.0055507198 0.025127171
0.30526015 0.0055507198 0.025460809
-0.21579698 0.0055507198 0.030802868
-0.20894836 0.0055507198 0.032298386
-0.19464338 0.0055507198 0.036735155
-0.1413895 0.0055507198 0.033435889
-0.070902176 0.0055507198 0.032024134
-0.042328164 0.0055507198 0.032111268
-0.022797849 0.0055507198 0.038217776
-0.0049680071 0.0055507198 0.035336796
0.056363735 0.0055507198 0.036166694
0.074841268 0.0055507198 0.032333322
0.084717348 0.0055507198 0.03686107
0.1194389 0.0055507198 0.037311994
0.1332037 0.0055507198 0.032877602
0.16211943 0.0055507198 0.032450944
0.17284513 0.0055507198 0.033619419
0.22950268 0.0055507198 0.032046579
0.23616809 0.0055507198 0.031339709
0.28075746 0.0055507198 0.031556837
0.29783899 0.0055507198 0.030779876
0.31992376 0.0055507198 0.030734785
-0.20149618 0.0055507198 0.045174886
-0.19198932 0.0055507198 0.046575267
-0.14921701 0.0055507198 0.045028962
-0.11179236 0.0055507198 0.047223873
-0.090844408 0.0055507198 0.040800899
-0.074468061 0.0055507198 0.046353634
-0.063876964 0.0055507198 0.04170882
-0.05355119 0.0055507198 0.041756745
-0.034007233 0.0055507198 0.046021491
-0.010492809 0.0055507198 0.047880605
0.0072498377 0.0055507198 0.042678721
0.030545551 0.0055507198 0.047330007
0.047702372 0.0055507198 0.04432654
0.063242912 0.0055507198 0.046693869
0.1350711 0.0055507198 0.049361374
0.14526188 0.0055507198 0.049106479
0.15042058 0.0055507198 0.045940071
0.16612907 0.0055507198 0.043403786
0.19159365 0.0055507198 0.042489879
0.20596007 0.0055507198 0.046017036
0.2669099 0.0055507198 0.042328984
0.28455925 0.0055507198 0.044682048
-0.20060378 0.0055507198 0.050120808
-0.15310058 0.0055507198 0.054649353
-0.13737607 0.0055507198 0.056673601
-0.12798671 0.0055507198 0.05653055
-0.053144224 0.0055507198 0.058556616
-0.043631613 0.0055507198 0.059301551
0.021925837 0.0055507198 0.051503688
0.10999136 0.0055507198 0.05157065
0.21178785 0.0055507198 0.058853712
0.24333915 0.0055507198 0.050067045
0.25479558 0.0055507198 0.059819765
0.3015722 0.0055507198 0.058592398
-0.19285519 0.0055507198 0.068262428
-0.17214732 0.0055507198 0.065555081
-0.14299712 0.0055507198 0.065039352
-0.074568711 0.0055507198 0.064114474
-0.06679365 0.0055507198 0.062863298
-0.042364813 0.0055507198 0.068381563
-0.025940372 0.0055507198 0.061668091
0.0040318235 0.0055507198 0.06801907
0.011300609 0.0055507198 0.06220872
0.078289382 0.0055507198 0.069017977
0.094560772 0.0055507198 0.060280789
0.13690174 0.0055507198 0.064486839
0.18773307 0.0055507198 0.062491082
0.20546949 0.0055507198 0.06363102
0.21135852 0.0055507198 0.067946762
0.23197503 0.0055507198 0.061449192
0.30447751 0.0055507198 0.061857414
-0.12201982 0.0055507198 0.075489111
-0.089036912 0.0055507198 0.075343773
-0.066417255 0.0055507198 0.075136162
-0.040283944 0.0055507198 0.074165463
-0.039999869 0.0055507198 0.078942433
0.013275467 0.0055507198 0.079568177
0.0237236 0.0055507198 0.073863037
0.05453407 0.0055507198 0.072584525
0.068283953 0.0055507198 0.078940995
0.099608921 0.0055507198 0.078162268
0.10135833 0.0055507198 0.07247632
0.11232549 0.0055507198 0.075938366
0.14499445 0.0055507198 0.072949141
0.15963566 0.0055507198 0.075153552
0.18842992 0.0055507198 0.074088179
0.20406163 0.0055507198 0.071199656
0.24132627 0.0055507198 0.079478674
0.25706193 0.0055507198 0.075979486
0.29712459 0.0055507198 0.073785156
-0.16860469 0.0055507198 0.086074561
-0.1077762 0.0055507198 0.080708168
-0.093752697 0.0055507198 0.087272748
-0.07833726 0.0055507198 0.081008948
-0.069223732 0.0055507198 0.081966355
0.1382519 0.0055507198 0.082046665
0.20958808 0.0055507198 0.085697971
0.24065486 0.0055507198 0.082519755
0.32388663 0.0055507198 0.088145167
-0.21467955 0.0066630309 0.094483301
-0.18596458 0.0055507198 0.094397336
-0.16335104 0.0066609802 0.094483301
-0.12784643 0.0055507198 0.099991038
-0.091801882 0.0057815895 0.093213834
-0.052694354 0.0055507198 0.093410455
-0.0454726 0.0055507198 0.096403047
-0.0011457391 0.0055507198 0.098564908
0.016554864 0.0055507198 0.096650437
0.030862529 0.0055507198 0.098199308
0.084085122 0.0055507198 0.095518127
0.11162727 0.0055507198 0.097535022
0.12854642 0.0055507198 0.095327966
0.15743367 0.0055507198 0.091814578
0.17521147 0.0055507198 0.099585935
0.18731302 0.0055507198 0.098596737
0.29477876 0.0055507198 0.094794236
0.31319055 0.0055507198 0.096729919
-0.28985798 0.019983619 0.094483301
-0.2034243 0.016377868 0.094483301
-0.17603189 0.018700317 0.094483301
-0.094859652 0.017269291 0.094483301
-0.25414664 0.020202765 0.094483301
-0.19878164 0.020007193 0.094483301
-0.18603411 0.024922417 0.094483301
-0.15505522 0.029034059 0.09513735
-0.13730322 0.023597063 0.094483301
-0.083903983 0.02080719 0.094483301
-0.27986687 0.031887375 0.097076774
-0.2026985 0.032184452 0.097278699
-0.16500595 0.036058798 0.099912107
-0.093707725 0.032715082 0.097639367
-0.19179848 0.0055507198 0.10108356
-0.16801856 0.0055507198 0.10448085
-0.1376777 0.0055507198 0.10792043
-0.11206012 0.0055507198 0.10856441
-0.092157632 0.0055507198 0.1033923
-0.080904096 0.0055507198 0.10955095
-0.068149731 0.0055507198 0.10020334
-0.020739552 0.0055507198 0.10008585
-0.01543351 0.0055507198 0.10365099
0.016162395 0.0055507198 0.10658582
0.037913613 0.0055507198 0.10398674
0.051946715 0.0055507198 0.10493259
0.074978486 0.0055507198 0.10822381
0.083017997 0.0055507198 0.10900269
0.095072433 0.0055507198 0.10685848
0.10675142 0.0055507198 0.10459834
0.16009706 0.0055507198 0.10175525
0.17175688 0.0055507198 0.10655685
0.18345809 0.0055507198 0.10131505
0.21230286 0.0055507198 0.10329536
0.25144583 0.0055507198 0.10953603
0.26653808 0.0055507198 0.10104762
0.32167315 0.0055507203 0.10987993
-0.18545991 0.03661041 0.10028705
-0.14897853 0.038724057 0.1017237
-0.27892905 0.040650789 0.10303332
-0.25919536 0.043407399 0.10866804
-0.16142902 0.043407399 0.10586058
-0.071918942 0.040656999 0.10533804
-0.23811047 0.058712158 0.10471088
-0.19908163 0.054531135 0.10712475
-0.22467071 0.069034234 0.1075387
-0.21775623 0.060191952 0.10385654
-0.17892 0.061411925 0.10928714
-0.14312485 0.061033353 0.10950777
-0.21750949 0.072489515 0.10953367
0.31412065 -0.02384349 0.11989818
0.33584803 -0.029930308 0.11483219
-0.29940501 0.0084030041 0.11147668
-0.19820918 0.0055507198 0.11520822
-0.15854122 0.0055507198 0.11836457
-0.095335595 0.0055507198 0.11368097
-0.050792899 0.0055507198 0.11857199
-0.033320311 0.0055507198 0.11499125
0.0094846487 0.0055507198 0.11515634
0.031644899 0.0055507198 0.11251348
0.069752298 0.0055507198 0.11845016
0.086519532 0.0055507198 0.110147
0.099372327 0.0055507198 0.11887713
0.13429862 0.0055507198 0.11455238
0.18103117 0.0055507203 0.1133052
0.20834969 0.0055507198 0.11888894
0.21399438 0.0055507198 0.11569788
0.24367541 0.0055507198 0.11136045
-0.29940501 0.011353232 0.11987473
-0.063364297 0.014151677 0.11854312
-0.21200001 0.038329311 0.11647891
-0.27467227 0.043407399 0.11925815
-0.24825981 0.042197667 0.11424585
-0.23908401 0.044720553 0.11278909
-0.21949375 0.047502991 0.11118236
-0.20572829 0.044857241 0.11270992
-0.1551781 0.043407395 0.11300839
-0.13250504 0.045503754 0.11373119
-0.10331716 0.043407399 0.11255395
-0.09949442 0.043407403 0.11644457
-0.24348006 0.054060586 0.11638927
-0.19813401 0.05461707 0.11373124
-0.17743056 0.056179374 0.11254474
-0.15282983 0.054732606 0.11251928
-0.11328198 0.050130412 0.11373107
-0.26396301 0.066970639 0.11921181
-0.23408717 0.064161196 0.11086252
-0.18972695 0.061424401 0.11558504
-0.11180933 0.061424401 0.11921386
-0.26396301 0.07054276 0.11300548
-0.25426507 0.073126599 0.11962021
-0.24151242 0.073126599 0.11962593
-0.22194719 0.076823227 0.11203583
-0.20338857 0.078441203 0.11513303
-0.15603159 0.073126599 0.11712228
0.28944093 -0.070838936 0.12291078
0.32814574 -0.072060853 0.12808692
0.30013999 -0.06748876 0.12083969
0.3028785 -0.054918896 0.128521
0.30707258 -0.041955754 0.127821
0.31088999 -0.042879298 0.12748961
0.3275407 -0.033437885 0.12093654
0.33694303 -0.031465121 0.12111042
0.30689931 -0.023848785 0.1201435
0.30135688 -0.01677341 0.12281538
-0.29940501 0.0082003064 0.12343946
-0.20251316 0.0055507198 0.12211744
-0.1921135 0.0055507198 0.12381145
-0.17526209 0.0055507198 0.12398679
-0.16806968 0.0055507198 0.12163204
-0.091535613 0.0055507198 0.12631714
-0.072677776 0.0055507198 0.12731747
-0.069794208 0.0055507198 0.1271202
-0.0402347 0.0055507198 0.12046299
-0.021619976 0.0055507198 0.12318445
0.0038172081 0.0055507198 0.12350792
0.018175226 0.0055507198 0.12182669
0.049222019 0.0055507198 0.12854862
0.053970814 0.0055507198 0.12130113
0.066768423 0.0055507198 0.1265475
0.078079775 0.0055507198 0.12975128
0.096980006 0.0055507198 0.12610088
0.14775346 0.0055507198 0.12549898
0.16308315 0.0055507198 0.12543094
0.18300843 0.0055507198 0.12489957
0.1926924 0.0055507198 0.12609795
0.21199593 0.0055507198 0.12905294
0.25236785 0.0055507198 0.1264859
-0.19721988 0.03876891 0.126544
-0.28702804 0.043407399 0.12787667
-0.20204726 0.041525718 0.126544
-0.090451077 0.043407399 0.12594375
-0.076309755 0.043407399 0.12098271
-0.23799343 0.056109302 0.12481847
-0.18975829 0.052517846 0.126544
-0.33817452 0.061175019 0.12227282
-0.32972199 0.064277835 0.12317565
-0.29767433 0.06463097 0.12786049
-0.27465677 0.060645424 0.12369309
-0.13119701 0.0639112 0.12257683
-0.10178524 0.061424404 0.12395452
-0.14286478 0.073126599 0.12080921
0.30245674 -0.07750205 0.13512102
0.28283989 -0.063364729 0.13625464
0.28742355 -0.059962977 0.13911869
0.27863088 -0.043054864 0.13978127
0.28840452 -0.02389179 0.13349822
0.30991575 -0.025903018 0.13455613
0.29425114 -0.019545898 0.13471864
0.32435679 -0.019309351 0.13524508
-0.17635339 0.0055507198 0.13749264
-0.10431446 0.0055507198 0.13122503
-0.016016036 0.0055507198 0.13773656
0.019025736 0.0055507198 0.13806942
0.030205116 0.0055507198 0.13856812
0.044289026 0.0055507198 0.13751762
0.068062723 0.0055507198 0.13030285
0.090802968 0.0055507198 0.13061145
0.12259421 0.0055507198 0.13274029
0.13804936 0.0055507198 0.13587651
0.17631279 0.0055507198 0.13541795
0.20735364 0.0055507198 0.13754854
0.22307029 0.0055507198 0.13262112
0.23970746 0.0055507198 0.13964365
0.26474676 0.0055507198 0.13095333
-0.063364297 0.016818348 0.13934493
-0.063364297 0.025562976 0.13821478
-0.26744282 0.043407395 0.13556008
-0.23462449 0.044170767 0.13443603
-0.21959153 0.047037922 0.13413912
-0.20991455 0.046523273 0.13384201
-0.19436747 0.045613043 0.1333165
-0.1680164 0.043407399 0.13334784
-0.14113617 0.043407395 0.13397224
-0.13953207 0.043407399 0.13731605
-0.11804515 0.043407399 0.13898689
-0.24735494 0.053019673 0.13759263
-0.20539363 0.055949833 0.13621582
-0.19734961 0.058531709 0.13320309
-0.17102869 0.051848575 0.131859
-0.11249605 0.053805359 0.131859
-0.30843911 0.06012718 0.13041839
-0.29014689 0.063154623 0.1304298
-0.23331541 0.064266056 0.13749871
-0.22650984 0.0663286 0.13347624
-0.18025649 0.060646959 0.131859
-0.14334998 0.061987527 0.13598211
-0.25495446 0.074402295 0.13495195
-0.21170972 0.077677116 0.13306117
-0.2079715 0.072077677 0.13015665
0.29707339 -0.071236044 0.14083053
0.33407187 -0.066319458 0.140624
0.27836975 -0.048895586 0.14052749
0.33250099 -0.032145765 0.14082028
0.29545826 -0.020371461 0.143383
-0.19274458 0.0055507198 0.14304611
-0.1343735 0.0055507198 0.14856198
-0.10760523 0.0055507198 0.1451588
-0.09171699 0.0055507198 0.14061728
-0.087512091 0.0055507198 0.14785819
-0.014567979 0.0055507198 0.14550316
0.063379273 0.0055507198 0.14543638
0.10745409 0.0055507198 0.14882174
0.13572073 0.0055507198 0.14822973
0.14961925 0.0055507193 0.14179479
0.16481166 0.0055507198 0.14249001
0.25325799 0.0055507193 0.14439219
0.30896205 0.0055507198 0.14432476
0.31116104 0.0055507198 0.14909086
-0.29940501 0.012987968 0.14810356
-0.063364297 0.011615114 0.14915965
-0.26288491 0.038606513 0.14394629
-0.24074203 0.033017065 0.14774558
-0.23962025 0.031785581 0.14858264
-0.16594882 0.036008745 0.14571205
-0.14473775 0.035059191 0.14635749
-0.23348367 0.064095929 0.14090255
-0.28007564 0.0073017636 0.151107
-0.20875944 0.0093304124 0.151107
-0.1710192 0.0055507198 0.15881491
-0.16692913 0.0055507198 0.15815267
-0.14344972 0.0060118716 0.151107
-0.12420857 0.0055507198 0.15931225
-0.11844821 0.0081223715 0.151107
-0.060391031 0.0055507198 0.15321909
-0.050146163 0.0055507198 0.15647349
-0.040598549 0.0055507198 0.15884486
0.014517069 0.0055507198 0.15411238
0.026490524 0.0055507198 0.15032507
0.034107834 0.0055507198 0.15111797
0.057037733 0.0055507198 0.15398729
0.073511451 0.0055507198 0.15416959
0.085232869 0.0055507198 0.15509649
0.10285713 0.0055507198 0.15319675
0.12841894 0.0055507198 0.15665278
0.13399415 0.0055507198 0.1523395
0.17187297 0.0055507198 0.15938573
0.19443491 0.0055507198 0.15343329
0.21102516 0.0055507193 0.15299264
0.27398995 0.0055507193 0.15714611
-0.29907051 0.011670625 0.151107
-0.16814543 0.016226476 0.151107
-0.10154758 0.017370574 0.151107
-0.066231914 0.016391434 0.151107
-0.21973297 0.021749441 0.151107
0.0061939582 0.0055507198 0.16002899
0.16133042 0.0055507198 0.16002029
0.24299353 0.0055507198 0.16000691
