# .PCD v0.7 - Point Cloud Data file format
VERSION 0.7
FIELDS x y z
SIZE 4 4 4
TYPE F F F
COUNT 1 1 1
WIDTH 891
HEIGHT 1
VIEWPOINT 0 0 0 1 0 0 0
POINTS 891
DATA ascii
-0.36449862 -0.017482499 -0.12425525
-0.3402378 -0.017954201 -0.12385207
-0.32483298 -0.015062605 -0.12787201
-0.18618347 -0.014016401 -0.12152075
0.21048 -0.016144525 -0.12719709
0.24192975 -0.017954201 -0.12136824
0.2694402 -0.013965529 -0.12787201
0.35642263 -0.010764368 -0.12546718
0.37279481 -0.014147552 -0.1201123
-0.36386645 -0.0056795646 -0.12428173
-0.3465212 -0.0067987908 -0.12793607
-0.31110674 -0.006570328 -0.12787201
-0.26430678 -0.0045541702 -0.12722243
-0.22897112 -0.0099109644 -0.12787201
-0.19128093 -0.0075486423 -0.12315688
0.22983578 -0.0057199234 -0.12787201
0.23628044 -0.0045541697 -0.12552546
0.26181009 -0.0045541702 -0.12782702
0.32388881 -0.0053175185 -0.12787201
0.34807697 -0.0099740466 -0.12701342
-0.36667103 -0.017954201 -0.11521383
-0.35298234 -0.017954201 -0.1106578
-0.28526556 -0.017954201 -0.1131487
-0.2726137 -0.017954201 -0.11784017
-0.25529373 -0.017954201 -0.11479485
-0.20408995 -0.017954201 -0.11673257
-0.17498469 -0.013941738 -0.11688292
0.21448615 -0.017954201 -0.11485702
0.24671066 -0.017954201 -0.11834645
0.2677491 -0.017954201 -0.11107356
0.27591753 -0.017954201 -0.11439375
0.29205155 -0.017954201 -0.11815452
0.34259146 -0.017954201 -0.11611789
0.35275209 -0.017954201 -0.1152047
0.37056357 -0.017954201 -0.11429669
-0.37520808 -0.0045541702 -0.11050805
-0.26694357 -0.0045541702 -0.11095685
-0.24649544 -0.0045541702 -0.11108161
-0.23035082 -0.0045541702 -0.1127933
-0.21183212 -0.0045541702 -0.11989886
-0.17430973 -0.0045541702 -0.116492
0.16648914 -0.0045541702 -0.11251657
0.21472836 -0.0045541702 -0.1157681
0.22675909 -0.0045541702 -0.11751802
0.25943452 -0.0045541702 -0.11055534
-0.39094242 -0.017954201 -0.10388798
-0.38317522 -0.017954201 -0.10394042
-0.28910917 -0.017954201 -0.10189282
-0.27027455 -0.017954201 -0.10967243
-0.23938431 -0.017954201 -0.10686632
-0.22928356 -0.017954201 -0.10696466
-0.20279327 -0.017954201 -0.1086729
-0.19481149 -0.017954201 -0.10553807
-0.18543465 -0.017954201 -0.10519356
-0.16075641 -0.015554099 -0.10945852
0.19707119 -0.017954201 -0.10485788
0.34182805 -0.017954201 -0.10175739
0.35558641 -0.017954201 -0.10033374
0.38316306 -0.017954201 -0.10142191
-0.359837 -0.0045541702 -0.10017846
-0.30722231 -0.0045541702 -0.1091268
-0.21127445 -0.0045541702 -0.1027942
-0.18168314 -0.0045541702 -0.10599356
0.20119438 -0.0045541702 -0.10918465
0.21039934 -0.0045541702 -0.10478479
0.22497076 -0.0045541702 -0.10203175
0.25895613 -0.0045541702 -0.10671864
0.27607858 -0.0045541702 -0.10251775
0.28217423 -0.0045541702 -0.10688244
0.29708377 -0.0045541702 -0.10896342
-0.40687263 -0.017954201 -0.091509327
-0.34486097 -0.017954201 -0.099500284
-0.28003246 -0.017954201 -0.094480872
-0.24565944 -0.017954201 -0.097040161
-0.20156123 -0.017954201 -0.09611927
-0.16722739 -0.017954201 -0.098651275
-0.12887006 -0.016860671 -0.0971632
-0.11321983 -0.010951576 -0.0971632
-0.10583294 -0.017954201 -0.090944275
-0.092631951 -0.017954201 -0.094721317
-0.086210251 -0.01772172 -0.0971632
-0.075609498 -0.015108079 -0.0971632
-0.051998213 -0.016141502 -0.0971632
-0.026160732 -0.013273989 -0.0971632
-0.0087955743 -0.017954201 -0.09568695
0.11527047 -0.014747722 -0.094055764
0.19382876 -0.017954201 -0.090839528
0.29963604 -0.017954201 -0.092305705
0.35486096 -0.017954201 -0.098181121
0.38053057 -0.017954201 -0.094695479
-0.4045299 -0.0045541702 -0.095855862
-0.37493265 -0.0045541702 -0.09330193
-0.36034432 -0.0045541702 -0.093146957
-0.25685507 -0.0045541702 -0.094190374
-0.22249515 -0.0045541702 -0.096901685
-0.19972834 -0.0045541702 -0.090631172
-0.12749884 -0.0045541702 -0.095534451
-0.083011448 -0.0070168879 -0.0971632
-0.067586049 -0.0045541702 -0.094057783
-0.055891506 -0.0071477047 -0.095123112
0.0054643899 -0.0078796186 -0.0971632
0.039479852 -0.0045541702 -0.094975956
0.067556605 -0.0052332524 -0.094605587
0.086101785 -0.0045541702 -0.093892597
0.16722918 -0.0045541702 -0.090415403
0.21858829 -0.0045541702 -0.093571752
0.23589784 -0.0045541702 -0.090522386
0.2675443 -0.0045541702 -0.099120654
-0.36767238 -0.017954201 -0.08271113
-0.29209331 -0.017954201 -0.089157879
-0.27971283 -0.017954201 -0.08769837
-0.22274484 -0.017954201 -0.082540862
-0.18542276 -0.017954201 -0.084122896
-0.17379856 -0.017954201 -0.085337169
-0.10989659 -0.017954201 -0.087575875
-0.069292359 -0.017954201 -0.085311875
-0.040564086 -0.017954201 -0.08693254
0.10513458 -0.017954201 -0.085815825
0.14509124 -0.017954201 -0.086365059
0.16042179 -0.017954201 -0.086922742
0.25186038 -0.017954201 -0.086901851
0.28744259 -0.017954201 -0.088760458
0.36950904 -0.017954201 -0.081370145
0.37987459 -0.017954201 -0.087999061
0.4259651 -0.015383795 -0.083341606
-0.42404774 -0.0045541702 -0.080764189
-0.38591772 -0.0045541702 -0.08784356
-0.3128615 -0.0045541702 -0.086101733
-0.22147778 -0.0045541702 -0.083652422
-0.17559239 -0.0045541702 -0.087399974
-0.14268877 -0.0045541702 -0.083628617
-0.049332708 -0.0045541702 -0.087457463
-0.030651145 -0.0045541702 -0.08299844
-0.011705184 -0.0045541702 -0.081602186
0.037731782 -0.0045541702 -0.082219318
0.11988419 -0.0045541702 -0.086212769
0.17512289 -0.0045541702 -0.08728347
0.19163887 -0.0045541702 -0.08639387
0.21695663 -0.0045541702 -0.089667194
0.23989555 -0.0045541702 -0.083392441
0.28315872 -0.0045541702 -0.083213702
0.29870671 -0.0045541702 -0.089623958
0.32435915 -0.0045541702 -0.080941401
0.35916686 -0.0045541702 -0.08342585
-0.43855709 -0.01586464 -0.073833078
-0.39216542 -0.017954201 -0.075520389
-0.3552379 -0.017954201 -0.070509732
-0.34375075 -0.017954201 -0.070277683
-0.32183623 -0.017954201 -0.074373372
-0.24663529 -0.017954201 -0.071579799
-0.23397015 -0.017954201 -0.076222271
-0.037964933 -0.017954201 -0.076891765
0.0013537817 -0.017954201 -0.077271014
0.028747365 -0.017954201 -0.07243225
0.077994175 -0.017954201 -0.079703808
0.10777807 -0.017954201 -0.073632523
0.14832781 -0.017954201 -0.07777971
0.25810468 -0.017954201 -0.073807105
0.41954401 -0.017954201 -0.072621934
-0.43393803 -0.0045541702 -0.070201471
-0.41485754 -0.00117295 -0.071648054
-0.34365124 -0.0045541702 -0.079185009
-0.30396825 -0.0045541702 -0.079940028
-0.2537359 -0.0045541702 -0.075493693
-0.24261673 -0.0045541702 -0.073796809
-0.20555 -0.0045541702 -0.076157644
-0.14080606 -0.0045541702 -0.07237681
-0.11714932 -0.0045541702 -0.078201227
-0.10713942 -0.0045541702 -0.073303901
-0.077014126 -0.0045541702 -0.071135879
-0.012058992 -0.0045541702 -0.074079387
0.083902642 -0.0045541702 -0.078408919
0.096067823 -0.0045541702 -0.073880672
0.16166368 -0.0045541702 -0.072248779
0.24665953 -0.0045541702 -0.079374962
0.30065027 -0.0045541702 -0.074529313
0.34629315 -0.0045541702 -0.076336525
0.38568893 -0.0045541702 -0.077434227
0.40111926 -0.0015461399 -0.075048454
0.42856041 -0.0045541702 -0.072741427
-0.39836511 -0.017954201 -0.067164965
-0.38838321 -0.017954201 -0.06061681
-0.32091892 -0.017954201 -0.068690553
-0.29318029 -0.017954201 -0.064417303
-0.25136185 -0.017954201 -0.06047646
-0.1283263 -0.017954201 -0.066629499
-0.10755978 -0.017954201 -0.063502081
-0.095620111 -0.017954201 -0.061491139
-0.0077940561 -0.017954201 -0.06770803
0.023755122 -0.017954201 -0.060657211
0.13286449 -0.017954201 -0.068169996
0.15602806 -0.017954201 -0.06808424
0.1879409 -0.017954201 -0.066069193
0.19996576 -0.017954201 -0.068376228
0.25950056 -0.017954201 -0.061643168
0.27333617 -0.017954201 -0.064100064
0.32985893 -0.017954201 -0.06415575
0.44447821 -0.016139429 -0.065467209
-0.40833867 -0.0045541702 -0.067321859
-0.39281297 -0.0045541702 -0.064793363
-0.38616341 -0.0045541702 -0.060120344
-0.3702997 -0.0045541702 -0.062657088
-0.34407887 -0.0045541702 -0.063997194
-0.32587895 -0.0045541702 -0.060324475
-0.30501449 -0.0045541702 -0.062200733
-0.29917112 -0.0045541702 -0.063211672
-0.27072206 -0.0045541702 -0.068671949
-0.21353543 -0.0045541702 -0.063640587
-0.16831563 -0.0045541702 -0.064294212
-0.1430251 -0.0045541702 -0.068040818
-0.10226825 -0.0045541702 -0.062092327
-0.076468177 -0.0045541702 -0.060241148
-0.052361019 -0.0045541702 -0.065988973
-0.0065835975 -0.0045541702 -0.068013161
0.20112592 -0.0045541702 -0.061481409
0.21016189 -0.0045541702 -0.063387319
0.37163758 -0.0045541702 -0.061042473
0.43899295 -0.0045541702 -0.065129831
-0.42220721 -0.017954201 -0.052313793
-0.36398226 -0.017954201 -0.051321909
-0.34775275 -0.017954201 -0.051299714
-0.32247198 -0.017954201 -0.053785957
-0.31717956 -0.017954201 -0.051924556
-0.2736246 -0.017954201 -0.057827674
-0.26349172 -0.017954201 -0.056276556
-0.21836217 -0.017954201 -0.051603869
-0.18340591 -0.017954201 -0.055656534
-0.16826192 -0.017954201 -0.051246345
-0.073760204 -0.017954201 -0.052354291
0.17124817 -0.017954201 -0.053877428
0.22917458 -0.017954201 -0.056730054
0.23953798 -0.017954201 -0.050555855
0.2651394 -0.017954201 -0.051866882
0.30020082 -0.017954201 -0.051649638
0.44669127 -0.015534697 -0.055615112
-0.43355846 -0.0081409859 -0.051225975
-0.42428994 -0.0043551973 -0.05615446
-0.38312474 -0.0045541702 -0.05623778
-0.35835353 -0.0045541702 -0.055333044
-0.12519716 -0.0045541702 -0.058862947
-0.10848819 -0.0045541702 -0.053531982
-0.096882746 -0.0045541702 -0.050587408
-0.065550119 -0.0045541702 -0.050766416
0.15832907 -0.0045541702 -0.050386053
0.16569534 -0.0045541702 -0.057613365
0.20848024 -0.0045541702 -0.055404611
0.23334908 -0.0045541702 -0.055637326
0.27353379 -0.0045541702 -0.05118018
0.36946192 -0.0045541702 -0.05515895
0.39521629 -0.0012102331 -0.059569366
-0.45129806 -0.016578807 -0.041436471
-0.42354509 -0.017954201 -0.042250901
-0.4065575 -0.017954201 -0.042361788
-0.34730017 -0.017954201 -0.043940872
-0.2471161 -0.017954201 -0.042161878
-0.18949611 -0.017954201 -0.042941839
-0.078672282 -0.017954201 -0.049883634
-0.030487768 -0.017954201 -0.048902854
-0.014241866 -0.017954201 -0.041615676
0.059121244 -0.017954201 -0.045696042
0.11123724 -0.017954201 -0.048488148
0.4267647 -0.017954201 -0.046277024
0.45056111 -0.017954201 -0.040261239
-0.40819931 -0.00117295 -0.045045078
-0.3971642 -0.0055470867 -0.040263142
-0.34853169 -0.0045541702 -0.049727041
-0.31015527 -0.0045541702 -0.047280371
-0.2804727 -0.0045541702 -0.040232178
-0.25463176 -0.0045541702 -0.047510486
-0.24324679 -0.0045541702 -0.041114397
-0.034703996 -0.0045541702 -0.046498712
-0.02848972 -0.0045541702 -0.044601023
0.15072638 -0.0045541702 -0.042471223
0.221228 -0.0045541702 -0.041313335
0.24845102 -0.0045541702 -0.042188376
0.33633107 -0.0045541702 -0.047154665
0.34465736 -0.0045541702 -0.042080306
0.35244432 -0.0045541702 -0.043731086
0.37853894 -0.0045541702 -0.040677752
0.39162567 0.0052550002 -0.041943621
-0.41199598 -0.017954201 -0.035507314
-0.37221494 -0.017954201 -0.037403345
-0.3059696 -0.017954201 -0.033112541
-0.26627183 -0.017954201 -0.033491276
-0.24312657 -0.017954201 -0.034735925
-0.23560543 -0.017954201 -0.037070397
-0.20167543 -0.017954201 -0.037160814
-0.13536303 -0.017954201 -0.03521632
-0.10788329 -0.017954201 -0.036644556
-0.098199844 -0.017954201 -0.032395147
-0.064996958 -0.017954201 -0.035432689
-0.057725523 -0.017954201 -0.03348162
0.046004992 -0.017954201 -0.032611687
0.094796345 -0.017954201 -0.032452445
0.12794419 -0.017954201 -0.034029868
0.13954191 -0.017954201 -0.038227726
0.2064821 -0.017954201 -0.038061805
0.25654915 -0.017954201 -0.034704857
0.2871654 -0.017954201 -0.034408037
0.33436662 -0.017954201 -0.035751827
0.40755275 -0.017954201 -0.038310125
0.45137399 -0.015303656 -0.037940096
-0.43419081 -0.0075733969 -0.035571717
-0.42345518 -0.00117295 -0.035478272
-0.41120848 -0.0082459003 -0.033087
-0.40255743 -0.00117295 -0.03168406
-0.39255714 -0.0045541702 -0.034727998
-0.38666224 -0.0045541702 -0.032306306
-0.32320198 -0.0045541702 -0.035789162
-0.31279093 -0.0045541702 -0.03442619
-0.24630368 -0.0045541702 -0.033551559
-0.091358081 -0.0045541702 -0.031739213
-0.028459817 -0.0045541702 -0.032680217
-0.018634051 -0.0045541702 -0.032572262
0.0661259 -0.0045541702 -0.033676609
0.070718221 -0.0045541702 -0.036373191
0.16742373 -0.0045541702 -0.035557728
0.20179711 -0.0045541702 -0.035682827
0.227567 -0.0045541702 -0.031358264
0.27198148 -0.0045541702 -0.039529353
0.30574811 -0.0045541702 -0.032679882
0.33015284 -0.0045541702 -0.03324813
0.4198972 -0.0015461399 -0.030032856
0.4354592 -0.0045541702 -0.036394767
-0.38843307 0.047925521 -0.03143844
-0.451271 -0.012190924 -0.023565263
-0.40944231 -0.017954201 -0.026777264
-0.35279822 -0.017954201 -0.025199704
-0.33149648 -0.017954201 -0.020228131
-0.32462823 -0.017954201 -0.021943705
-0.29226589 -0.017954201 -0.021069996
-0.28840467 -0.017954201 -0.022560988
-0.24364918 -0.017954201 -0.029044405
-0.23530334 -0.017954201 -0.021348935
-0.20974436 -0.017954201 -0.025435613
-0.19050106 -0.017954201 -0.021450015
-0.10168259 -0.017954201 -0.02059041
-0.03220132 -0.017954201 -0.029088276
0.043475706 -0.017954201 -0.028026186
0.265293 -0.017954201 -0.025572732
0.27771991 -0.017954201 -0.021387875
0.29685056 -0.017954201 -0.026423693
0.33943051 -0.017954201 -0.02728197
0.38701421 -0.017954201 -0.024830811
0.4292191 -0.017954201 -0.02388881
-0.44851738 -0.0045541702 -0.021202058
-0.4376491 -0.0060957675 -0.025968794
-0.41933715 -0.0045541702 -0.022896109
-0.39534128 -0.00117295 -0.02610741
-0.29192695 -0.0045541702 -0.028415777
-0.27189031 -0.0045541702 -0.024138752
-0.21626197 -0.0045541702 -0.025610048
-0.17949001 -0.0045541702 -0.022814207
-0.14791746 -0.0045541702 -0.021799119
-0.13639422 -0.0045541702 -0.023487933
-0.094545618 -0.0045541702 -0.021150921
0.11775561 -0.0045541702 -0.020575427
0.22380817 -0.0045541702 -0.021149334
0.23616812 -0.0045541702 -0.024414221
0.24263549 -0.0045541702 -0.02480468
0.26803577 -0.0045541702 -0.022789001
0.28767943 -0.0045541702 -0.029424939
0.29168257 -0.0045541702 -0.026342444
0.30129027 -0.0045541702 -0.025071658
-0.38594002 0.0061599961 -0.023627622
0.39249021 0.0052550002 -0.027139444
-0.38813236 0.012193441 -0.029735677
0.3852877 0.015790939 -0.022141686
-0.38529527 0.024226224 -0.022322899
-0.38778603 0.050110366 -0.029734094
-0.39108866 0.067658797 -0.024013547
-0.37132344 -0.017954201 -0.015157497
-0.33315137 -0.017954201 -0.012902061
-0.21267749 -0.017954201 -0.019045729
-0.14286757 -0.017954201 -0.015505784
-0.12160842 -0.017954201 -0.010899511
-0.096422695 -0.017954201 -0.014295571
-0.0067646098 -0.017954201 -0.019231899
0.082920596 -0.017954201 -0.016473282
0.17663689 -0.017954201 -0.01117901
0.19666247 -0.017954201 -0.011678146
0.22007583 -0.017954201 -0.01433352
0.24269542 -0.017954201 -0.01620166
0.33166742 -0.017954201 -0.010366093
-0.44024104 -0.0060300399 -0.01218087
-0.43690246 -0.0045541702 -0.019679738
-0.42677203 -0.0047094254 -0.012882636
-0.41676158 -0.0045541702 -0.017799592
-0.40038025 -0.0082459003 -0.014188298
-0.38435173 -0.0045541702 -0.010487255
-0.21480416 -0.0045541702 -0.013254135
0.072385535 -0.0045541702 -0.018802531
0.095359758 -0.0045541702 -0.011704925
0.11177969 -0.0045541702 -0.018055802
0.18874404 -0.0045541702 -0.019529153
0.19481251 -0.0045541702 -0.013400964
0.27406931 -0.0045541702 -0.014671866
0.34835112 -0.0045541702 -0.011061847
0.3679499 -0.0045541702 -0.010585308
0.40814847 -0.0045541702 -0.010495655
0.40041685 0.0052550002 -0.016398618
0.44398013 0.0026246195 -0.014697523
-0.38907456 0.029692855 -0.017543338
0.38427675 0.0281533 -0.017930035
-0.38128763 0.03263063 -0.011638797
0.38464546 0.039722838 -0.018895425
-0.38307348 0.051666729 -0.016964329
0.38413411 0.06193389 -0.016198687
-0.43527925 -0.017954201 -0.0014978386
-0.42048445 -0.017954201 -0.0069177356
-0.41413355 -0.017954201 -0.0015439391
-0.40367514 -0.017954201 -0.0039081071
-0.39437705 -0.017954201 -0.0060952082
-0.38326654 -0.017954201 -0.002108478
-0.37182134 -0.017954201 -0.0079521723
-0.28753042 -0.017954201 -0.0030450588
-0.21307346 -0.017954201 -0.0097380839
-0.14285791 -0.017954201 -0.0051844651
-0.12434097 -0.017954201 -0.0076602376
-0.11973767 -0.017954201 -0.0035623063
0.06942898 -0.017954201 -0.0097477473
0.081632867 -0.017954201 -0.0098842597
0.16211791 -0.017954201 -0.0023559765
0.21810502 -0.017954201 -0.007540904
0.31230077 -0.017954201 -0.0078425761
0.39947167 -0.017954201 -0.0080684032
0.40548822 -0.017954201 -0.0036757858
-0.451271 -0.0056223776 -0.0075148894
-0.42076701 -0.0045541702 -0.0045392271
-0.38621658 -0.0045541702 -0.0029661022
-0.37031227 -0.0045541702 -0.0072494708
0.054992121 -0.0045541702 -0.0077436715
0.10561742 -0.0045541702 -0.0019339137
0.12211823 -0.0045541702 -0.0042257123
0.20385242 -0.0045541702 -2.5227666e-05
0.21248138 -0.0045541702 -0.0023209169
0.22416329 -0.0045541702 -0.0096742921
0.37824708 -0.0045541702 -0.0060098376
0.38605508 -0.0045541702 -0.0040777326
0.38934115 0.0052550002 -0.0078621823
0.38176814 0.02309267 -0.0087473514
-0.38446271 0.03931741 -0.0047796201
-0.37958223 0.04242051 -0.0072462955
-0.38033059 0.062915988 -0.0097881965
0.37345275 0.06453833 -0.00021227007
-0.44174355 -0.017954201 0.0038547181
-0.43243253 -0.017954201 0.0034909551
-0.41973826 -0.017954201 0.0041896142
-0.39195919 -0.017954201 0.0096798036
-0.34174854 -0.017954201 0.0046686227
-0.29697877 -0.017954201 0.0050311442
-0.23306426 -0.017954201 0.0089330748
-0.17154241 -0.017954201 0.0036608782
-0.15967329 -0.017954201 0.0061441553
-0.085326068 -0.017954201 0.0056641968
-0.079603627 -0.017954201 0.0056101866
-0.050142195 -0.017954201 0.0042510405
-0.044111308 -0.017954201 0.0031259882
0.020893984 -0.017954201 0.006972719
0.064185835 -0.017954201 0.0052099549
0.11816668 -0.017954201 0.0020069676
0.12660819 -0.017954201 0.0016824082
0.16162349 -0.017954201 0.0070480425
0.19497731 -0.017954201 0.0037204307
0.26722133 -0.017954201 0.0075447597
0.28356293 -0.017954201 0.0027607381
0.32316944 -0.017954201 0.0018872824
0.39327919 -0.017954201 0.0065004472
-0.44857883 -0.0045541702 0.00979596
-0.43531144 -0.0024229749 0.0073979208
-0.42239794 -0.004219729 0.0013999302
-0.401851 -0.0049045212 0.0042785946
-0.39912835 -0.0067915879 0.0038838964
-0.33885741 -0.0045541702 0.00030924007
-0.31593639 -0.0045541702 0.00073303282
-0.28759915 -0.0045541702 0.0026407167
-0.23413536 -0.0045541702 0.0048043542
-0.19415703 -0.0045541702 0.0029703472
-0.1628409 -0.0045541702 0.0052057747
-0.13825846 -0.0045541702 0.003104886
-0.12396894 -0.0045541702 0.0066312985
-0.054227263 -0.0045541702 0.0055148322
-0.022242408 -0.0045541702 0.0094789369
-0.016849346 -0.0045541702 0.0091855042
0.077228278 -0.0045541702 0.00052278675
0.11847255 -0.0045541702 0.0085100736
0.12678035 -0.0045541702 0.0041932035
0.1820973 -0.0045541702 0.0029443633
0.20959257 -0.0045541702 0.0062365346
0.22526418 -0.0045541702 0.0089632049
0.25015461 -0.0045541702 0.00036633946
0.31111881 -0.0045541702 0.0055565871
0.32657951 -0.0045541702 0.0088964216
0.37663627 -0.0025343352 0.0049442025
0.38058439 -0.0045541702 0.0030305022
0.41186994 -0.0045541702 0.0022279057
0.42262572 -0.0015461399 0.00041330047
0.44335598 -0.0015461401 0.0080503616
0.39290166 0.0049197124 0.0069971965
0.44554713 0.004367128 0.0053789727
0.37902725 0.020944832 0.00140581
-0.38045034 0.03834223 0.0061032162
-0.37944496 0.04195461 0.0089216363
0.37786719 0.042518698 0.0065004858
0.37913954 0.068464071 0.0026728576
-0.38576871 -0.017954201 0.011044428
-0.33583915 -0.017954201 0.01446881
-0.3293733 -0.017954201 0.011770826
-0.31792045 -0.017954201 0.014525816
-0.26277074 -0.017954201 0.011134874
-0.19903761 -0.017954201 0.012523077
-0.1591077 -0.017954201 0.019064065
-0.020123191 -0.017954201 0.018683409
-0.001559821 -0.017954201 0.016409999
0.0098462394 -0.017954201 0.01042441
0.05657474 -0.017954201 0.014619412
0.09563081 -0.017954201 0.01419577
0.1070317 -0.017954201 0.013702746
0.11852437 -0.017954201 0.015912294
0.17604098 -0.017954201 0.014144011
0.28672779 -0.017954201 0.016220812
0.31631151 -0.017954201 0.013782196
0.34505996 -0.017954201 0.010471072
0.4139148 -0.017954201 0.017338969
0.4257313 -0.017954201 0.017028335
0.45137399 -0.014801386 0.016256388
-0.451271 -0.0069763185 0.019877847
-0.43753037 -0.0064000352 0.017730754
-0.41466433 -0.0076959692 0.011663883
-0.40700614 -0.005711365 0.014797542
-0.38334218 -0.0070153237 0.013946415
-0.35503262 -0.0045541702 0.011091664
-0.24690369 -0.0045541702 0.010600675
-0.14079003 -0.0045541702 0.012460958
-0.12799576 -0.0045541702 0.019852582
-0.035983086 -0.0045541702 0.018373173
-0.007391084 -0.0045541702 0.014369912
0.035491049 -0.0045541702 0.010010429
0.04757908 -0.0045541702 0.013449471
0.10163923 -0.0045541702 0.013999347
0.12584884 -0.0045541702 0.010471039
0.20489076 -0.0045541702 0.013796865
0.2152673 -0.0045541702 0.016501471
0.23380776 -0.0045541702 0.012126938
0.27659291 -0.0045541702 0.015033955
0.3191748 -0.0045541702 0.017085783
0.39773116 -0.00010084867 0.018131632
0.42187509 -0.0045541702 0.014988527
0.37458333 0.0083135795 0.017543323
0.44397911 0.0051157372 0.016845575
0.37618959 0.016748566 0.011847531
0.37607127 0.023363445 0.012523815
-0.37715492 0.051353373 0.015369078
-0.37426347 0.065870583 0.01675158
-0.3344444 -0.017954201 0.022130501
-0.32093543 -0.017954201 0.026053483
-0.26271176 -0.017954201 0.024565114
-0.25613493 -0.017954201 0.020239867
-0.225106 -0.017954201 0.025557075
-0.20420858 -0.017954201 0.023341257
-0.17818606 -0.017954201 0.021251367
-0.14079455 -0.017954201 0.026764067
-0.10248993 -0.017954201 0.022873294
0.015119894 -0.017954201 0.020911837
0.1586144 -0.017954201 0.028607629
0.18502346 -0.017954201 0.022729667
0.20993039 -0.017954201 0.022952495
0.3613624 -0.017954201 0.021337511
0.42182833 -0.017954201 0.02549137
0.45067891 -0.017954201 0.02920834
-0.44529021 -0.0045541702 0.026762096
-0.43082586 -0.0082459003 0.025398003
-0.42270416 -0.0082459003 0.026390206
-0.41818991 -0.0082459003 0.020815128
-0.40152144 -0.00117295 0.025092963
-0.3785432 -0.00117295 0.02938541
-0.30719042 -0.0045541702 0.022372689
-0.280191 -0.0045541702 0.029670436
-0.27108857 -0.0045541702 0.02584612
-0.26846954 -0.0045541702 0.024929304
-0.244371 -0.0045541702 0.021912942
-0.20345083 -0.0045541702 0.021179462
-0.1155412 -0.0045541702 0.022865005
-0.10909505 -0.0045541702 0.028084205
0.010128288 -0.0045541702 0.023221903
0.036119808 -0.0045541702 0.029779634
0.074774139 -0.0045541702 0.024192858
0.1997484 -0.0045541702 0.020836614
0.21473789 -0.0045541702 0.027930196
0.26548815 -0.0045541702 0.029633576
0.2749595 -0.0045541702 0.026397934
0.33109707 -0.0045541702 0.020053625
0.35595018 -0.0045541702 0.022628346
0.38441837 -0.0045541702 0.025399109
0.39179507 -0.0015461399 0.028482672
0.40069804 -0.0015461399 0.027584128
0.430529 -0.0045541702 0.022698663
0.37347138 0.0030611607 0.021584839
0.41045183 0.0036262083 0.029377412
0.42912593 0.0011571214 0.024284456
0.37215108 0.017372537 0.024613224
0.37247288 0.036829598 0.026431186
0.36667541 0.058852319 0.026841126
0.36808947 0.07143569 0.023608673
-0.30796823 -0.017954201 0.033564955
-0.28377232 -0.017954201 0.038851663
-0.22563723 -0.017954201 0.031436346
-0.21715985 -0.017954201 0.037208237
-0.19401272 -0.017954201 0.037939534
-0.079516493 -0.017954201 0.038980886
0.071319401 -0.017954201 0.033270624
0.10390325 -0.017954201 0.03820692
0.23620434 -0.017954201 0.037102144
0.30323353 -0.017954201 0.033188093
0.36438212 -0.017954201 0.037794948
0.37960765 -0.017954201 0.035790019
0.38652259 -0.017954201 0.03138458
0.44292516 -0.017954201 0.035140719
-0.45050916 -0.0051490087 0.038719524
-0.37050074 -0.0037804646 0.032207966
-0.32654947 -0.0045541702 0.037999392
-0.22062242 -0.0045541702 0.032910757
-0.13330662 -0.0045541702 0.032383088
-0.11812817 -0.0045541702 0.039476424
-0.076189019 -0.0045541702 0.033285789
-0.035850648 -0.0045541702 0.03567126
-0.021152284 -0.0045541702 0.039586462
-0.018205844 -0.0045541702 0.03350611
0.031030294 -0.0045541702 0.03609217
0.13990906 -0.0045541702 0.033980384
0.15493228 -0.0045541702 0.032594614
0.17655957 -0.0045541702 0.035540365
0.19019036 -0.0045541702 0.032657389
0.32574049 -0.0045541702 0.036766596
0.34478483 -0.0045541702 0.031288438
0.3806971 -0.0045541702 0.033028256
0.39790431 -0.0045541702 0.033850893
0.42028624 -0.0015461399 0.03959287
0.43034086 -0.0045541702 0.030010123
0.40707421 0.0046977801 0.034043688
0.43914771 0.0034340841 0.035416231
0.44098103 0.001981213 0.030926334
-0.43622825 -0.017954201 0.041003846
-0.41535738 -0.017954201 0.041015223
-0.3981418 -0.017954201 0.047447726
-0.37366495 -0.017954201 0.049104154
-0.33481887 -0.017954201 0.045053955
-0.2879141 -0.017954201 0.047975175
-0.27066684 -0.017954201 0.041510437
-0.2334756 -0.017954201 0.042308554
-0.17758058 -0.017954201 0.048647739
-0.16673544 -0.017954201 0.040834151
-0.049889598 -0.017954201 0.042207897
0.0080999024 -0.017954201 0.041684359
0.13250813 -0.017954201 0.042132035
0.16630426 -0.017954201 0.040491734
0.1953242 -0.017954201 0.046742562
0.29520103 -0.017954201 0.043475185
0.30575991 -0.017954201 0.045291103
0.33315647 -0.017954201 0.046201583
0.3679229 -0.017954201 0.04772988
0.37131387 -0.017954201 0.044747815
0.44518423 -0.017954201 0.04915246
-0.40079314 -0.0045541702 0.040263362
-0.36559474 -0.0037078895 0.04554148
-0.35930827 -0.0045541702 0.044431493
-0.32713228 -0.0045541702 0.049900632
-0.28338921 -0.0045541702 0.040684387
-0.2723392 -0.0045541702 0.044867028
-0.26645947 -0.0045541702 0.045999102
-0.094640851 -0.0045541702 0.040965352
-0.071103372 -0.0045541702 0.048423305
-0.062674545 -0.0045541702 0.043001655
-0.049705416 -0.0045541702 0.044311792
-0.033945959 -0.0045541702 0.041202005
-0.01641484 -0.0045541702 0.044155225
0.038721792 -0.0045541702 0.045383982
0.26713181 -0.0045541702 0.043117609
0.28445598 -0.0045541702 0.041439466
0.39104983 -0.0045541702 0.040800478
0.40069932 -0.0045541702 0.042358801
0.4354001 -0.0045541702 0.042540982
0.38898331 0.0052550002 0.04767409
0.41964835 0.0052550007 0.041036207
-0.40530083 -0.017954201 0.051864933
-0.31452802 -0.017954201 0.055769242
-0.20100468 -0.017954201 0.059816264
-0.17819464 -0.017954201 0.052026238
-0.16287862 -0.017954201 0.051818985
-0.092602663 -0.017954201 0.058695856
-0.072169237 -0.017954201 0.051456105
-0.023508674 -0.017954201 0.051649511
0.068765931 -0.017954201 0.058664765
0.082979798 -0.017954201 0.052151628
0.15409188 -0.017954201 0.058813054
0.22572203 -0.017954201 0.050691519
0.2588796 -0.017954201 0.058446202
0.31377345 -0.017954201 0.050339855
-0.42485014 -0.0045541702 0.058363285
-0.40966928 -0.0045541702 0.051186945
-0.38529265 -0.0082459003 0.056776825
-0.36633527 -0.0047094254 0.053805888
-0.2325334 -0.0045541702 0.052751437
-0.19119249 -0.0045541702 0.051808283
-0.16538048 -0.0045541702 0.059738848
-0.14164071 -0.0045541702 0.051306278
-0.10982367 -0.0045541702 0.059709884
-0.090306059 -0.0045541702 0.052653667
-0.086028665 -0.0045541702 0.053166501
-0.079777561 -0.0045541702 0.05214674
0.057028122 -0.0045541702 0.052014388
0.13489808 -0.0045541702 0.051969148
0.2370272 -0.0045541702 0.054261427
0.26076972 -0.0045541702 0.052074518
0.29560012 -0.0045541702 0.054949004
0.39111868 -0.0045541702 0.057133637
0.4308539 -0.0045541702 0.056561235
0.37759349 0.0052549997 0.052926093
0.43059292 0.0052550002 0.052333806
-0.40222478 -0.017954201 0.066474572
-0.34231508 -0.017954201 0.067652017
-0.28977495 -0.017954201 0.060862966
-0.057275154 -0.017954201 0.063192382
-0.016767485 -0.017954201 0.064911261
-0.0026646992 -0.017954201 0.064580582
0.040716708 -0.017954201 0.066697866
0.076910466 -0.017954201 0.065437049
0.19504917 -0.017954201 0.066445999
0.27387717 -0.017954201 0.064910799
0.28784251 -0.017954201 0.063002817
0.30388471 -0.017954201 0.065832064
0.33941117 -0.017954201 0.065224886
0.37315398 -0.017954201 0.066499911
0.40309739 -0.017954201 0.068020247
0.43568778 -0.015995987 0.065686092
-0.42142287 -0.0045541702 0.062979922
-0.41557842 -0.0045541702 0.068007357
-0.40786451 -0.0044785468 0.064829729
-0.35963282 -0.00117295 0.062499039
-0.31748092 -0.0045541702 0.067008004
-0.23338398 -0.0045541702 0.068431824
-0.22777167 -0.0045541702 0.069262803
-0.21823907 -0.0045541702 0.068396203
-0.16274257 -0.0045541702 0.066151284
-0.11551853 -0.0045541702 0.067850634
-0.077333339 -0.0045541702 0.062098693
-0.017590158 -0.0045541702 0.06495814
-0.0087364763 -0.0045541702 0.064764291
0.046170354 -0.0045541702 0.063864604
0.084324129 -0.0045541702 0.063579477
0.20369595 -0.0045541702 0.06170097
0.21824883 -0.0045541702 0.063694902
0.32003719 -0.0045541702 0.062485974
0.3766529 -0.0045541702 0.067547917
0.39292884 -0.003050155 0.062746093
0.41924337 -0.0045541702 0.068502411
0.43426552 -0.0045541702 0.063983053
0.41865778 0.0052550002 0.065961488
-0.4233427 -0.017954201 0.075075686
-0.4112137 -0.017954201 0.079266682
-0.36749336 -0.017954201 0.073303409
-0.35738605 -0.017954201 0.076026231
-0.33662164 -0.017954201 0.077907071
-0.31112328 -0.017954201 0.070268035
-0.23947757 -0.017954201 0.076129258
-0.12111153 -0.017954201 0.072923839
-0.072556227 -0.017954201 0.070801735
0.25970161 -0.017954201 0.078585804
0.3006579 -0.017954201 0.076555192
0.3298516 -0.017954201 0.071041174
0.34570456 -0.017954201 0.075637802
0.41905445 -0.017954201 0.070410214
-0.41556138 -0.0045541702 0.07187891
-0.36438355 -0.0064000352 0.075054772
-0.33180672 -0.0045541702 0.077341974
-0.31007421 -0.0045541702 0.077888273
-0.23980203 -0.0045541702 0.075586528
-0.21697736 -0.0045541702 0.076897398
-0.16892952 -0.0045541702 0.074591324
-0.11435784 -0.0045541702 0.071552992
0.032461129 -0.0045541702 0.077544339
0.16196099 -0.0045541702 0.073404066
0.17970105 -0.0045541702 0.072797045
0.21095967 -0.0045541702 0.072743073
0.24597709 -0.0045541702 0.074489005
0.28835425 -0.0045541702 0.07426174
0.30237979 -0.0045541702 0.077609621
0.34874049 -0.0045541702 0.075414799
0.35745901 -0.0045541702 0.079496533
0.39960277 -0.0045541702 0.071435317
0.38525999 0.0052550002 0.071740001
0.4043951 0.0044783871 0.071613491
-0.39421502 -0.017954201 0.08002273
-0.36798292 -0.017954201 0.08426296
-0.33082637 -0.017954201 0.082042553
-0.2953493 -0.017954201 0.089110985
-0.26347309 -0.017954201 0.088148952
-0.17235608 -0.017954201 0.084080786
-0.097290397 -0.017954201 0.082855985
-0.054972354 -0.017954201 0.082244679
-0.048773851 -0.013967525 0.087090001
-0.03496889 -0.017954201 0.085711345
-0.0038474575 -0.017954201 0.080206677
0.027336165 -0.015725488 0.087090001
0.054159142 -0.010923473 0.087090001
0.066903397 -0.011244426 0.087090001
0.076258652 -0.010738024 0.087090001
0.18125328 -0.017954201 0.087683558
0.20294954 -0.017954201 0.08641874
0.27621028 -0.017954201 0.084858775
0.28868717 -0.017954201 0.083703011
-0.39894107 -0.0045541702 0.083926044
-0.37064308 -0.0045541702 0.087253869
-0.32545966 -0.0045541702 0.082304835
-0.31362426 -0.0045541702 0.080830581
-0.29172409 -0.0045541702 0.080494434
-0.28249535 -0.0045541702 0.08829283
-0.24329039 -0.0045541702 0.086760931
-0.22036299 -0.0045541702 0.082123987
-0.18925816 -0.0045541702 0.089376539
-0.1777849 -0.0045541702 0.08902698
-0.13094807 -0.0045541702 0.08767046
-0.12903799 -0.0050925119 0.088612594
-0.086033739 -0.0045541702 0.085686721
-0.027073309 -0.0045541702 0.086298764
-0.015307341 -0.0045541702 0.086359859
0.0081345849 -0.0045541702 0.082035437
0.065933242 -0.0058857268 0.087090001
0.093100026 -0.0082025416 0.087090001
0.17294064 -0.0045541702 0.084907949
0.27544993 -0.0045541702 0.080588348
0.28757563 -0.0045541702 0.087355778
0.30191365 -0.0045541702 0.089848816
0.3604672 -0.0045541702 0.086205266
0.37909737 -0.0045541702 0.087795004
0.39724702 -0.0015461398 0.080865562
0.40701133 -0.0045541702 0.084490463
-0.36234295 -0.017954201 0.092153981
-0.28870368 -0.017954201 0.092114933
-0.27717093 -0.017954201 0.096360885
-0.24807666 -0.017954201 0.092340328
0.13370815 -0.016887242 0.090490922
0.15174031 -0.015293469 0.096124813
0.17680466 -0.017954201 0.094940536
0.24707642 -0.017954201 0.090467453
0.26764375 -0.017954201 0.090171956
-0.38471961 -0.0045541702 0.097146362
-0.36335054 -0.0045541702 0.097125143
-0.31317136 -0.0045541702 0.097645074
-0.30394068 -0.0045541702 0.095454328
-0.19684803 -0.0045541702 0.094388686
-0.17220971 -0.0045541702 0.092139475
-0.16946788 -0.0045541702 0.094302759
0.15214366 -0.0045541702 0.09384492
0.26473558 -0.0045541702 0.09661682
0.33067724 -0.0045541702 0.096833415
0.38066202 -0.0045541702 0.097622454
0.36955684 0.0052549997 0.092349567
-0.30625498 -0.017954201 0.1041645
-0.17751086 -0.017954201 0.10404649
0.1747361 -0.017954201 0.10672937
0.34980595 -0.017954201 0.10774984
-0.34152523 -0.0045541702 0.10071812
-0.27618173 -0.0045541702 0.10390814
-0.25801849 -0.0045541702 0.10334334
-0.24575979 -0.0045541702 0.10126851
-0.20878977 -0.0045541702 0.10968315
0.17657942 -0.0097878864 0.10774051
0.21096206 -0.0045541702 0.1036696
0.22694448 -0.0045541702 0.10091671
0.31056911 -0.0045541702 0.10198236
0.32899776 -0.0045541702 0.10140045
0.34580278 -0.0045541702 0.10417072
0.3513121 -0.0045541702 0.10818985
0.3715474 -0.0045541702 0.10122304
0.38717636 -0.0045541702 0.10232324
-0.35519713 -0.017954201 0.11248468
-0.34960067 -0.010198644 0.11604974
-0.3367027 -0.01495066 0.11439446
-0.28519171 -0.01233291 0.117799
-0.26825285 -0.015108504 0.117799
-0.21847053 -0.017954201 0.11143529
0.23547414 -0.016468471 0.117799
0.34144318 -0.010736438 0.11732345
-0.34887773 -0.0085279429 0.11615988
-0.33121046 -0.0045541702 0.11527373
-0.2563141 -0.0091782408 0.11779901
0.2926898 -0.0062908712 0.117799
0.32900292 -0.0090698879 0.117799
0.33184606 -0.0045541702 0.11739939
0.36598879 -0.0045541702 0.11198771
