# .PCD v0.7 - Point Cloud Data file format
VERSION 0.7
FIELDS x y z
SIZE 4 4 4
TYPE F F F
COUNT 1 1 1
WIDTH 957
HEIGHT 1
VIEWPOINT 0 0 0 1 0 0 0
POINTS 957
DATA ascii
-0.30585331 -0.10674526 -0.300071
-0.30966797 -0.091180019 -0.300071
-0.29641864 -0.094622456 -0.300071
0.3312349 -0.082315952 -0.300419
-0.33634299 -0.0724269 -0.300071
-0.23726699 -0.07217624 -0.300071
0.26812547 -0.077430032 -0.300419
-0.30716628 -0.061927997 -0.300071
0.24445491 -0.06340009 -0.300419
0.2616711 -0.065010816 -0.300419
0.31423235 -0.060683951 -0.300419
-0.36283448 -0.05929406 -0.300071
-0.31016821 -0.058230124 -0.300071
0.21992171 -0.058477264 -0.300419
0.25965422 -0.042563297 -0.300419
0.2951684 -0.041559018 -0.300419
-0.35791054 -0.032316308 -0.300071
-0.33929923 -0.035808746 -0.300071
0.27456504 -0.036847502 -0.300419
-0.34447059 -0.023552427 -0.300071
-0.28779483 -0.02393947 -0.300071
0.25016385 -0.027438756 -0.300419
0.35597897 -0.022926949 -0.300419
0.1999505 -0.010006875 -0.300419
0.25718513 -0.015105709 -0.300419
0.29452252 -0.019081593 -0.300419
-0.3259671 -0.0082704714 -0.300071
-0.28162858 -0.002668391 -0.300071
0.24646077 -0.0088645071 -0.300419
-0.36981273 0.0099979937 -0.300071
0.25116056 0.0034447834 -0.300419
0.27932796 0.0099616405 -0.30021226
0.28696284 0.0002228762 -0.300419
0.3465625 0.0048359744 -0.300419
0.36391631 0.0038272371 -0.300419
-0.27497941 0.013731128 -0.300071
0.32963499 0.021052219 -0.300419
-0.25033358 0.033426143 -0.300071
0.26035407 0.031016992 -0.300419
0.2355873 0.042528927 -0.300419
0.27541956 0.047054209 -0.300419
-0.26355901 0.058268223 -0.300071
-0.32383198 -0.10614556 -0.29625675
0.25093198 -0.096377045 -0.29240116
-0.30198109 -0.0490411 -0.29478025
0.19839509 -0.024237415 -0.29779148
0.31057101 -0.012246612 -0.29465726
0.37040979 -0.01335798 -0.2923674
0.20612481 0.019167027 -0.29112101
0.25952843 0.06577535 -0.2998592
-0.32325706 -0.10638373 -0.2856319
0.22105865 -0.076065533 -0.28144464
0.348555 -0.074421301 -0.28137812
0.21456346 -0.067600772 -0.28487074
0.31057101 -0.024242112 -0.28551623
0.19780518 -0.01975652 -0.28576645
-0.22692178 0.03123052 -0.2874369
0.21233329 0.030531837 -0.28809217
-0.35098678 0.044690143 -0.28730759
-0.33960596 0.05338937 -0.28751081
0.24108656 0.058136187 -0.2839292
0.30896521 -0.099879406 -0.273094
0.34794676 -0.075214006 -0.27829233
0.20542282 -0.0516348 -0.2752865
0.30886841 -0.0416293 -0.27758306
-0.26835299 -0.027252447 -0.27471069
-0.20851763 -0.01362569 -0.2785311
0.29522058 0.0099616405 -0.27019322
0.300302 0.0099616405 -0.27844033
-0.36301571 0.032765061 -0.27972215
-0.34929863 0.045985587 -0.27910358
-0.32932109 0.05764959 -0.27802703
0.3035596 -0.10125317 -0.26024809
0.25019377 -0.096071258 -0.26735786
0.31519237 -0.097299993 -0.26376146
-0.3628127 -0.079252139 -0.26229006
-0.21300218 -0.052541088 -0.26288062
-0.32314301 -0.032662582 -0.26514864
-0.38367605 -0.024409216 -0.2636838
-0.38242275 -0.012294907 -0.26222152
-0.21085458 0.0011342334 -0.26676145
0.2976394 0.0099616405 -0.2653676
-0.36172009 0.034453485 -0.26622325
-0.35223031 0.043735906 -0.2631495
0.22937414 0.049245153 -0.26333505
-0.31961107 0.061671674 -0.26181018
0.28889889 0.069020458 -0.26440281
-0.29939306 -0.11089517 -0.25029522
0.2472695 -0.094859906 -0.2596921
0.3438943 -0.079635367 -0.25064945
0.20728856 -0.056139361 -0.25602108
-0.22876045 0.033626664 -0.25819227
-0.32878861 0.05787015 -0.25142914
-0.31829491 0.062184617 -0.25921905
0.26118663 -0.10062492 -0.2490278
0.32995147 -0.090334274 -0.24052821
0.21024297 -0.061970159 -0.24573192
-0.21084204 -0.047325969 -0.24425012
0.20358059 -0.047186989 -0.24126887
0.30351228 -0.0416293 -0.24605122
-0.26835299 -0.030086357 -0.24361856
0.29215753 0.0099616405 -0.24781246
0.32815441 0.057550713 -0.24446717
0.25069648 0.062116891 -0.24182373
0.24942672 -0.095753513 -0.23851156
0.33746693 -0.084567338 -0.23138705
-0.38149348 -0.040984102 -0.23510301
-0.32314301 -0.048077598 -0.23229438
0.30506057 -0.0416293 -0.23840865
-0.26835299 -0.025544621 -0.234763
-0.20886561 -0.01098207 -0.23767921
0.28933942 0.0099616405 -0.23945773
0.30822498 0.0099616405 -0.23973715
0.20501742 0.016493302 -0.23229483
0.36091802 0.022328321 -0.2340225
-0.30639017 -0.1099741 -0.22799301
0.27001336 -0.1019405 -0.22858724
0.21582647 -0.069246762 -0.22420762
0.3567704 -0.063714705 -0.22270909
0.20874292 -0.059650682 -0.22897309
0.29863885 -0.0416293 -0.2226439
0.36748743 -0.040631771 -0.22761115
0.1990986 -0.004581782 -0.22595245
-0.32015628 0.0062045502 -0.22006275
-0.25809497 0.056117281 -0.2297425
0.3277407 0.057868171 -0.2216296
0.31832653 0.061839171 -0.22587645
-0.35143885 -0.090565532 -0.21823925
0.24889594 -0.095533639 -0.21833932
0.35253185 -0.069238558 -0.21736768
0.3597081 -0.05941176 -0.21230061
-0.27105904 0.0062045502 -0.2105782
0.19989543 0.0014707684 -0.21060988
0.27014306 0.0099616405 -0.21375518
0.36864549 4.340522e-05 -0.21995628
0.20244637 0.010285714 -0.21104985
-0.36023301 0.036391426 -0.21290025
-0.25953811 0.056715034 -0.2172088
-0.3191413 -0.10808866 -0.20535752
-0.27367818 -0.10851984 -0.20342252
0.2655172 -0.10134858 -0.20035541
-0.21035624 -0.046153061 -0.20539036
-0.32314301 -0.033110764 -0.20592068
0.26298299 -0.030402515 -0.20960379
0.36858833 -0.034640424 -0.20283087
-0.32314301 -0.020719888 -0.2011838
-0.26835299 -0.0077315178 -0.20249912
-0.37814522 0.0062408457 -0.20065817
-0.29839867 0.0062045502 -0.20953587
-0.27156445 0.0062045502 -0.20676404
0.22861306 0.04866118 -0.20370346
0.23273002 0.051820118 -0.20502934
0.25453788 0.063708112 -0.20699608
-0.31951347 -0.10793447 -0.19450481
0.24455078 -0.093733698 -0.19113529
0.31623662 -0.096867442 -0.19349861
-0.30982566 -0.0490411 -0.19325572
0.31057101 -0.039428536 -0.19252834
-0.38296661 -0.016425177 -0.19737931
-0.26835299 -0.01769999 -0.19571756
-0.20794584 -0.017969366 -0.19953743
-0.21353453 0.0076042521 -0.19634606
0.30791077 0.0099616405 -0.1964774
0.36848155 0.0012883765 -0.19676486
-0.37515849 0.013451367 -0.19310194
-0.35919559 0.037743405 -0.19955775
0.21542326 0.03455878 -0.1993687
-0.2436251 0.047373526 -0.19399883
0.32913342 0.056799464 -0.1971775
-0.29378128 -0.11116613 -0.18106924
-0.33163476 -0.10291331 -0.18258032
0.27564761 -0.10268225 -0.18586919
-0.34547091 -0.095144928 -0.18280964
-0.25085065 -0.099140011 -0.18559286
-0.24241135 -0.092664331 -0.18558837
-0.22299688 -0.072338045 -0.18657139
-0.26835299 -0.04898639 -0.18869399
0.28872976 -0.0416293 -0.18422717
-0.38313907 -0.028487062 -0.18195698
0.31057101 -0.029735645 -0.18632735
-0.32314301 -0.00042366554 -0.18498735
-0.27996504 0.0062045502 -0.18550873
0.24419449 0.059423588 -0.18845358
0.27400744 0.06830357 -0.18093702
0.29895422 0.06769672 -0.18360177
-0.33448496 -0.095499799 -0.17045499
-0.2660383 -0.080195799 -0.17045499
-0.25448003 -0.089307994 -0.17045499
0.28836426 -0.084906578 -0.17209999
-0.24840075 -0.079976484 -0.17045499
0.34451532 -0.079158828 -0.17895138
-0.28117958 -0.066658057 -0.17045499
0.23547921 -0.065855511 -0.17209999
-0.37821624 -0.052291468 -0.17372844
-0.22937357 -0.057303019 -0.17045499
0.28798908 -0.058934279 -0.17209999
-0.33490422 -0.04230538 -0.17045499
-0.29697248 -0.0490411 -0.17053215
-0.25044605 -0.045413092 -0.17045499
-0.25861764 -0.039024908 -0.17045499
0.23945792 -0.026415067 -0.17209999
0.21245527 -0.011461782 -0.17209998
0.22846213 -0.018434212 -0.17209999
0.23848999 -0.017687639 -0.17209998
-0.34509391 -0.00072987843 -0.17045499
-0.30970663 0.0062045502 -0.17003651
-0.29713255 0.012032229 -0.17045499
-0.27910891 0.012021365 -0.17045499
0.23404545 0.010594759 -0.17209999
0.30499786 0.013909962 -0.17209999
-0.33287337 0.022497533 -0.17045499
-0.28333977 0.02604904 -0.17045498
0.35349929 0.02406276 -0.17209999
-0.25950721 0.032957483 -0.17045499
-0.34164408 0.044780955 -0.17045499
-0.28007686 0.048125014 -0.17045499
0.32769272 0.048115913 -0.17209999
0.29357249 0.058444537 -0.17209999
0.32365555 0.059631869 -0.1770754
-0.29460615 0.061004318 -0.17045499
0.26298299 -0.011769934 -0.16087079
-0.26835299 -0.035086818 -0.15492569
-0.32314301 0.0049441308 -0.15511166
-0.31323931 0.0062045502 -0.15609902
0.28123975 0.0099616405 -0.15755996
0.31057101 0.0041215168 -0.15257053
-0.32314301 -0.045650251 -0.14866608
0.31057101 -0.040603258 -0.14879414
-0.32314301 -0.032780107 -0.13497794
0.26298299 -0.012725787 -0.13837406
-0.26835299 -0.0058495672 -0.13148113
0.31057101 -0.0094164256 -0.1301299
-0.31964546 0.0062045502 -0.1314832
0.26298299 0.0081455577 -0.13392997
0.28663477 0.0099616405 -0.13909364
-0.27109611 -0.0490411 -0.12232126
-0.32314301 -0.030862313 -0.1248507
0.26298299 -0.03694788 -0.12845424
0.31057101 -0.014628717 -0.12709011
0.31057101 0.0089814905 -0.12619382
0.26298299 -0.039345969 -0.11376657
0.26298299 -0.024379956 -0.11593576
0.26298299 -0.012554793 -0.11381973
-0.26835299 -0.0021087807 -0.11847633
-0.29800504 0.0062045502 -0.11519919
0.28178626 0.0099616405 -0.11276795
0.1893633 0.0678818 -0.11133047
-0.30273047 0.078879453 -0.118514
-0.27390838 0.07523565 -0.118514
-0.11324449 0.070953459 -0.118514
0.14038993 0.076219976 -0.118514
-0.30889529 0.087752104 -0.118514
-0.23525697 0.083334088 -0.118514
-0.17525172 0.085577048 -0.118514
-0.061305389 0.082678825 -0.118514
-0.04155013 0.084573627 -0.118514
0.033653438 0.089147083 -0.118514
0.22611381 0.087474003 -0.118514
-0.37866396 0.094885826 -0.118514
-0.29691893 0.097156584 -0.118514
-0.17083842 0.097573906 -0.118514
0.0052163452 0.099253118 -0.118514
0.17919244 0.096612178 -0.118514
0.33092332 0.097411394 -0.118514
-0.13803956 0.10907099 -0.118514
-0.072057992 0.10869338 -0.118514
0.16855633 0.1032666 -0.118514
0.19896665 0.10440226 -0.118514
0.23188341 0.10152955 -0.118514
0.38384703 0.10964982 -0.11122569
-0.32066992 0.1114 -0.11255771
-0.23441809 0.11139999 -0.11836173
-0.041121855 0.1114 -0.11283088
0.016760573 0.1114 -0.11521143
0.053000011 0.11131378 -0.11724666
0.066136315 0.11139999 -0.11415101
0.090889819 0.11139999 -0.11021671
0.17423949 0.11091292 -0.118514
0.18551515 0.1114 -0.11837766
0.30359498 0.1114 -0.11346536
0.34884194 0.1114 -0.11817037
-0.28164667 -0.0490411 -0.10132974
0.27189463 -0.0416293 -0.10069504
0.26298299 -0.031204289 -0.1022319
-0.26835299 -0.027693016 -0.10601781
0.31057101 -0.0074608419 -0.10228227
-0.27582642 0.0062045502 -0.10262975
-0.28178567 0.0678818 -0.10080643
-0.21023569 0.0678818 -0.10880385
-0.13085087 0.0678818 -0.10230286
0.089646786 0.0678818 -0.10958065
0.18416426 0.0678818 -0.10742863
0.22293976 0.0678818 -0.10017007
0.35773537 0.0678818 -0.103011
-0.2783258 0.1114 -0.1075093
0.025558431 0.1114 -0.10692882
0.084104463 0.11139999 -0.10785133
-0.32314301 -0.045265332 -0.095956445
0.27133888 -0.0416293 -0.094810084
0.26298299 -0.013528008 -0.097479939
-0.26835299 0.0058968486 -0.098198399
0.30875531 0.0099616405 -0.095962189
-0.34923357 0.0678818 -0.090524741
-0.29083487 0.0678818 -0.098194122
-0.23161687 0.0678818 -0.09969756
-0.10814819 0.0678818 -0.098918632
-0.058994956 0.0678818 -0.092031613
0.034996442 0.0678818 -0.090997681
0.078404486 0.0678818 -0.09607622
0.17947331 0.067881808 -0.09649305
0.20789245 0.067881793 -0.098902002
0.25339884 0.0678818 -0.098879412
0.28570268 0.0678818 -0.098009832
0.30346388 0.0678818 -0.097422011
-0.368754 0.1114 -0.09048754
-0.25104219 0.11139999 -0.094181463
-0.12881497 0.11139999 -0.095569722
0.075798981 0.11139999 -0.09693481
0.16707803 0.1114 -0.090876058
0.17969863 0.1114 -0.091683887
0.26110205 0.1114 -0.097361453
0.33158809 0.1114 -0.094163746
0.31057101 0.0027332203 -0.081838764
-0.37913299 0.06971246 -0.086046346
-0.32676834 0.0678818 -0.085777678
-0.20694718 0.0678818 -0.089791037
-0.1942724 0.0678818 -0.089206144
-0.11561256 0.0678818 -0.086051807
-0.066163197 0.067881793 -0.080216676
0.0011909306 0.0678818 -0.081965439
0.032327503 0.0678818 -0.087312505
0.040183887 0.0678818 -0.088939205
0.10295206 0.0678818 -0.083682775
0.11340225 0.0678818 -0.087791473
-0.27780104 0.11140001 -0.087841175
0.049277723 0.11140001 -0.081570007
0.26785037 0.1114 -0.089836851
-0.32314301 -0.027299518 -0.078896977
0.28123957 0.0099616405 -0.079453245
-0.36882445 0.0678818 -0.073250234
-0.28708136 0.0678818 -0.075324252
-0.2610985 0.0678818 -0.071255699
-0.089675561 0.0678818 -0.077267304
0.10547269 0.0678818 -0.077206478
-0.37913299 0.10861602 -0.07273984
-0.2691603 0.11139999 -0.079156741
0.05829595 0.1114 -0.079776451
0.26417723 0.11140001 -0.071757831
0.26298299 -0.0012684958 -0.068955667
0.26639414 0.0073387204 -0.064020798
-0.36119017 0.0678818 -0.064781621
-0.25192794 0.0678818 -0.069924481
-0.16789165 0.0678818 -0.068524711
0.27588904 0.0678818 -0.0675679
0.37380081 0.0678818 -0.062985577
-0.37787145 0.1114 -0.066524513
0.068756446 0.1114 -0.062780723
0.16718686 0.1114 -0.069949962
0.18671018 0.1114 -0.067375436
0.27402115 0.11139999 -0.067442901
0.28235865 0.11140001 -0.066280589
0.26346394 -0.0416293 -0.058227226
-0.32314301 -0.028762477 -0.050970133
0.31057101 -0.0078660948 -0.055066694
-0.28435802 0.0062045502 -0.057014558
0.30208224 0.0099616405 -0.051445559
-0.37290397 0.0678818 -0.054515198
-0.32986706 0.0678818 -0.055893224
-0.27518997 0.0678818 -0.055471834
-0.24882244 0.0678818 -0.050240301
-0.10749173 0.0678818 -0.05656071
0.1479699 0.0678818 -0.052742809
0.18310966 0.0678818 -0.050156314
0.22875398 0.0678818 -0.05388923
-0.20970535 0.11140001 -0.057813872
-0.064243227 0.11139999 -0.054245524
0.039957568 0.1114 -0.051388778
0.058005646 0.11140001 -0.053024225
0.15635167 0.1114 -0.057842635
0.26755711 0.11140001 -0.058842935
0.28589475 0.1114 -0.051932842
0.30726802 0.11140001 -0.05135116
0.33169833 0.11139999 -0.054848626
0.28623304 -0.0416293 -0.047376432
0.31057101 -0.033282526 -0.041406974
-0.32314301 -0.028582707 -0.045637049
-0.26835299 -0.00100462 -0.048492312
-0.31102926 0.0062045502 -0.0400168
-0.299196 0.0678818 -0.041946579
-0.19866428 0.0678818 -0.049983736
0.044601262 0.0678818 -0.046244748
0.087102972 0.0678818 -0.046676792
-0.2148782 0.11139999 -0.047267456
-0.16641301 0.11139999 -0.047001071
-0.046278067 0.11139999 -0.049458653
0.087316997 0.11140001 -0.042922534
0.25517836 0.11140001 -0.04119812
0.33874357 0.1114 -0.049940269
-0.3201836 -0.0490411 -0.030336849
-0.30088624 -0.0490411 -0.036635384
0.28065464 -0.0416293 -0.036780573
-0.15010419 0.0678818 -0.036281317
-0.1074582 0.0678818 -0.032627393
0.12257938 0.067881793 -0.035013016
0.26381153 0.0678818 -0.03776633
0.27802381 0.0678818 -0.035604857
-0.37913299 0.080572151 -0.032372884
-0.37913299 0.092916399 -0.038202152
0.383847 0.090123013 -0.034025766
-0.17501259 0.1114 -0.036054436
-0.100038 0.1114 -0.036803603
-0.04097794 0.1114 -0.034526877
-0.032626174 0.11140001 -0.032217257
0.019939452 0.1114 -0.036023028
0.023256257 0.11140001 -0.039830737
0.050921619 0.1114 -0.031284221
0.084346265 0.11140001 -0.03662375
0.096929923 0.1114 -0.035356857
0.13433783 0.1114 -0.037188724
0.3356027 0.1114 -0.037489817
-0.32314301 -0.025166035 -0.020231502
0.27658945 0.0099616405 -0.020540021
-0.1547374 0.0678818 -0.024574861
-0.084069043 0.0678818 -0.022958755
0.17487372 0.0678818 -0.022345476
0.38365325 0.0678818 -0.029811513
-0.37084377 0.1114 -0.02511172
-0.35855299 0.1114 -0.027157877
-0.21049377 0.11139999 -0.026057985
-0.039720081 0.1114 -0.026657432
0.057490919 0.1114 -0.020342464
-0.27490649 -0.0490411 -0.014461078
0.27080083 -0.0416293 -0.017913543
0.28082851 -0.0416293 -0.015086807
-0.32314301 -0.025713921 -0.013046227
0.26298299 -0.029197281 -0.017774398
-0.32314301 -0.013600359 -0.015562227
-0.31697062 0.0062045502 -0.013070792
0.27882823 0.011529602 -0.0118021
-0.32314301 0.037260059 -0.010478737
-0.32198715 0.049222339 -0.018297801
0.29808831 0.042381298 -0.0118021
-0.28489545 0.051034044 -0.018297801
-0.26703954 0.0678818 -0.011732125
-0.021872785 0.0678818 -0.015799886
0.042988755 0.0678818 -0.017690254
0.1525355 0.0678818 -0.011685895
0.2653347 0.065776855 -0.0118021
-0.37913299 0.086202018 -0.012060873
-0.35154802 0.11139999 -0.018268138
-0.15213694 0.1114 -0.017193161
0.014816701 0.1114 -0.014558423
0.029032648 0.1114 -0.012469642
0.15025017 0.11139999 -0.017826509
0.27306414 -0.0416293 -0.0061851218
0.31057101 0.0026314855 -0.0069452617
-0.32314301 0.016277479 -0.0097222142
-0.32314301 0.038021833 -0.0056601539
-0.26835299 0.055220582 -0.00063362205
-0.36434844 0.0678818 -0.0045627225
0.16184816 0.0678818 -0.0053133257
0.18393189 0.0678818 -0.0026341355
0.1941793 0.0678818 -0.0056580608
0.24594685 0.0678818 -0.0061417748
0.31057101 0.066747397 -0.0069046454
-0.18569615 0.1114 -0.0034834184
-0.095268868 0.11139999 -0.0053707473
-0.059975777 0.1114 -0.0018387549
-0.041406706 0.1114 -0.00544006
0.026710518 0.1114 -0.0077065113
0.26828194 0.11139999 -0.00072472915
0.30295485 -0.0416293 0.0056366958
-0.26835299 -0.01191836 0.0026177671
0.26298299 0.0088418759 0.0093871541
-0.32314301 0.048496634 0.0070300107
-0.25489923 0.0678818 0.0071755871
-0.23283327 0.0678818 0.0019454053
-0.20681834 0.0678818 0.0071071344
-0.13136575 0.0678818 0.0076381862
-0.083865516 0.0678818 0.0093941959
0.25172743 0.0678818 0.007984695
0.383847 0.090883635 0.0002073436
-0.21662781 0.1114 0.003846027
-0.050660111 0.11140001 0.0041240943
0.10449835 0.11139999 0.0014501698
0.20080414 0.1114 0.0041980594
0.2787284 0.11139999 0.0013885424
0.29764524 0.1114 0.0051712915
0.36963701 0.1114 0.0065814108
0.26298299 -0.023224926 0.014211334
-0.26835299 -0.016515197 0.015679963
-0.26835299 -0.009823625 0.010896435
-0.30543441 0.0062045502 0.012424808
-0.37162572 0.0678818 0.010771174
-0.18494815 0.0678818 0.014560154
-0.024127245 0.0678818 0.016851095
-0.00056715775 0.0678818 0.0144952
0.13065475 0.0678818 0.017018514
0.15139723 0.0678818 0.011158781
0.16429447 0.0678818 0.01463519
0.20333895 0.0678818 0.015919313
0.3222028 0.0678818 0.015647145
0.36456084 0.0678818 0.013945617
-0.14198333 0.11140001 0.015164257
-0.11047542 0.1114 0.015927356
0.14375246 0.1114 0.016402174
0.19738258 0.11140001 0.0180436
0.2188822 0.11140001 0.017160827
0.32017532 0.11139999 0.018208541
-0.31257743 -0.0490411 0.028112601
-0.26835299 -0.010098315 0.02415132
-0.28760278 0.0062045502 0.028703872
-0.26835299 0.013127041 0.026996426
-0.32314301 0.035680424 0.027350094
0.31057101 0.037614241 0.024399363
0.26298299 0.046583895 0.027391363
-0.35400534 0.0678818 0.022872299
-0.19803095 0.0678818 0.024505772
0.2456295 0.0678818 0.027422342
0.3642593 0.0678818 0.026234852
0.37765619 0.0678818 0.021866569
-0.33896852 0.11140001 0.029566508
-0.31291282 0.1114 0.021570537
-0.14414954 0.1114 0.02327456
-0.048549145 0.1114 0.028567921
-0.024005368 0.11140001 0.027817816
0.086906634 0.1114 0.023718294
0.11003181 0.1114 0.020816449
0.22702803 0.11139999 0.020513086
-0.26835299 -0.045237277 0.033928618
0.26675946 -0.0416293 0.039641052
0.26298299 -0.022256237 0.039579786
0.26298299 -0.014221612 0.037588861
0.26298299 -0.0091073792 0.034720715
-0.3074677 0.0062045502 0.038439739
-0.29768944 0.0072626872 0.036491804
0.26792458 0.0099616405 0.031551942
0.27760464 0.0099800527 0.033596724
0.28534955 0.0099616405 0.034542505
0.31057101 0.015391655 0.035423964
-0.32314301 0.024192741 0.030870894
-0.30362207 0.032386541 0.0364918
0.31057101 0.043208934 0.034480922
-0.35554892 0.0678818 0.031517837
-0.25175875 0.0678818 0.033087909
-0.086528398 0.0678818 0.0387372
-0.0055047721 0.0678818 0.035169303
0.045528308 0.0678818 0.038620915
0.096556328 0.0678818 0.036955461
0.25331265 0.0678818 0.032901313
0.38305107 0.0678818 0.031254973
0.383847 0.10948946 0.033062749
-0.32265195 0.1114 0.033763804
-0.31066963 0.11140001 0.039894931
-0.30668089 0.1114 0.037691485
-0.18393987 0.1114 0.039262116
-0.17139956 0.1114 0.039756805
-0.037547559 0.11140001 0.037792996
-0.012745596 0.1114 0.039184369
0.30728507 0.11140001 0.030054923
0.26874143 -0.0416293 0.046065316
-0.29001707 0.0062045502 0.0417974
-0.27840468 0.0062045502 0.043995686
-0.06262771 0.0678818 0.043244973
-0.30331591 0.1114 0.049271356
0.26006144 0.11139999 0.04105708
-0.27572656 0.0062045502 0.057545744
0.31057101 0.0070719263 0.058251806
-0.24774253 0.0678818 0.051542155
-0.19247825 0.0678818 0.052394278
-0.16180554 0.0678818 0.054943796
0.37138826 0.0678818 0.055618785
-0.29543424 0.11139999 0.05159957
-0.2543169 0.1114 0.053922344
-0.23387828 0.1114 0.056336656
0.038450137 0.11139999 0.051580884
0.097204909 0.1114 0.051265761
0.23617539 0.11139999 0.055237968
0.27636015 0.1114 0.05079703
0.33512646 0.1114 0.051130965
0.26298299 -0.034439914 0.062633738
0.26298299 -0.029762566 0.06800662
-0.372428 0.0678818 0.062795654
-0.10896823 0.0678818 0.062846854
-0.056254845 0.0678818 0.064707629
-0.045236293 0.0678818 0.065913029
-0.035776928 0.0678818 0.069585025
0.30928513 0.0678818 0.064086042
0.31779951 0.0678818 0.067720711
0.38169894 0.0678818 0.060531892
-0.37913299 0.096726924 0.06524121
0.383847 0.10942343 0.060966991
-0.30642116 0.11139999 0.061231509
-0.19381952 0.11140001 0.069161311
-0.17812479 0.1114 0.062637627
-0.068227693 0.11139999 0.06747283
0.021900143 0.11140001 0.065647759
0.36361733 0.11140001 0.067682087
0.27917343 -0.0416293 0.075275935
0.30948651 -0.0416293 0.079204097
-0.3334102 0.0678818 0.076625027
-0.32219228 0.0678818 0.078183122
-0.2736004 0.0678818 0.076815203
-0.1324679 0.0678818 0.077073574
0.12174515 0.0678818 0.0763041
0.1537993 0.0678818 0.078456499
0.16376999 0.0678818 0.073439598
0.24135911 0.0678818 0.074677251
0.32811481 0.0678818 0.07018356
0.383847 0.088614449 0.073390529
0.383847 0.091003746 0.071607858
-0.37913299 0.1061457 0.079909682
-0.33384854 0.11139999 0.072803564
-0.3261739 0.11140001 0.07045798
-0.29708678 0.11140001 0.074796982
-0.26212138 0.1114 0.071758591
-0.038354181 0.11140001 0.077360451
-0.016928915 0.11140001 0.078317896
0.092125982 0.11139999 0.071307093
0.14267209 0.1114 0.079096586
0.31875485 0.1114 0.078416482
-0.32632804 0.0678818 0.089933455
-0.24740097 0.0678818 0.084592886
-0.16804677 0.0678818 0.081273384
-0.068755127 0.0678818 0.082894139
0.086041823 0.0678818 0.082865976
0.11542002 0.0678818 0.089880593
0.37042341 0.0678818 0.08650361
0.383847 0.080299437 0.082012475
-0.067308329 0.11139999 0.081471913
0.029812232 0.1114 0.085702024
0.18651848 0.1114 0.082359731
0.27579492 0.11140001 0.080116287
0.30096093 0.11140001 0.089812629
0.31057101 -0.041518185 0.095143676
-0.26704231 0.067881808 0.098599412
-0.12388162 0.0678818 0.093261123
0.143666 0.0678818 0.098664179
0.20929962 0.0678818 0.098668873
0.28784129 0.0678818 0.097673111
0.29608959 0.0678818 0.099859826
-0.37913299 0.078233555 0.091278344
-0.37913299 0.081829168 0.09549059
-0.37913299 0.099994577 0.09765882
-0.17343937 0.1114 0.092552237
-0.028240329 0.1114 0.096743934
0.0098406225 0.11140001 0.090315387
0.025619529 0.11140001 0.09365806
0.17592937 0.11139999 0.097126454
0.27800906 0.11139999 0.097752579
0.28854898 0.1114 0.095000982
0.38148743 0.1114 0.093282476
0.26298299 -0.010077897 0.10185562
-0.270109 0.0062045502 0.10482448
-0.24986556 0.0678818 0.10969062
-0.1771756 0.0678818 0.10266762
-0.15178514 0.0678818 0.10749296
-0.11185092 0.067881793 0.10754237
-0.093738899 0.0678818 0.10881208
0.02044449 0.0678818 0.10115155
0.18868652 0.0678818 0.1048343
-0.37913299 0.086680189 0.10862493
0.383847 0.09923894 0.10146008
-0.34697664 0.1114 0.1045633
-0.2935867 0.1114 0.10540554
-0.195366 0.1114 0.10247801
-0.12149305 0.1114 0.10376009
-0.085253462 0.11139999 0.10276192
0.1609112 0.1114 0.10219541
0.18279026 0.1114 0.10842919
-0.27726245 -0.0490411 0.11201836
0.26298299 -0.014433805 0.11395564
-0.32314301 -0.0022749733 0.11309895
-0.26835299 -0.0047588362 0.11769935
-0.26835299 0.0054850159 0.11901046
-0.33031839 0.0678818 0.11223491
-0.045580149 0.0678818 0.11061686
0.26873463 0.0678818 0.1131503
-0.12559931 0.072004348 0.113479
-0.078441054 0.075785406 0.113479
0.04750412 0.074220888 0.113479
-0.32830822 0.088976607 0.113479
-0.12190694 0.087486818 0.113479
-0.032597914 0.087309279 0.113479
-0.014277861 0.085913405 0.113479
0.00086972117 0.085291356 0.113479
0.34072107 0.08325915 0.113479
-0.24692468 0.099156037 0.113479
-0.11227839 0.094003178 0.113479
0.00034928322 0.09217035 0.113479
0.2294946 0.096456118 0.113479
0.26920986 0.099991702 0.113479
0.34412619 0.093821548 0.113479
-0.33566862 0.10339834 0.113479
-0.28100613 0.1087985 0.113479
-0.27610818 0.10909469 0.113479
-0.21038163 0.10410146 0.113479
-0.10324781 0.1019071 0.113479
0.054771215 0.10119784 0.113479
0.077478223 0.10271868 0.113479
0.10625911 0.1007265 0.113479
0.19078439 0.10490625 0.113479
0.20881638 0.1005163 0.113479
0.22178352 0.10747027 0.113479
0.27311891 0.10732238 0.113479
-0.072112516 0.11140001 0.11320344
-0.068370983 0.11119607 0.113479
-0.025262557 0.1114 0.11043235
0.096545577 0.1114 0.11135238
0.29410017 0.11139999 0.1112631
0.38074097 0.1100567 0.113479
0.30873466 -0.0416293 0.12501153
-0.32314301 -0.028027326 0.12048758
0.29947144 0.0099616405 0.12444932
-0.31110871 -0.0490411 0.13407211
0.2755698 -0.0416293 0.13135652
-0.26835299 -0.01050102 0.13365546
-0.27369672 0.0062045497 0.13856961
-0.32314301 0.0036222085 0.14698033
-0.28571382 0.0062045502 0.14249411
-0.26835299 0.0026013171 0.14681925
-0.30042171 -0.0490411 0.15850328
-0.26835299 -0.025989508 0.15483987
-0.26835299 -0.017119709 0.15563485
-0.30783299 0.0062045502 0.15983139
-0.27687556 -0.0490411 0.16943792
0.31057101 -0.033374064 0.1634685
-0.32314301 -0.013557309 0.16328776
-0.31777203 0.0062045502 0.16250436
-0.28828174 0.0062045502 0.16940251
0.31057101 0.0042387946 0.16912854
-0.33150637 -0.090957597 0.17518699
0.25858736 -0.092666961 0.17657527
0.28198436 -0.098050512 0.17518702
0.31409478 -0.094072305 0.17664507
-0.31511906 -0.083314002 0.17518702
0.29543632 -0.082253546 0.17518701
0.34751058 -0.070213772 0.17518701
-0.3624804 -0.064658605 0.17518701
-0.35905075 -0.066463448 0.17518701
-0.25812602 -0.066308841 0.17518701
0.24017666 -0.067620181 0.17518701
-0.36545965 -0.052966304 0.17518701
-0.29078439 -0.055838887 0.17518701
-0.22230132 -0.057560917 0.17518702
0.28296638 -0.0416293 0.17473629
0.29045779 -0.047591023 0.17518701
0.32762444 -0.046224892 0.17518701
-0.35814372 -0.037993561 0.17518701
0.24861315 -0.033260882 0.17518701
0.25814721 -0.037901785 0.17518701
0.32136258 -0.038096562 0.17518701
0.35013235 -0.037141196 0.17518701
0.24653883 -0.025292944 0.17518701
0.2551266 -0.028112106 0.17518701
0.31911516 -0.027721129 0.17518701
0.34888116 -0.027832314 0.17518701
-0.34219754 -0.010468394 0.17518701
-0.32343298 -0.013001371 0.17518699
0.25077391 -0.018529804 0.17518702
-0.35749006 -0.0037775636 0.17518699
-0.34878489 -0.0056019351 0.17518701
-0.26453722 -0.0012757415 0.17518701
0.3576633 -0.0014794711 0.17518701
0.33721814 0.0041316194 0.17518701
0.34949711 0.0018042914 0.17518701
-0.34332371 0.010635131 0.17518701
-0.29498416 0.022426194 0.17518701
0.22450328 0.028879594 0.17518701
0.2788882 0.027600767 0.17518701
0.29781979 0.023194579 0.17518701
0.31734711 0.02858285 0.17518701
0.34444141 0.02496051 0.17518701
-0.28779876 0.035902109 0.17518701
0.27930456 0.037855975 0.17518699
0.30936989 0.031420216 0.17518702
-0.29824483 0.049383372 0.17518701
0.32898355 0.045997132 0.17518701
0.24719337 0.058387801 0.1798033
0.25358441 0.054786466 0.17518701
0.29311609 0.056390956 0.17518702
-0.30981925 0.061726436 0.17518699
0.33533615 -0.083752878 0.18091682
0.30782998 -0.0416293 0.18932167
0.3690958 -0.03890102 0.18784143
-0.38263807 -0.025598623 0.18073495
0.31057101 -0.022028465 0.18474585
0.20716082 0.0040990696 0.18544731
0.21188182 0.018593622 0.1897915
0.23086593 0.046467043 0.18137042
-0.25185475 0.054503664 0.18401392
0.23620647 0.050858818 0.18541633
-0.30066648 0.065218627 0.18791442
0.26340947 -0.094718754 0.19764705
-0.36364824 -0.076394483 0.19113655
-0.20916499 -0.040172029 0.19045916
0.21068014 -0.04446486 0.19316703
-0.38110608 -0.038470905 0.19265588
-0.38300085 -0.022550318 0.19506779
0.27361736 0.0099616405 0.19891438
0.20842448 0.010865453 0.19189225
0.21649219 0.028226329 0.19669479
0.21755663 0.030450296 0.1921182
-0.35514727 0.042020962 0.19340871
-0.34644696 0.048526451 0.19909611
-0.30334231 0.064900137 0.1909501
-0.28755516 0.065120503 0.19591272
-0.32054165 -0.10639876 0.20766273
-0.30421242 -0.10923788 0.20150571
-0.27160287 -0.10706437 0.20807265
0.31331024 -0.094348907 0.208317
0.24230659 -0.084728926 0.20984983
0.2166526 -0.057132166 0.20865941
0.36746296 -0.043350011 0.20521888
0.26298299 -0.038179502 0.20711979
0.31057101 -0.013663431 0.20339993
-0.20920061 -0.0025233123 0.20677266
-0.21513425 0.013799393 0.20645836
-0.36471009 0.030610904 0.20000729
-0.26640338 0.060743175 0.20206757
0.32458639 -0.090373307 0.21435258
-0.23897822 -0.089564487 0.21281074
0.28926799 -0.0416293 0.21218461
-0.20786843 -0.0311909 0.21519142
0.37241101 -0.013743469 0.21292663
-0.36321136 0.032514691 0.21033543
0.24901558 0.059636503 0.21214278
0.25042504 -0.088759869 0.22979088
0.33155075 -0.086346798 0.22868967
0.20676921 -0.03337232 0.22461291
0.26298299 -0.039487708 0.22907962
-0.38016599 -0.00025933859 0.22800428
0.26298299 -0.0062936842 0.22894129
0.35144749 0.041730769 0.22776523
-0.33349976 0.056602266 0.22531308
-0.30553529 -0.10904697 0.23283407
-0.26462966 -0.10427701 0.23674798
-0.34869349 -0.091214016 0.23017874
0.28465724 -0.098307744 0.23614711
0.3007848 -0.097306669 0.23774311
0.22917199 -0.073479772 0.23449273
0.34561327 -0.076401718 0.23237616
0.26298299 -0.010188488 0.23296016
0.3101477 0.0099616405 0.23771073
0.32671899 0.05995224 0.23250961
0.33625543 0.054787442 0.23705837
-0.32414943 0.060339518 0.23907332
0.26918018 0.067249253 0.2325201
-0.2438153 -0.093181357 0.24651375
0.20602936 -0.0019594561 0.24040958
0.26298299 -0.0057276986 0.24243727
-0.36723229 0.027407102 0.24184531
-0.3612951 0.034948789 0.24005042
-0.23051177 0.037700802 0.24446766
-0.23968868 0.045629919 0.24568371
0.34050995 0.051143482 0.24359319
0.28024006 0.068680428 0.24133244
-0.33382139 -0.10070331 0.25094894
-0.27862319 -0.10834206 0.25805911
-0.33631879 -0.099632218 0.25929266
-0.2498205 -0.09767168 0.2534844
0.33386514 -0.084760875 0.25442827
-0.21424156 -0.055933852 0.25576192
0.31057101 -0.032676525 0.25050873
-0.21609801 0.016210681 0.25066543
-0.33606631 0.055576451 0.25708297
-0.30578327 0.06460961 0.25647229
-0.29839668 0.065488793 0.25780451
0.25560069 0.062461674 0.2562077
-0.31675619 -0.10739063 0.26590985
-0.35147268 -0.089025959 0.26589048
0.34638202 -0.075504094 0.26234925
-0.37210849 -0.064842135 0.26553077
0.20548822 -0.022184871 0.26123959
0.26298299 -0.00028233975 0.26661265
0.22891882 0.044193752 0.26736072
-0.33545831 0.055819452 0.26580432
0.33139372 0.057714649 0.26714855
0.25152722 0.061025538 0.2685279
0.27924362 0.068603389 0.26254225
-0.32707992 -0.10359461 0.27993706
-0.30418396 -0.10924199 0.27075338
0.24869743 -0.087932907 0.27157059
0.32642233 -0.089726031 0.27470517
0.349731 -0.071593709 0.27987018
0.36877826 -0.040601481 0.27657259
0.26298299 -0.02793134 0.27553201
-0.37655994 0.0094495881 0.27850759
-0.21059424 0.0024402016 0.27052516
0.20643042 0.00018807547 0.27134377
-0.24313094 0.048340011 0.27610964
-0.34186226 0.051954571 0.27550384
-0.2477857 0.051990278 0.27665383
0.24498805 0.05687657 0.27159542
0.33072922 0.058032729 0.27515149
0.23788336 -0.080940634 0.28663376
0.23169839 -0.07564351 0.28730807
0.29676124 -0.0416293 0.28092262
0.20596251 -0.028321426 0.28401783
0.31057101 -0.028624946 0.28602147
0.26298299 -0.016169634 0.28160784
0.26770663 0.0099616405 0.28555223
0.27958861 0.0099616405 0.28849229
0.36346087 0.024198389 0.28413466
-0.33987078 -0.098108813 0.29729953
0.26025388 -0.093464687 0.29961479
-0.21654081 -0.061295174 0.29624978
-0.38149589 -0.035195537 0.2924915
0.26298299 -0.027459862 0.29350781
-0.21198401 0.0059174481 0.29431015
0.29523087 0.0099616405 0.29027966
-0.33066949 0.057733506 0.29039216
0.32754135 0.059558596 0.29028857
-0.2809886 0.064172626 0.29626343
-0.28122011 -0.080128312 0.30010599
-0.27030259 -0.088614061 0.30010599
-0.34912592 -0.07310275 0.30010599
0.31890383 -0.07128609 0.300419
-0.3646453 -0.061036892 0.30010599
-0.29345474 -0.06478636 0.30010599
-0.27071956 -0.063838869 0.30010599
0.28890124 -0.063449621 0.300419
-0.34456789 -0.051610574 0.30010599
-0.32542485 -0.05247445 0.30010599
0.21666865 -0.051625341 0.300419
0.2458109 -0.051597681 0.300419
-0.36079794 -0.040054284 0.30010599
-0.3222954 -0.041828915 0.30010599
0.2184245 -0.044543575 0.300419
0.31719342 -0.044090465 0.300419
-0.300291 -0.035352178 0.30010599
-0.25564557 -0.031735219 0.30010599
0.22929236 -0.033051472 0.300419
0.24123341 -0.032831311 0.300419
0.25917631 -0.030014798 0.300419
0.32037714 -0.030686243 0.300419
-0.25514975 -0.022072028 0.30010599
-0.35028064 -0.010100451 0.30010599
-0.34896278 -0.018430196 0.30010599
-0.30635396 -0.018239681 0.30010599
-0.28076744 -0.014564831 0.30010599
0.21890076 -0.014367074 0.300419
0.2508567 -0.014752682 0.300419
0.32746387 -0.014145167 0.300419
-0.24751447 -0.0039391844 0.30010599
-0.29092115 0.009169871 0.30010599
-0.26834741 0.0060798139 0.30010599
0.33264014 0.0085191345 0.300419
-0.26730052 0.013713941 0.30010599
0.28223014 0.013815805 0.300419
-0.31696028 0.026726792 0.30010599
0.2823981 0.023606483 0.300419
0.3542138 0.026473314 0.300419
0.29536551 0.032303855 0.300419
-0.32465294 0.043191403 0.30010599
-0.28749728 0.04768496 0.30010599
0.25460923 0.040686995 0.300419
